# .PCD v0.7 - Point Cloud Data file format
VERSION 0.7
FIELDS x y z rgb
SIZE 4 4 4 4
TYPE F F F U
COUNT 1 1 1 1
WIDTH 1259
HEIGHT 1
VIEWPOINT 0 0 0 1 0 0 0
POINTS 1259
DATA ascii
-0.1284928 -0.74338073 1.763772 10117186
-0.11115485 -0.74338073 1.763772 9395523
-0.089907847 -0.71240652 1.6902815 8936000
-0.076478928 -0.74338073 1.763772 9395523
-0.064773448 -0.81417888 1.9317503 9790018
-0.048073467 -0.8548879 2.028338 9790274
-0.028134815 -0.8548879 2.028338 10184775
-0.0086275386 -0.89988196 2.1350925 10118470
0.013047212 -0.94987547 2.2537088 10118985
0.037271932 -1.0057504 2.3862798 9987144
0.060729168 -1.0057504 2.3862798 10053195
0.084186405 -1.0057504 2.3862798 9987402
0.10764365 -1.0057504 2.3862798 9988169
0.12381751 -0.94987547 2.2537088 9922377
0.13828884 -0.89988196 2.1350925 10185034
0.1592769 -0.89988196 2.1350925 9921865
0.18026496 -0.89988196 2.1350925 9855558
0.21243374 -0.94987547 2.2537088 9988429
0.24838707 -1.0057504 2.3862798 10053194
0.2718443 -1.0057504 2.3862798 9659208
0.29530156 -1.0057504 2.3862798 9658438
0.31875879 -1.0057504 2.3862798 9528135
0.34221601 -1.0057504 2.3862798 9528133
0.36567327 -1.0057504 2.3862798 9330756
0.3891305 -1.0057504 2.3862798 9395268
0.38966623 -0.94987547 2.2537088 8804674
0.43604496 -1.0057504 2.3862798 9263941
0.45950222 -1.0057504 2.3862798 9265223
0.48295945 -1.0057504 2.3862798 9528134
0.47828245 -0.94987547 2.2537088 9331267
0.50043648 -0.94987547 2.2537088 9462085
0.52259058 -0.94987547 2.2537088 10053196
0.54474461 -0.94987547 2.2537088 9724746
0.51020885 -0.8548879 2.028338 9857100
0.53014749 -0.8548879 2.028338 10315083
0.55008614 -0.8548879 2.028338 10119760
0.57002479 -0.8548879 2.028338 10119501
0.53633034 -0.77717078 1.8439435 10512975
0.55445641 -0.77717078 1.8439435 10512714
0.57258248 -0.77717078 1.8439435 10841680
0.59070849 -0.77717078 1.8439435 10514256
0.63782668 -0.81417888 1.9317503 10710609
0.62696058 -0.77717078 1.8439435 10973265
0.64508665 -0.77717078 1.8439435 10908239
0.66321272 -0.77717078 1.8439435 11038542
0.74947268 -0.8548879 2.028338 10909266
0.76941133 -0.8548879 2.028338 11302486
0.83089465 -0.89988196 2.1350925 11433556
0.95210421 -1.0057504 2.3862798 11368790
0.97556144 -1.0057504 2.3862798 11762006
0.99901867 -1.0057504 2.3862798 11828056
1.022476 -1.0057504 2.3862798 11631447
1.111304 -1.0686098 2.5354223 11959644
1.1362273 -1.0686098 2.5354223 12156249
1.1611506 -1.0686098 2.5354223 12484444
1.1163049 -1.0057504 2.3862798 12418648
1.1397622 -1.0057504 2.3862798 12550748
1.1632193 -1.0057504 2.3862798 12615773
1.1866766 -1.0057504 2.3862798 12616797
1.2101338 -1.0057504 2.3862798 12813404
1.2335911 -1.0057504 2.3862798 12814946
1.3356138 -1.0686098 2.5354223 13272672
1.3605372 -1.0686098 2.5354223 13010783
1.3039628 -1.0057504 2.3862798 13141856
1.32742 -1.0057504 2.3862798 13077089
1.3508773 -1.0057504 2.3862798 13535842
1.3743345 -1.0057504 2.3862798 13143654
1.3977917 -1.0057504 2.3862798 13143139
1.510077 -1.0686098 2.5354223 13535585
1.6373336 -1.1398504 2.7044504 13536102
1.6639185 -1.1398504 2.7044504 13601636
1.4916207 -1.0057504 2.3862798 13339233
1.5150779 -1.0057504 2.3862798 13404256
1.5385351 -1.0057504 2.3862798 13273441
1.7702579 -1.1398504 2.7044504 13272927
1.9251888 -1.2212683 2.8976254 13601635
1.9536726 -1.2212683 2.8976254 13470051
2.13463 -1.3152121 3.1205199 13338720
2.1653049 -1.3152121 3.1205199 13404257
2.378978 -1.424813 3.380563 12748384
2.412209 -1.424813 3.380563 13404258
2.4454401 -1.424813 3.380563 13010785
2.4786713 -1.424813 3.380563 12813919
2.5119023 -1.424813 3.380563 13010784
2.5451334 -1.424813 3.380563 13339237
2.5783644 -1.424813 3.380563 12682591
2.4107037 -1.3152121 3.1205199 12616795
2.2669942 -1.2212683 2.8976254 12944991
2.142446 -1.1398504 2.7044504 12617058
2.0334666 -1.0686098 2.5354223 12420189
1.9373082 -1.0057504 2.3862798 12420188
1.9607655 -1.0057504 2.3862798 12354143
2.4094131 -1.2212683 2.8976254 12419936
2.437897 -1.2212683 2.8976254 12222559
3.1390302 -1.5543416 3.687887 12354143
3.1752822 -1.5543416 3.687887 11829086
3.9252088 -1.8997509 4.5074177 12223326
3.969517 -1.8997509 4.5074177 12157020
4.0138249 -1.8997509 4.5074177 12025692
4.5653996 -2.1372197 5.0708447 11696466
3.6921971 -1.7097758 4.0566759 11630935
2.4880495 -1.1398504 2.7044504 11828060
2.5146344 -1.1398504 2.7044504 11827806
2.3823931 -1.0686098 2.5354223 11630427
2.4073164 -1.0686098 2.5354223 11434070
2.4322398 -1.0686098 2.5354223 11368278
2.4571631 -1.0686098 2.5354223 11105620
2.4820864 -1.0686098 2.5354223 11302228
2.5070097 -1.0686098 2.5354223 11170383
2.5319331 -1.0686098 2.5354223 10908499
2.5568564 -1.0686098 2.5354223 11369308
2.5817795 -1.0686098 2.5354223 11235669
2.6067028 -1.0686098 2.5354223 11236437
2.6316261 -1.0686098 2.5354223 11039058
2.6565495 -1.0686098 2.5354223 10777426
2.6814728 -1.0686098 2.5354223 11106134
2.7063961 -1.0686098 2.5354223 10843734
3.1215079 -1.2212683 2.8976254 10580821
3.1499918 -1.2212683 2.8976254 10711382
3.1784754 -1.2212683 2.8976254 10907474
3.2069592 -1.2212683 2.8976254 10646101
3.4843235 -1.3152121 3.1205199 10514517
3.5149984 -1.3152121 3.1205199 10251344
3.5456731 -1.3152121 3.1205199 10382674
3.8743768 -1.424813 3.380563 10579280
3.907608 -1.424813 3.380563 10709838
3.9408391 -1.424813 3.380563 10841941
3.9740701 -1.424813 3.380563 10448468
4.3716011 -1.5543416 3.687887 10382675
4.848639 -1.7097758 4.0566759 10317653
5.431685 -1.8997509 4.5074177 10186065
5.4759932 -1.8997509 4.5074177 10447182
5.5203009 -1.8997509 4.5074177 10513232
5.5646091 -1.8997509 4.5074177 10054481
0 0 0 9989458
0 0 0 9923665
0 0 0 9923407
0 0 0 10119761
0 0 0 10251346
0 0 0 10053966
0 0 0 11302482
0 0 0 11302995
0 0 0 11302482
0 0 0 11172179
0 0 0 11106130
0 0 0 11237203
0 0 0 11236689
0 0 0 11105103
0 0 0 11368018
-11.406013 -4.174746 10.141689 11367760
0 0 0 11302227
-7.4710836 -2.783164 6.761126 11170128
-6.3468184 -2.3855691 5.7952509 11039312
-6.2898512 -2.3855691 5.7952509 11039312
-6.2328835 -2.3855691 5.7952509 10842190
-8.6462831 -3.339797 8.1133518 10777423
0 0 0 10645835
0 0 0 10973517
-8.4070187 -3.339797 8.1133518 10580045
-8.3272648 -3.339797 8.1133518 10448460
-8.24751 -3.339797 8.1133518 10579020
-8.1677551 -3.339797 8.1133518 10775116
0 0 0 10644563
0 0 0 10119757
0 0 0 10184780
0 0 0 10315598
-7.7689819 -3.339797 8.1133518 9988685
-7.6892276 -3.339797 8.1133518 10120013
0 0 0 10053191
-9.4121475 -4.174746 10.141689 9790535
-6.2083025 -2.783164 6.761126 9857098
-7.3702092 -3.339797 8.1133518 9855815
-7.2904544 -3.339797 8.1133518 9921609
-7.2107 -3.339797 8.1133518 9920838
-7.1309452 -3.339797 8.1133518 9528137
-7.0511904 -3.339797 8.1133518 9593671
-6.971436 -3.339797 8.1133518 9789768
-6.8916812 -3.339797 8.1133518 9724744
-6.8119268 -3.339797 8.1133518 9461829
-6.732172 -3.339797 8.1133518 9528135
-8.3155212 -4.174746 10.141689 9527367
-10.954437 -5.566328 13.522252 9329988
-10.821513 -5.566328 13.522252 9330245
-8.0164413 -4.174746 10.141689 9265479
-7.9167485 -4.174746 10.141689 9331017
-7.8170552 -4.174746 10.141689 9396036
-10.289816 -5.566328 13.522252 8936516
-7.6176686 -4.174746 10.141689 9002566
-10.023967 -5.566328 13.522252 9002049
-9.8910427 -5.566328 13.522252 8805442
-9.7581186 -5.566328 13.522252 8870979
0 0 0 8870722
0 0 0 8804674
0 0 0 9067848
-4.6132107 -2.783164 6.761126 8804673
-5.4560986 -3.339797 8.1133518 8739396
-5.3763437 -3.339797 8.1133518 8805188
-5.2965889 -3.339797 8.1133518 8738881
-5.2168345 -3.339797 8.1133518 8805189
-5.1370797 -3.339797 8.1133518 8410173
-5.0573254 -3.339797 8.1133518 8344638
-4.9775705 -3.339797 8.1133518 8738622
-6.1222696 -4.174746 10.141689 8541502
-6.0225763 -4.174746 10.141689 8738877
-5.922883 -4.174746 10.141689 8936256
-4.6585522 -3.339797 8.1133518 8936768
-4.5787973 -3.339797 8.1133518 9460541
-4.499043 -3.339797 8.1133518 9264450
-5.5241103 -4.174746 10.141689 9264963
-5.424417 -4.174746 10.141689 9199172
-5.3247237 -4.174746 10.141689 9133379
-5.2250304 -4.174746 10.141689 9592645
-10.250674 -8.3494921 20.283379 9528135
0 0 0 9528134
0 0 0 9658693
0 0 0 9724229
0 0 0 9462854
-9.2537413 -8.3494921 20.283379 9921090
-6.0362368 -5.566328 13.522252 9789506
-4.4274845 -4.174746 10.141689 9790023
-4.3277912 -4.174746 10.141689 9922379
-4.2280979 -4.174746 10.141689 9790792
-4.1284046 -4.174746 10.141689 9987655
-4.0287113 -4.174746 10.141689 9986885
-3.929018 -4.174746 10.141689 10118729
-3.0634599 -3.339797 8.1133518 9921604
-2.9837053 -3.339797 8.1133518 9987400
-2.9039507 -3.339797 8.1133518 10184777
-3.5302451 -4.174746 10.141689 10118471
-3.4305518 -4.174746 10.141689 10052676
-3.3308585 -4.174746 10.141689 10447434
-2.5849323 -3.339797 8.1133518 10183751
-2.5051777 -3.339797 8.1133518 10316363
-3.0317786 -4.174746 10.141689 10382156
-2.9320853 -4.174746 10.141689 10710606
-2.8323922 -4.174746 10.141689 10908239
-5.4653978 -8.3494921 20.283379 11564627
-5.2660112 -8.3494921 20.283379 13403483
-5.0666246 -8.3494921 20.283379 16296566
-1.9468954 -3.339797 8.1133518 16765870
-0.71813107 -1.2845373 3.1205199 16774366
-0.63835216 -1.1927845 2.8976254 16772575
-0.60986835 -1.1927845 2.8976254 14731946
-0.6261065 -1.2845373 3.1205199 14652509
-0.59543163 -1.2845373 3.1205199 11893074
-0.48945585 -1.1132655 2.7044504 10841163
-0.43394157 -1.0436865 2.5354223 10645067
-0.43628612 -1.1132655 2.7044504 10513228
-0.40970126 -1.1132655 2.7044504 9987912
-0.35917163 -1.0436865 2.5354223 9855554
-0.26739866 -0.83494925 2.028338 9987400
-0.24746001 -0.83494925 2.028338 9592898
-0.26767215 -0.98229319 2.3862798 9264193
-0.24421492 -0.98229319 2.3862798 9395267
-0.22075768 -0.98229319 2.3862798 9460799
-0.15971941 -0.79518968 1.9317503 8738107
-0.12313893 -0.69579101 1.6902815 8803386
-0.10652339 -0.69579101 1.6902815 8870461
-0.089907847 -0.69579101 1.6902815 8804154
-0.076478928 -0.72604275 1.763772 8804926
-0.064773448 -0.79518968 1.9317503 9197883
-0.048073467 -0.83494925 2.028338 9198653
-0.028134815 -0.83494925 2.028338 9724482
-0.0091068465 -0.92772138 2.2537088 9791046
0.013047212 -0.92772138 2.2537088 9723971
0.037271932 -0.98229319 2.3862798 10052934
0.060729168 -0.98229319 2.3862798 10119499
0.084186405 -0.98229319 2.3862798 9725000
0.10764365 -0.98229319 2.3862798 9987658
0.12381751 -0.92772138 2.2537088 9856069
0.1313744 -0.83494925 2.028338 9790531
0.15131307 -0.83494925 2.028338 10052937
0.18026496 -0.87889391 2.1350925 9790280
0.21243374 -0.92772138 2.2537088 9857098
0.24838707 -0.98229319 2.3862798 9593155
0.2718443 -0.98229319 2.3862798 9396549
0.3137579 -1.0436865 2.5354223 9461828
0.33868122 -1.0436865 2.5354223 9593413
0.36360452 -1.0436865 2.5354223 9068098
0.36567327 -0.98229319 2.3862798 9002054
0.36751217 -0.92772138 2.2537088 9264963
0.38966623 -0.92772138 2.2537088 9593417
0.39014551 -0.87889391 2.1350925 9593417
0.45950222 -0.98229319 2.3862798 10052682
0.48295945 -0.98229319 2.3862798 9856329
0.50641668 -0.98229319 2.3862798 9790795
0.52987391 -0.98229319 2.3862798 9659726
0.55333114 -0.98229319 2.3862798 10053964
0.54474461 -0.92772138 2.2537088 9988172
0.51020885 -0.83494925 2.028338 10119499
0.53014749 -0.83494925 2.028338 10053964
0.55008614 -0.83494925 2.028338 10382927
0.51820433 -0.75904471 1.8439435 10382153
0.53633034 -0.75904471 1.8439435 10776400
0.55445641 -0.75904471 1.8439435 10841679
0.57258248 -0.75904471 1.8439435 10842192
0.59070849 -0.75904471 1.8439435 10776399
0.63782668 -0.79518968 1.9317503 10974036
0.65681589 -0.79518968 1.9317503 10973521
0.67580503 -0.79518968 1.9317503 11301714
0.72953403 -0.83494925 2.028338 11039571
0.74947268 -0.83494925 2.028338 11434583
0.76941133 -0.83494925 2.028338 11434582
0.78934997 -0.83494925 2.028338 11827540
0.8518827 -0.87889391 2.1350925 11695699
0.92136365 -0.92772138 2.2537088 11762521
0.99901867 -0.98229319 2.3862798 11632729
1.0863807 -1.0436865 2.5354223 12025430
1.111304 -1.0436865 2.5354223 12221785
1.0693904 -0.98229319 2.3862798 12353625
1.1611506 -1.0436865 2.5354223 12551259
1.1163049 -0.98229319 2.3862798 12944221
1.1397622 -0.98229319 2.3862798 13207904
1.1632193 -0.98229319 2.3862798 13076063
1.1866766 -0.98229319 2.3862798 13076065
1.2101338 -0.98229319 2.3862798 13011041
1.2335911 -0.98229319 2.3862798 12945761
1.2570482 -0.98229319 2.3862798 13207907
1.2805055 -0.98229319 2.3862798 13076322
1.3039628 -0.98229319 2.3862798 13667173
1.32742 -0.98229319 2.3862798 13406309
1.3508773 -0.98229319 2.3862798 13667940
1.3743345 -0.98229319 2.3862798 13536612
1.4851537 -1.0436865 2.5354223 13470301
1.510077 -1.0436865 2.5354223 13405023
1.6373336 -1.1132655 2.7044504 13601637
1.6639185 -1.1132655 2.7044504 13798757
1.584847 -1.0436865 2.5354223 13339234
1.6097703 -1.0436865 2.5354223 13668198
1.7436731 -1.1132655 2.7044504 13470049
1.896705 -1.1927845 2.8976254 13338722
1.9251888 -1.1927845 2.8976254 13273443
1.9536726 -1.1927845 2.8976254 13405285
2.13463 -1.2845373 3.1205199 13141856
2.1653049 -1.2845373 3.1205199 13141856
2.378978 -1.391582 3.380563 13142371
2.412209 -1.391582 3.380563 13404768
2.4454401 -1.391582 3.380563 13076316
2.4786713 -1.391582 3.380563 13076063
2.5119023 -1.391582 3.380563 13208164
2.5451334 -1.391582 3.380563 13010527
2.5783644 -1.391582 3.380563 12944992
2.2385104 -1.1927845 2.8976254 12879969
2.1158612 -1.1132655 2.7044504 12747613
2.142446 -1.1132655 2.7044504 12682081
2.0334666 -1.0436865 2.5354223 12419676
2.0583899 -1.0436865 2.5354223 12551774
2.0833132 -1.0436865 2.5354223 12617568
2.1082366 -1.0436865 2.5354223 12288606
2.6254277 -1.2845373 3.1205199 12353630
2.6561024 -1.2845373 3.1205199 12288350
2.6867774 -1.2845373 3.1205199 12222814
3.9252088 -1.8554428 4.5074177 11960667
2.748127 -1.2845373 3.1205199 12091485
2.7788019 -1.2845373 3.1205199 11762522
2.8094769 -1.2845373 3.1205199 12024410
2.8401515 -1.2845373 3.1205199 11762011
2.4880495 -1.1132655 2.7044504 11631195
2.6942511 -1.1927845 2.8976254 11565400
2.7227349 -1.1927845 2.8976254 11500377
2.5678041 -1.1132655 2.7044504 11172181
2.594389 -1.1132655 2.7044504 11302227
2.4571631 -1.0436865 2.5354223 11171155
2.4820864 -1.0436865 2.5354223 11499608
2.5070097 -1.0436865 2.5354223 11433816
2.5319331 -1.0436865 2.5354223 11630425
2.5568564 -1.0436865 2.5354223 11236952
2.5817795 -1.0436865 2.5354223 11105624
2.6067028 -1.0436865 2.5354223 10842968
3.0075727 -1.1927845 2.8976254 10973780
3.0360565 -1.1927845 2.8976254 11038806
2.6814728 -1.0436865 2.5354223 10842710
3.093024 -1.1927845 2.8976254 11235672
3.1215079 -1.1927845 2.8976254 11039321
3.3922989 -1.2845373 3.1205199 11038806
3.1784754 -1.1927845 2.8976254 11039319
3.4536486 -1.2845373 3.1205199 11038036
3.4843235 -1.2845373 3.1205199 10776402
3.5149984 -1.2845373 3.1205199 10973780
3.5456731 -1.2845373 3.1205199 10579538
3.5763481 -1.2845373 3.1205199 10578768
3.907608 -1.391582 3.380563 10841425
3.9408391 -1.391582 3.380563 10514518
4.3353491 -1.5180894 3.687887 10317140
4.8087616 -1.6698985 4.0566759 10579286
4.848639 -1.6698985 4.0566759 10447186
4.8885164 -1.6698985 4.0566759 10578772
4.9283938 -1.6698985 4.0566759 10252376
5.5203009 -1.8554428 4.5074177 10120272
10.016296 -3.339797 8.1133518 10512462
10.096051 -3.339797 8.1133518 10119759
0 0 0 10446927
0 0 0 10447186
0 0 0 10250323
0 0 0 10316116
0 0 0 9660237
0 0 0 11500376
0 0 0 11565655
0 0 0 11368789
0 0 0 11565139
0 0 0 11893590
0 0 0 11893332
0 0 0 11762260
0 0 0 11499091
0 0 0 11433298
-11.406013 -4.0750527 10.141689 11368790
-6.4607539 -2.3286016 5.7952509 11499091
-6.4037862 -2.3286016 5.7952509 11367505
-6.3468184 -2.3286016 5.7952509 11302224
-6.2898512 -2.3286016 5.7952509 11498834
-6.2328835 -2.3286016 5.7952509 11105618
-7.205235 -2.7167017 6.761126 10974032
-8.5665283 -3.2600424 8.1133518 11236433
0 0 0 10973265
-8.4070187 -3.2600424 8.1133518 10974032
-8.3272648 -3.2600424 8.1133518 10973778
-8.24751 -3.2600424 8.1133518 10711628
-6.8064623 -2.7167017 6.761126 10646095
-6.7399998 -2.7167017 6.761126 10712148
-8.0082455 -3.2600424 8.1133518 10645837
0 0 0 10644813
-7.8487368 -3.2600424 8.1133518 10775628
-7.7689819 -3.2600424 8.1133518 10316619
-7.6892276 -3.2600424 8.1133518 10447434
-12.682454 -5.4334035 13.522252 10382159
-9.4121475 -4.0750527 10.141689 10249803
-6.2083025 -2.7167017 6.761126 10381129
-6.1418405 -2.7167017 6.761126 10052678
-7.2904544 -3.2600424 8.1133518 10120272
-7.2107 -3.2600424 8.1133518 10052424
-7.1309452 -3.2600424 8.1133518 9921097
-7.0511904 -3.2600424 8.1133518 9660234
-6.971436 -3.2600424 8.1133518 9724998
-6.8916812 -3.2600424 8.1133518 9856325
-6.8119268 -3.2600424 8.1133518 9593666
-6.732172 -3.2600424 8.1133518 9791046
-8.3155212 -4.0750527 10.141689 9592897
-8.2158279 -4.0750527 10.141689 9593413
-10.821513 -5.4334035 13.522252 9396806
-8.0164413 -4.0750527 10.141689 9396550
-7.9167485 -4.0750527 10.141689 9330758
-7.8170552 -4.0750527 10.141689 9396296
-10.289816 -5.4334035 13.522252 9265222
-10.156891 -5.4334035 13.522252 9396036
-15.035951 -8.1501055 20.283379 8936771
-14.836564 -8.1501055 20.283379 9329731
-9.7581186 -5.4334035 13.522252 9133377
-14.437791 -8.1501055 20.283379 9265479
-7.1192021 -4.0750527 10.141689 9067843
-5.6156077 -3.2600424 8.1133518 9002308
-4.6132107 -2.7167017 6.761126 9002311
-5.4560986 -3.2600424 8.1133518 8870207
-5.3763437 -3.2600424 8.1133518 9067586
-5.2965889 -3.2600424 8.1133518 8870467
-5.2168345 -3.2600424 8.1133518 8673345
-5.1370797 -3.2600424 8.1133518 9133379
-5.0573254 -3.2600424 8.1133518 8805189
-4.9775705 -3.2600424 8.1133518 8870210
-6.1222696 -4.0750527 10.141689 8935488
-6.0225763 -4.0750527 10.141689 8737854
-5.922883 -4.0750527 10.141689 8541502
-4.6585522 -3.2600424 8.1133518 8738366
-4.5787973 -3.2600424 8.1133518 8804413
-4.499043 -3.2600424 8.1133518 9067071
-5.5241103 -4.0750527 10.141689 8739133
-5.424417 -4.0750527 10.141689 9067584
-5.3247237 -4.0750527 10.141689 9330754
-5.2250304 -4.0750527 10.141689 9264192
-6.8337827 -5.4334035 13.522252 9396548
-6.7008581 -5.4334035 13.522252 9395266
-6.567934 -5.4334035 13.522252 9592898
0 0 0 9723459
0 0 0 9724229
0 0 0 10052422
-9.0543547 -8.1501055 20.283379 9921091
-4.4274845 -4.0750527 10.141689 9724999
-4.3277912 -4.0750527 10.141689 9659462
-4.2280979 -4.0750527 10.141689 10117958
-4.1284046 -4.0750527 10.141689 10381130
-4.0287113 -4.0750527 10.141689 9921605
-3.929018 -4.0750527 10.141689 10184522
-3.8293247 -4.0750527 10.141689 9987655
-2.9837053 -3.2600424 8.1133518 10250055
-3.6299381 -4.0750527 10.141689 9856325
-3.5302451 -4.0750527 10.141689 10118983
-3.4305518 -4.0750527 10.141689 10184264
-2.6646869 -3.2600424 8.1133518 9988169
-2.5849323 -3.2600424 8.1133518 10315338
-3.1314719 -4.0750527 10.141689 10512201
-3.0317786 -4.0750527 10.141689 10447688
-2.9320853 -4.0750527 10.141689 10513229
0 0 0 10841681
-5.4653978 -8.1501055 20.283379 11170644
-5.2660112 -8.1501055 20.283379 11760978
-2.5333123 -4.0750527 10.141689 12616022
-1.9468954 -3.2600424 8.1133518 13798493
-0.71813107 -1.2538624 3.1205199 14389336
-0.68745619 -1.2538624 3.1205199 14321488
-0.65678132 -1.2538624 3.1205199 13796690
-0.6261065 -1.2538624 3.1205199 12746580
-0.59543163 -1.2538624 3.1205199 11235662
-0.43187281 -0.95883596 2.3862798 10644810
-0.40841559 -0.95883596 2.3862798 10644558
-0.38495836 -0.95883596 2.3862798 10184778
-0.38409492 -1.0187632 2.5354223 9987655
-0.30246031 -0.85790586 2.1350925 10118470
-0.26739866 -0.81501061 2.028338 9789506
-0.17675713 -0.5821504 1.4488127 8672312
-0.18960111 -0.67917544 1.6902815 7290920
-0.19769779 -0.77620053 1.9317503 5384214
-0.15637003 -0.67917544 1.6902815 4925721
-0.12422621 -0.60371155 1.5024725 4202004
-0.092354208 -0.50938159 1.2677112 3742742
-0.094687462 -0.60371155 1.5024725 4400404
-0.089907847 -0.67917544 1.6902815 5977378
0 0 0 5319448
0 0 0 6238235
0 0 0 7751474
0 0 0 8475709
0 0 0 9788998
0 0 0 9856069
0.037271932 -0.95883596 2.3862798 9658692
0.060729168 -0.95883596 2.3862798 9921092
0.084186405 -0.95883596 2.3862798 9922378
0.10764365 -0.95883596 2.3862798 10184521
0.12381751 -0.90556735 2.2537088 9987140
0.1313744 -0.81501061 2.028338 9856069
0.15131307 -0.81501061 2.028338 9987911
0.17125171 -0.81501061 2.028338 9921349
0.21243374 -0.90556735 2.2537088 9594180
0.24838707 -0.95883596 2.3862798 9789252
0.2718443 -0.95883596 2.3862798 9592643
0.29530156 -0.95883596 2.3862798 9264450
0.33868122 -1.0187632 2.5354223 9330499
0.34221601 -0.95883596 2.3862798 9593415
0.3453581 -0.90556735 2.2537088 9462348
0.34816939 -0.85790586 2.1350925 9593412
0.36915746 -0.85790586 2.1350925 9724487
0.39014551 -0.85790586 2.1350925 9987660
0.43397433 -0.90556735 2.2537088 9856587
0.48295945 -0.95883596 2.3862798 9790794
0.50641668 -0.95883596 2.3862798 9988431
0.52987391 -0.95883596 2.3862798 10315853
0.55333114 -0.95883596 2.3862798 10447436
0.54474461 -0.90556735 2.2537088 10579022
0.51020885 -0.81501061 2.028338 10447434
0.53014749 -0.81501061 2.028338 10316366
0.50007826 -0.7409187 1.8439435 10776399
0.51820433 -0.7409187 1.8439435 10579277
0.53633034 -0.7409187 1.8439435 10907729
0.55445641 -0.7409187 1.8439435 10973519
0.57258248 -0.7409187 1.8439435 11169871
0.56502551 -0.70870483 1.763772 11039058
0.63782668 -0.77620053 1.9317503 11105364
0.65681589 -0.77620053 1.9317503 11236434
0.78843927 -0.90556735 2.2537088 11433557
0.81059337 -0.90556735 2.2537088 11696212
0.78891855 -0.85790586 2.1350925 11565912
0.8099066 -0.85790586 2.1350925 11828058
0.83089465 -0.85790586 2.1350925 11893593
0.80928862 -0.81501061 2.028338 11893849
0.8728708 -0.85790586 2.1350925 11762776
0.99901867 -0.95883596 2.3862798 12091227
1.0863807 -1.0187632 2.5354223 12288603
1.111304 -1.0187632 2.5354223 12485981
1.1362273 -1.0187632 2.5354223 12879967
1.1611506 -1.0187632 2.5354223 12944218
1.1860739 -1.0187632 2.5354223 12747359
1.1397622 -0.95883596 2.3862798 13076320
1.1632193 -0.95883596 2.3862798 12945505
1.1866766 -0.95883596 2.3862798 13536614
1.2101338 -0.95883596 2.3862798 13470303
1.2335911 -0.95883596 2.3862798 13272926
1.2570482 -0.95883596 2.3862798 13011552
1.2805055 -0.95883596 2.3862798 13601377
1.3854605 -1.0187632 2.5354223 13404771
1.4103838 -1.0187632 2.5354223 13799263
1.4353071 -1.0187632 2.5354223 13471587
1.4602304 -1.0187632 2.5354223 13274727
1.4851537 -1.0187632 2.5354223 13536612
1.6107488 -1.0866807 2.7044504 13537122
1.6373336 -1.0866807 2.7044504 13667682
1.6639185 -1.0866807 2.7044504 13994850
1.8112537 -1.1643008 2.8976254 13799271
1.9812558 -1.2538624 3.1205199 13601891
2.0119307 -1.2538624 3.1205199 13733220
2.0426054 -1.2538624 3.1205199 13470819
2.0732803 -1.2538624 3.1205199 13667430
2.1039553 -1.2538624 3.1205199 13798759
2.13463 -1.2538624 3.1205199 13470566
2.1653049 -1.2538624 3.1205199 13733478
2.378978 -1.3583509 3.380563 12945762
2.412209 -1.3583509 3.380563 12684387
2.4454401 -1.3583509 3.380563 13142884
2.4786713 -1.3583509 3.380563 13142368
2.5119023 -1.3583509 3.380563 12945760
2.5451334 -1.3583509 3.380563 13011296
2.380029 -1.2538624 3.1205199 13076063
2.4107037 -1.2538624 3.1205199 13207392
2.2669942 -1.1643008 2.8976254 12682848
2.142446 -1.0866807 2.7044504 13141086
2.0334666 -1.0187632 2.5354223 12747611
2.0583899 -1.0187632 2.5354223 12683102
2.0833132 -1.0187632 2.5354223 12682590
2.1082366 -1.0187632 2.5354223 12681820
2.1331599 -1.0187632 2.5354223 12419418
2.3019555 -1.0866807 2.7044504 12615514
2.3285403 -1.0866807 2.7044504 12157020
2.2079298 -1.0187632 2.5354223 11960157
2.2328532 -1.0187632 2.5354223 12092513
2.5803158 -1.1643008 2.8976254 11894621
2.8094769 -1.2538624 3.1205199 11959646
3.6921971 -1.6300212 4.0566759 11828830
4.1467495 -1.8111347 4.5074177 11631453
4.1910577 -1.8111347 4.5074177 11631194
2.7227349 -1.1643008 2.8976254 11434326
2.7512186 -1.1643008 2.8976254 11302485
2.594389 -1.0866807 2.7044504 11368531
2.6209738 -1.0866807 2.7044504 11499863
2.4820864 -1.0187632 2.5354223 11564632
2.5070097 -1.0187632 2.5354223 11564375
2.5319331 -1.0187632 2.5354223 11432789
2.5568564 -1.0187632 2.5354223 11499611
2.7538981 -1.0866807 2.7044504 11105882
2.780483 -1.0866807 2.7044504 11038806
3.0075727 -1.1643008 2.8976254 11301976
3.2695994 -1.2538624 3.1205199 11301719
3.0645404 -1.1643008 2.8976254 11235669
3.093024 -1.1643008 2.8976254 11039060
3.1215079 -1.1643008 2.8976254 11039316
3.3922989 -1.2538624 3.1205199 10841426
3.4229739 -1.2538624 3.1205199 11105368
3.4536486 -1.2538624 3.1205199 10777169
3.4843235 -1.2538624 3.1205199 11039058
3.5149984 -1.2538624 3.1205199 10711894
3.5456731 -1.2538624 3.1205199 10907990
3.5763481 -1.2538624 3.1205199 10776149
3.907608 -1.3583509 3.380563 10841427
3.9408391 -1.3583509 3.380563 10513745
4.3353491 -1.4818374 3.687887 10775634
4.8087616 -1.6300212 4.0566759 10513234
4.848639 -1.6300212 4.0566759 10316113
4.8885164 -1.6300212 4.0566759 10513748
4.4803576 -1.4818374 3.687887 10447953
5.5203009 -1.8111347 4.5074177 10645585
10.016296 -3.2600424 8.1133518 10579281
10.096051 -3.2600424 8.1133518 10513747
0 0 0 10251860
0 0 0 10053714
0 0 0 9988946
0 0 0 9858386
0 0 0 9858130
0 0 0 11893851
0 0 0 11828570
0 0 0 11631447
0 0 0 11828827
0 0 0 11828312
0 0 0 12025430
0 0 0 12221267
-11.605399 -3.9753594 10.141689 12155476
-9.204565 -3.1802878 8.1133518 11893332
-6.5177212 -2.2716339 5.7952509 11368789
-6.4607539 -2.2716339 5.7952509 11434583
-5.603313 -1.9876797 5.0708447 11434066
-6.3468184 -2.2716339 5.7952509 11629902
-6.2898512 -2.2716339 5.7952509 11302483
-7.2716975 -2.6502397 6.761126 11302739
-7.205235 -2.6502397 6.761126 11367762
-6.1189485 -2.2716339 5.7952509 11171666
-6.0619807 -2.2716339 5.7952509 11040595
-10.508773 -3.9753594 10.141689 11105874
-10.40908 -3.9753594 10.141689 10973777
-8.24751 -3.1802878 8.1133518 11170644
-6.8064623 -2.6502397 6.761126 10842445
-6.7399998 -2.6502397 6.761126 11105103
-8.0082455 -3.1802878 8.1133518 11039055
0 0 0 10776399
-7.8487368 -3.1802878 8.1133518 10906702
-7.7689819 -3.1802878 8.1133518 10710860
-9.6115341 -3.9753594 10.141689 10644813
-12.682454 -5.3004794 13.522252 10776143
-12.549529 -5.3004794 13.522252 10250057
-7.4499636 -3.1802878 8.1133518 10382411
-7.3702092 -3.1802878 8.1133518 10381897
-7.2904544 -3.1802878 8.1133518 10381641
-7.2107 -3.1802878 8.1133518 10513486
-7.1309452 -3.1802878 8.1133518 10249290
-7.0511904 -3.1802878 8.1133518 10184780
-6.971436 -3.1802878 8.1133518 10315850
-6.8916812 -3.1802878 8.1133518 10250059
-6.8119268 -3.1802878 8.1133518 10118981
-6.732172 -3.1802878 8.1133518 10250057
-8.3155212 -3.9753594 10.141689 9855815
-8.2158279 -3.9753594 10.141689 9790533
-8.1161346 -3.9753594 10.141689 9855816
-8.0164413 -3.9753594 10.141689 9593158
-7.9167485 -3.9753594 10.141689 9922630
-7.8170552 -3.9753594 10.141689 9790276
-10.289816 -5.3004794 13.522252 9527876
-10.156891 -5.3004794 13.522252 9659206
-15.035951 -7.9507189 20.283379 9528135
-14.836564 -7.9507189 20.283379 9330756
0 0 0 9331015
0 0 0 9396037
-7.1192021 -3.9753594 10.141689 9592900
-5.6156077 -3.1802878 8.1133518 9265479
-4.6132107 -2.6502397 6.761126 9461057
-4.5467482 -2.6502397 6.761126 9133636
-5.3763437 -3.1802878 8.1133518 9133379
-6.6207361 -3.9753594 10.141689 9198916
-6.5210428 -3.9753594 10.141689 9396551
-6.4213495 -3.9753594 10.141689 9067846
-5.0573254 -3.1802878 8.1133518 9198916
-4.9775705 -3.1802878 8.1133518 9067331
-6.1222696 -3.9753594 10.141689 9132868
-6.0225763 -3.9753594 10.141689 9330245
-5.922883 -3.9753594 10.141689 9133120
-4.6585522 -3.1802878 8.1133518 8870464
-4.5787973 -3.1802878 8.1133518 9067075
-4.499043 -3.1802878 8.1133518 9000510
-5.5241103 -3.9753594 10.141689 8738619
-5.424417 -3.9753594 10.141689 9001535
-5.3247237 -3.9753594 10.141689 8739137
-5.2250304 -3.9753594 10.141689 9067327
-6.8337827 -5.3004794 13.522252 9394494
-6.7008581 -5.3004794 13.522252 9461057
-6.567934 -5.3004794 13.522252 9396293
-6.4350095 -5.3004794 13.522252 9658951
0 0 0 9788993
0 0 0 9855045
-9.0543547 -7.9507189 20.283379 9659206
-5.9033122 -5.3004794 13.522252 9921094
-5.7703881 -5.3004794 13.522252 9921610
-5.6374636 -5.3004794 13.522252 9986885
-5.504539 -5.3004794 13.522252 9921350
-4.0287113 -3.9753594 10.141689 9724485
-3.929018 -3.9753594 10.141689 9987655
-3.8293247 -3.9753594 10.141689 10183751
-3.7296314 -3.9753594 10.141689 9856069
-3.6299381 -3.9753594 10.141689 10250316
-2.8241961 -3.1802878 8.1133518 9988425
-2.7444415 -3.1802878 8.1133518 10315850
-2.6646869 -3.1802878 8.1133518 10052678
-2.5849323 -3.1802878 8.1133518 10447436
-3.1314719 -3.9753594 10.141689 10382156
-3.0317786 -3.9753594 10.141689 10381643
-3.9094472 -5.3004794 13.522252 10579020
-2.8323922 -3.9753594 10.141689 10645070
-2.7326989 -3.9753594 10.141689 10907725
-2.1064045 -3.1802878 8.1133518 11235917
-2.02665 -3.1802878 8.1133518 11827023
-1.2168095 -1.9876797 5.0708447 11893072
-1.0373005 -1.7668265 4.5074177 11893072
-0.68745619 -1.2231876 3.1205199 12091219
-0.65678132 -1.2231876 3.1205199 11827279
-0.58138454 -1.1358169 2.8976254 11367505
-0.51604074 -1.0600958 2.7044504 10776138
-0.43187281 -0.93537873 2.3862798 11037771
-0.38572586 -0.88341326 2.2537088 10578251
-0.34443641 -0.83691782 2.1350925 9789250
-0.30727595 -0.79507196 2.028338 9527106
-0.20524092 -0.56790847 1.4488127 9394236
-0.10284563 -0.30579689 0.78012997 7619884
-0.093381122 -0.30002713 0.76541048 5056275
-0.085857108 -0.30002713 0.76541048 2953741
-0.078333087 -0.30002713 0.76541048 2035217
-0.070809066 -0.30002713 0.76541048 2297874
-0.063285045 -0.30002713 0.76541048 2888725
-0.055761028 -0.30002713 0.76541048 3020052
-0.048237007 -0.30002713 0.76541048 2889495
-0.04071299 -0.30002713 0.76541048 2888464
0 0 0 2101780
0 0 0 2100497
0 0 0 2494737
0 0 0 5451550
0 0 0 8344376
0 0 0 8935998
0.037271932 -0.93537873 2.3862798 9263678
0.060729168 -0.93537873 2.3862798 9396290
0.084186405 -0.93537873 2.3862798 9658692
0.10764365 -0.93537873 2.3862798 9856842
0.11143576 -0.79507196 2.028338 10053450
0.12511848 -0.75721133 1.9317503 9724484
0.14410767 -0.75721133 1.9317503 9723974
0.16309686 -0.75721133 1.9317503 9790022
0.19119038 -0.79507196 2.028338 9396548
0.2345878 -0.88341326 2.2537088 9198915
0.25674185 -0.88341326 2.2537088 9199686
0.29530156 -0.93537873 2.3862798 9659719
0.31875879 -0.93537873 2.3862798 9659721
0.34221601 -0.93537873 2.3862798 9724233
0.3453581 -0.88341326 2.2537088 10053195
0.33076096 -0.79507196 2.028338 10118728
0.3506996 -0.79507196 2.028338 9923149
0.37063825 -0.79507196 2.028338 10184779
0.41113356 -0.83691782 2.1350925 9856585
0.45612839 -0.88341326 2.2537088 10119755
0.47828245 -0.88341326 2.2537088 10250316
0.50043648 -0.88341326 2.2537088 10448206
0.52259058 -0.88341326 2.2537088 10185807
0.54474461 -0.88341326 2.2537088 10252885
0.48591313 -0.75721133 1.9317503 10710606
0.48195222 -0.72279263 1.8439435 10842194
0.50007826 -0.72279263 1.8439435 10514769
0.51820433 -0.72279263 1.8439435 10973522
0.53633034 -0.72279263 1.8439435 11039314
0.53034961 -0.69136685 1.763772 10973776
0.54768759 -0.69136685 1.763772 11171155
0.56502551 -0.69136685 1.763772 11367507
0.60883456 -0.72279263 1.8439435 11040595
0.76628524 -0.88341326 2.2537088 11564627
0.78843927 -0.88341326 2.2537088 11564370
0.81059337 -0.88341326 2.2537088 11893076
0.78891855 -0.83691782 2.1350925 11630934
0.85490143 -0.88341326 2.2537088 11828055
0.92864698 -0.93537873 2.3862798 11828053
0.89920956 -0.88341326 2.2537088 12155989
0.8728708 -0.83691782 2.1350925 12288602
0.99901867 -0.93537873 2.3862798 12354398
1.0863807 -0.99383986 2.5354223 12551261
1.111304 -0.99383986 2.5354223 12485980
1.1362273 -0.99383986 2.5354223 13010268
1.1611506 -0.99383986 2.5354223 13338722
1.1163049 -0.93537873 2.3862798 13010784
1.1397622 -0.93537873 2.3862798 13338467
1.1632193 -0.93537873 2.3862798 13273951
1.1866766 -0.93537873 2.3862798 13208160
1.2101338 -0.93537873 2.3862798 13405539
1.2335911 -0.93537873 2.3862798 13602148
1.2570482 -0.93537873 2.3862798 13471332
1.2805055 -0.93537873 2.3862798 13929827
1.3854605 -0.99383986 2.5354223 13602404
1.4103838 -0.99383986 2.5354223 13667938
1.6403509 -1.1358169 2.8976254 13799267
1.7972068 -1.2231876 3.1205199 14192999
1.6973186 -1.1358169 2.8976254 13864808
1.6107488 -1.0600958 2.7044504 13996388
1.6373336 -1.0600958 2.7044504 13602660
1.9199061 -1.2231876 3.1205199 13537640
1.950581 -1.2231876 3.1205199 13536354
1.9812558 -1.2231876 3.1205199 13864804
2.0119307 -1.2231876 3.1205199 13536096
2.0426054 -1.2231876 3.1205199 13602148
2.0732803 -1.2231876 3.1205199 13732964
2.1039553 -1.2231876 3.1205199 13799014
2.13463 -1.2231876 3.1205199 13866090
2.1653049 -1.2231876 3.1205199 13142367
2.1959798 -1.2231876 3.1205199 13273698
2.412209 -1.3251199 3.380563 13602657
2.4454401 -1.3251199 3.380563 13404256
2.4786713 -1.3251199 3.380563 13535842
2.5119023 -1.3251199 3.380563 12944477
2.5451334 -1.3251199 3.380563 12945247
2.5783644 -1.3251199 3.380563 13207649
2.4107037 -1.2231876 3.1205199 13075806
2.4413786 -1.2231876 3.1205199 12747611
2.2954781 -1.1358169 2.8976254 12813407
2.1690309 -1.0600958 2.7044504 12551264
2.0583899 -0.99383986 2.5354223 12813666
2.0833132 -0.99383986 2.5354223 12354141
2.1082366 -0.99383986 2.5354223 12615771
2.1331599 -0.99383986 2.5354223 12813663
2.1580832 -0.99383986 2.5354223 12419677
2.1830065 -0.99383986 2.5354223 12484189
2.2079298 -0.99383986 2.5354223 12286810
2.2328532 -0.99383986 2.5354223 12221787
2.2577765 -0.99383986 2.5354223 11828827
2.6087997 -1.1358169 2.8976254 11697753
4.1024413 -1.7668265 4.5074177 11697499
4.1467495 -1.7668265 4.5074177 11697755
4.1910577 -1.7668265 4.5074177 11564885
4.2353659 -1.7668265 4.5074177 11303512
2.7512186 -1.1358169 2.8976254 11302745
2.594389 -1.0600958 2.7044504 11499863
2.6209738 -1.0600958 2.7044504 11368020
2.4820864 -0.99383986 2.5354223 11827803
2.5070097 -0.99383986 2.5354223 11367253
2.5319331 -0.99383986 2.5354223 11433047
2.5568564 -0.99383986 2.5354223 11367769
2.7538981 -1.0600958 2.7044504 11367510
2.979089 -1.1358169 2.8976254 11301972
3.0075727 -1.1358169 2.8976254 11236949
3.2695994 -1.2231876 3.1205199 11105110
3.0645404 -1.1358169 2.8976254 11038804
3.093024 -1.1358169 2.8976254 11038805
3.1215079 -1.1358169 2.8976254 11104855
3.3922989 -1.2231876 3.1205199 10973268
3.4229739 -1.2231876 3.1205199 10973524
3.4536486 -1.2231876 3.1205199 10907987
3.4843235 -1.2231876 3.1205199 10645844
3.5149984 -1.2231876 3.1205199 10514773
3.5456731 -1.2231876 3.1205199 10908246
3.8743768 -1.3251199 3.380563 10841940
3.907608 -1.3251199 3.380563 10710608
4.2990971 -1.4455853 3.687887 10579538
4.3353491 -1.4455853 3.687887 10579540
4.8087616 -1.5901439 4.0566759 10776917
4.848639 -1.5901439 4.0566759 10383958
4.8885164 -1.5901439 4.0566759 10513749
5.4759932 -1.7668265 4.5074177 10448467
9.9365416 -3.1802878 8.1133518 10382418
10.016296 -3.1802878 8.1133518 10776921
10.096051 -3.1802878 8.1133518 10513745
0 0 0 10185552
0 0 0 9989203
0 0 0 9857618
0 0 0 9923155
0 0 0 10054226
0 0 0 12025688
0 0 0 11959640
0 0 0 11959641
0 0 0 11959894
0 0 0 12091996
0 0 0 11828054
0 0 0 12156503
0 0 0 11893590
-6.5746889 -2.2146664 5.7952509 11631960
-6.5177212 -2.2146664 5.7952509 11763033
-5.6531596 -1.9378331 5.0708447 11827799
-5.603313 -1.9378331 5.0708447 12025178
-5.5534663 -1.9378331 5.0708447 11959126
-5.5036197 -1.9378331 5.0708447 11959125
-6.2328835 -2.2146664 5.7952509 11762004
-6.1759157 -2.2146664 5.7952509 11630676
-6.1189485 -2.2146664 5.7952509 11499091
-6.0619807 -2.2146664 5.7952509 11499091
-10.508773 -3.8756661 10.141689 11367762
0 0 0 11040082
-10.309386 -3.8756661 10.141689 11171666
-6.8064623 -2.5837774 6.761126 11105103
-6.7399998 -2.5837774 6.761126 11301456
-8.0082455 -3.1005332 8.1133518 11366994
0 0 0 11105107
-9.8109207 -3.8756661 10.141689 10776400
-7.7689819 -3.1005332 8.1133518 10841422
-7.6892276 -3.1005332 8.1133518 10907472
-12.682454 -5.1675549 13.522252 10907726
0 0 0 10645067
-9.3124542 -3.8756661 10.141689 10448203
-7.3702092 -3.1005332 8.1133518 10448203
-7.2904544 -3.1005332 8.1133518 10448462
-7.2107 -3.1005332 8.1133518 10513483
-7.1309452 -3.1005332 8.1133518 10251085
-7.0511904 -3.1005332 8.1133518 10315850
-6.971436 -3.1005332 8.1133518 10250827
-6.8916812 -3.1005332 8.1133518 10381389
-6.8119268 -3.1005332 8.1133518 10381643
-8.4152145 -3.8756661 10.141689 10250056
-8.3155212 -3.8756661 10.141689 10316107
-8.2158279 -3.8756661 10.141689 9921608
-8.1161346 -3.8756661 10.141689 10117704
-8.0164413 -3.8756661 10.141689 10184522
-7.9167485 -3.8756661 10.141689 9987402
-10.42274 -5.1675549 13.522252 9921091
-10.289816 -5.1675549 13.522252 9725512
-10.156891 -5.1675549 13.522252 9790792
-15.035951 -7.7513323 20.283379 9922378
0 0 0 9855301
0 0 0 9593929
0 0 0 9396551
0 0 0 9397065
-5.6156077 -3.1005332 8.1133518 9593672
-5.5358529 -3.1005332 8.1133518 9790279
-5.4560986 -3.1005332 8.1133518 9789509
-6.7204294 -3.8756661 10.141689 9725001
-8.8276482 -5.1675549 13.522252 9527622
-8.6947231 -5.1675549 13.522252 9396036
-6.4213495 -3.8756661 10.141689 9330756
-5.0573254 -3.1005332 8.1133518 9527877
-4.9775705 -3.1005332 8.1133518 9658436
-4.8978162 -3.1005332 8.1133518 9527877
-8.0301018 -5.1675549 13.522252 9133893
-7.8971772 -5.1675549 13.522252 9264706
-4.6585522 -3.1005332 8.1133518 9198657
-4.5787973 -3.1005332 8.1133518 9068100
-4.499043 -3.1005332 8.1133518 9329475
-5.5241103 -3.8756661 10.141689 9067587
-5.424417 -3.8756661 10.141689 9198657
-5.3247237 -3.8756661 10.141689 9001280
-5.2250304 -3.8756661 10.141689 8738880
-5.1253371 -3.8756661 10.141689 8804928
-6.7008581 -5.1675549 13.522252 8673086
-6.567934 -5.1675549 13.522252 9067072
-6.4350095 -5.1675549 13.522252 9264705
-6.3020854 -5.1675549 13.522252 9263678
-6.1691608 -5.1675549 13.522252 9330756
-6.0362368 -5.1675549 13.522252 9329730
-5.9033122 -5.1675549 13.522252 9854786
-5.7703881 -5.1675549 13.522252 9987144
-5.6374636 -5.1675549 13.522252 9921093
-5.504539 -5.1675549 13.522252 10184262
-4.0287113 -3.8756661 10.141689 10184264
-3.929018 -3.8756661 10.141689 10184264
-3.8293247 -3.8756661 10.141689 10380358
-2.9837053 -3.1005332 8.1133518 10250313
-2.9039507 -3.1005332 8.1133518 9987140
-2.8241961 -3.1005332 8.1133518 10184005
-2.7444415 -3.1005332 8.1133518 10250057
-2.6646869 -3.1005332 8.1133518 10512712
-2.5849323 -3.1005332 8.1133518 10446921
-3.1314719 -3.8756661 10.141689 10381641
-3.0317786 -3.8756661 10.141689 10250825
-2.3456683 -3.1005332 8.1133518 10447690
-2.2659137 -3.1005332 8.1133518 10316360
-1.8217992 -2.5837774 6.761126 10709832
-1.3165028 -1.9378331 5.0708447 10907466
-1.1259166 -1.7225184 4.5074177 11563085
-1.0816085 -1.7225184 4.5074177 11105101
-1.0373005 -1.7225184 4.5074177 11563855
-0.68745619 -1.1925128 3.1205199 11498062
-0.56921047 -1.0335109 2.7044504 11563857
-0.50871152 -0.96891654 2.5354223 10973005
-0.48378819 -0.96891654 2.5354223 10709832
-0.43187281 -0.91192144 2.3862798 10579018
-0.31559387 -0.70466655 1.8439435 9921091
-0.2974678 -0.70466655 1.8439435 9789506
-0.11595318 -0.29250309 0.76541048 8344375
-0.10842916 -0.29250309 0.76541048 6501919
-0.10090514 -0.29250309 0.76541048 4200717
-0.093381122 -0.29250309 0.76541048 2428944
-0.084267162 -0.2870864 0.75123626 2101008
-0.076882474 -0.2870864 0.75123626 2363921
-0.069497794 -0.2870864 0.75123626 2101010
-0.062113106 -0.2870864 0.75123626 1838608
-0.054728419 -0.2870864 0.75123626 2101010
-0.047343731 -0.2870864 0.75123626 2560276
-0.039959047 -0.2870864 0.75123626 2034704
-0.032574359 -0.2870864 0.75123626 1772817
-0.02566495 -0.29250309 0.76541048 1706254
-0.018140931 -0.29250309 0.76541048 1772817
-0.010616911 -0.29250309 0.76541048 2232337
-0.0030928911 -0.29250309 0.76541048 4399129
0.004696996 -0.31005329 0.81133515 7556153
0.013481337 -0.32984394 0.86312246 8409398
0.023463544 -0.35233328 0.92197174 9462084
0 0 0 9724227
0 0 0 9790018
0 0 0 9921092
0.1313744 -0.77513331 2.028338 9921091
0.13755733 -0.70466655 1.8439435 9460545
0.15568337 -0.70466655 1.8439435 9133891
0.17380941 -0.70466655 1.8439435 9396551
0.20107524 -0.73822212 1.9317503 9331269
0.22006443 -0.73822212 1.9317503 9857099
0.23905364 -0.73822212 1.9317503 9725512
0.27094498 -0.77513331 2.028338 9922891
0.29088363 -0.77513331 2.028338 10119241
0.31082228 -0.77513331 2.028338 10382665
0.33076096 -0.77513331 2.028338 10185034
0.3506996 -0.77513331 2.028338 10316620
0.37063825 -0.77513331 2.028338 10447434
0.41113356 -0.81592977 2.1350925 10776401
0.4321216 -0.81592977 2.1350925 10185037
0.47828245 -0.86125922 2.2537088 10514254
0.50043648 -0.86125922 2.2537088 10382413
0.49508578 -0.81592977 2.1350925 10776401
0.46692392 -0.73822212 1.9317503 10709839
0.48591313 -0.73822212 1.9317503 10972495
0.48195222 -0.70466655 1.8439435 10907987
0.50007826 -0.70466655 1.8439435 11563085
0.51820433 -0.70466655 1.8439435 10777169
0.53633034 -0.70466655 1.8439435 10973778
0.55445641 -0.70466655 1.8439435 11367506
0.54768759 -0.67402887 1.763772 11302225
0.56502551 -0.67402887 1.763772 11564884
0.60883456 -0.70466655 1.8439435 11828056
0.65681589 -0.73822212 1.9317503 11630677
0.78843927 -0.86125922 2.2537088 11893332
0.81059337 -0.86125922 2.2537088 12024917
0.78891855 -0.81592977 2.1350925 12287062
0.8099066 -0.81592977 2.1350925 12222294
0.87705553 -0.86125922 2.2537088 12288347
0.95210421 -0.91192144 2.3862798 12550233
0.97556144 -0.91192144 2.3862798 12485981
0.99901867 -0.91192144 2.3862798 12814176
1.0863807 -0.96891654 2.5354223 12879195
1.111304 -0.96891654 2.5354223 12748893
1.1362273 -0.96891654 2.5354223 13076575
1.1611506 -0.96891654 2.5354223 13404255
1.1163049 -0.91192144 2.3862798 13339492
1.1397622 -0.91192144 2.3862798 13405026
1.1632193 -0.91192144 2.3862798 13667425
1.1866766 -0.91192144 2.3862798 13339230
1.2101338 -0.91192144 2.3862798 13405536
1.2335911 -0.91192144 2.3862798 13536868
1.2570482 -0.91192144 2.3862798 13734503
1.3605372 -0.96891654 2.5354223 13931370
1.3854605 -0.96891654 2.5354223 13930344
1.4103838 -0.96891654 2.5354223 13865061
1.7665318 -1.1925128 3.1205199 13799781
1.7972068 -1.1925128 3.1205199 13931111
1.8278816 -1.1925128 3.1205199 13734506
1.7258023 -1.1073332 2.8976254 13734502
1.8892312 -1.1925128 3.1205199 13602407
1.9199061 -1.1925128 3.1205199 13668456
1.950581 -1.1925128 3.1205199 13733477
1.9812558 -1.1925128 3.1205199 14128233
2.1795914 -1.2918887 3.380563 13733475
2.2128224 -1.2918887 3.380563 13866090
2.2460537 -1.2918887 3.380563 13864804
2.1039553 -1.1925128 3.1205199 13799527
2.13463 -1.1925128 3.1205199 13799014
2.1653049 -1.1925128 3.1205199 13340518
2.1959798 -1.1925128 3.1205199 13339487
2.412209 -1.2918887 3.380563 13338718
2.4454401 -1.2918887 3.380563 13405027
2.4786713 -1.2918887 3.380563 13667942
2.3186791 -1.1925128 3.1205199 12683613
2.349354 -1.1925128 3.1205199 12944738
2.5783644 -1.2918887 3.380563 13207907
2.4107037 -1.1925128 3.1205199 13010783
2.4413786 -1.1925128 3.1205199 13272672
2.4720535 -1.1925128 3.1205199 12945762
2.7112887 -1.2918887 3.380563 12813918
2.9940217 -1.4093331 3.687887 12944477
2.0833132 -0.96891654 2.5354223 12681820
2.1082366 -0.96891654 2.5354223 12747359
2.1331599 -0.96891654 2.5354223 12091739
2.1580832 -0.96891654 2.5354223 12222814
2.1830065 -0.96891654 2.5354223 12221532
2.2079298 -0.96891654 2.5354223 12156762
2.2328532 -0.96891654 2.5354223 12222555
2.2577765 -0.96891654 2.5354223 12025431
2.6087997 -1.1073332 2.8976254 11763291
4.1024413 -1.7225184 4.5074177 12090199
4.1467495 -1.7225184 4.5074177 11697240
4.1910577 -1.7225184 4.5074177 11893849
4.7647862 -1.9378331 5.0708447 11762263
2.7512186 -1.1073332 2.8976254 11632477
2.594389 -1.0335109 2.7044504 11499865
2.6209738 -1.0335109 2.7044504 11761494
2.6475587 -1.0335109 2.7044504 11499607
2.5070097 -0.96891654 2.5354223 11303256
2.5319331 -0.96891654 2.5354223 11236948
2.7273133 -1.0335109 2.7044504 11433560
2.9506052 -1.1073332 2.8976254 11236694
2.979089 -1.1073332 2.8976254 11170644
3.0075727 -1.1073332 2.8976254 10974549
3.0360565 -1.1073332 2.8976254 11171155
3.0645404 -1.1073332 2.8976254 10974296
3.093024 -1.1073332 2.8976254 10777689
3.1215079 -1.1073332 2.8976254 10646103
3.3922989 -1.1925128 3.1205199 10776404
3.4229739 -1.1925128 3.1205199 10711636
3.4536486 -1.1925128 3.1205199 10711382
3.4843235 -1.1925128 3.1205199 10514773
3.5149984 -1.1925128 3.1205199 10645073
3.8411458 -1.2918887 3.380563 10841940
4.226593 -1.4093331 3.687887 10842712
5.210144 -1.7225184 4.5074177 10646103
5.2544522 -1.7225184 4.5074177 10580310
5.2987604 -1.7225184 4.5074177 10514515
5.3430686 -1.7225184 4.5074177 10645588
4.4078536 -1.4093331 3.687887 10711122
5.431685 -1.7225184 4.5074177 10513747
5.4759932 -1.7225184 4.5074177 10317140
9.9365416 -3.1005332 8.1133518 10120271
10.016296 -3.1005332 8.1133518 10185037
12.620064 -3.8756661 10.141689 10513492
0 0 0 10382935
0 0 0 10120534
0 0 0 10054227
0 0 0 9988434
0 0 0 10316114
0 0 0 12223067
0 0 0 12485211
-24.207731 -7.5519462 20.283379 12615773
0 0 0 12288603
0 0 0 12091223
0 0 0 12222555
-7.8033948 -2.5173154 6.761126 11960664
-7.7369328 -2.5173154 6.761126 12025943
-6.5746889 -2.1576989 5.7952509 12222296
-6.5177212 -2.1576989 5.7952509 12091223
-5.6531596 -1.8879865 5.0708447 12090710
-5.603313 -1.8879865 5.0708447 12155989
-5.5534663 -1.8879865 5.0708447 11762258
-5.5036197 -1.8879865 5.0708447 11959123
-5.453773 -1.8879865 5.0708447 11893844
-6.1759157 -2.1576989 5.7952509 11762258
-6.1189485 -2.1576989 5.7952509 11762261
-5.3042331 -1.8879865 5.0708447 11696470
-5.2543864 -1.8879865 5.0708447 11761491
0 0 0 11367504
-8.24751 -3.0207784 8.1133518 11367505
-6.8064623 -2.5173154 6.761126 11434068
-5.777143 -2.1576989 5.7952509 11500119
-5.7201753 -2.1576989 5.7952509 11564115
-9.910614 -3.7759731 10.141689 11236690
-7.8487368 -3.0207784 8.1133518 11039827
-7.7689819 -3.0207784 8.1133518 11171154
-7.6892276 -3.0207784 8.1133518 11039824
-9.5118408 -3.7759731 10.141689 10842961
0 0 0 10842962
-9.3124542 -3.7759731 10.141689 10711376
-9.2127609 -3.7759731 10.141689 10449487
-7.2904544 -3.0207784 8.1133518 10777936
-7.2107 -3.0207784 8.1133518 10645325
-7.1309452 -3.0207784 8.1133518 10381899
-7.0511904 -3.0207784 8.1133518 10579021
-6.971436 -3.0207784 8.1133518 10513227
-6.8916812 -3.0207784 8.1133518 10513997
-6.8119268 -3.0207784 8.1133518 10316362
-6.732172 -3.0207784 8.1133518 10315850
-8.3155212 -3.7759731 10.141689 10447947
-8.2158279 -3.7759731 10.141689 10315848
-8.1161346 -3.7759731 10.141689 10315852
-6.4131536 -3.0207784 8.1133518 10381384
-7.9167485 -3.7759731 10.141689 10250057
-7.8170552 -3.7759731 10.141689 10053196
-10.289816 -5.0346308 13.522252 10249803
-10.156891 -5.0346308 13.522252 10053451
0 0 0 10250060
0 0 0 10117704
0 0 0 9659721
0 0 0 9922638
0 0 0 9789510
-7.0195093 -3.7759731 10.141689 10053964
-5.5358529 -3.0207784 8.1133518 9724229
-5.4560986 -3.0207784 8.1133518 9920838
-6.7204294 -3.7759731 10.141689 9855816
-8.8276482 -5.0346308 13.522252 9855558
-8.6947231 -5.0346308 13.522252 9856074
-6.4213495 -3.7759731 10.141689 9527622
-5.0573254 -3.0207784 8.1133518 9659208
-4.9775705 -3.0207784 8.1133518 9593671
-4.8978162 -3.0207784 8.1133518 9658692
-4.8180614 -3.0207784 8.1133518 9592643
-4.738307 -3.0207784 8.1133518 9593928
-4.6585522 -3.0207784 8.1133518 9658693
-4.5787973 -3.0207784 8.1133518 9920838
-4.499043 -3.0207784 8.1133518 9790282
-5.5241103 -3.7759731 10.141689 9199684
-5.424417 -3.7759731 10.141689 9330241
-5.3247237 -3.7759731 10.141689 9592645
-5.2250304 -3.7759731 10.141689 9592643
-5.1253371 -3.7759731 10.141689 9133377
-5.0256438 -3.7759731 10.141689 9132864
-4.9259505 -3.7759731 10.141689 9132866
-4.8262572 -3.7759731 10.141689 9001791
-4.7265639 -3.7759731 10.141689 9132864
-4.6268706 -3.7759731 10.141689 9067586
-6.0362368 -5.0346308 13.522252 9198400
-5.9033122 -5.0346308 13.522252 9330498
-5.7703881 -5.0346308 13.522252 9527104
-5.6374636 -5.0346308 13.522252 9593415
-4.1284046 -3.7759731 10.141689 9855559
-4.0287113 -3.7759731 10.141689 9724999
-3.929018 -3.7759731 10.141689 10052676
-3.0634599 -3.0207784 8.1133518 9987399
-2.9837053 -3.0207784 8.1133518 9856324
-2.9039507 -3.0207784 8.1133518 10250055
-2.8241961 -3.0207784 8.1133518 10446151
-2.7444415 -3.0207784 8.1133518 10381128
-2.6646869 -3.0207784 8.1133518 10381129
-2.5849323 -3.0207784 8.1133518 10710093
-2.5051777 -3.0207784 8.1133518 10447433
-2.0211856 -2.5173154 6.761126 10709834
-1.4660426 -1.8879865 5.0708447 10512714
