# .PCD v0.7 - Point Cloud Data file format
VERSION 0.7
FIELDS x y z rgb
SIZE 4 4 4 4
TYPE F F F U
COUNT 1 1 1 1
WIDTH 1315
HEIGHT 1
VIEWPOINT 0 0 0 1 0 0 0
POINTS 1315
DATA ascii
0 0 0 9780264
0 0 0 9780265
0 0 0 9583400
0 0 0 9846572
0 0 0 10109231
0 0 0 2365471
0 0 0 2563106
0 0 0 2628385
0 0 0 2693666
0 0 0 2038048
0 0 0 1906462
0 0 0 1906462
0 0 0 1839384
-1.3946309 0.46069267 1.2292956 1840156
-1.3825469 0.46069267 1.2292956 1774619
-1.3704629 0.46069267 1.2292956 1708827
-1.3184266 0.44714293 1.1931399 1708314
-1.1691508 0.40007526 1.0675462 1905179
-1.0483085 0.36197284 0.96587515 2036765
-1.0388139 0.36197284 0.96587515 1905179
-1.0293193 0.36197284 0.96587515 1709083
-0.99610788 0.35355487 0.94341296 1970970
-0.96440601 0.34551951 0.92197174 2103328
-0.89436364 0.32346508 0.86312246 1904658
-0.78559089 0.2868464 0.76541048 1575695
-0.76365829 0.28153443 0.75123626 1969426
-0.74252313 0.27641562 0.73757738 2167581
-0.73527271 0.27641562 0.73757738 1905694
-0.72802228 0.27641562 0.73757738 1904919
-0.72077191 0.27641562 0.73757738 2101781
-0.71352148 0.27641562 0.73757738 2758426
-0.70627105 0.27641562 0.73757738 3613476
-0.7119655 0.28153443 0.75123626 4205867
-0.70458078 0.28153443 0.75123626 4796459
-0.71035069 0.2868464 0.76541048 4730662
-0.70282668 0.2868464 0.76541048 4401185
-0.69530267 0.2868464 0.76541048 3875868
-0.67504203 0.28153443 0.75123626 3218458
-0.66765738 0.28153443 0.75123626 3941410
-0.66027266 0.28153443 0.75123626 4136988
-0.66520661 0.2868464 0.76541048 3612443
-0.67033035 0.29236269 0.78012997 3810846
-0.66266167 0.29236269 0.78012997 3154720
-0.65499294 0.29236269 0.78012997 3547164
-0.6351105 0.2868464 0.76541048 4267029
-0.63965553 0.29236269 0.78012997 4204066
-0.62006247 0.2868464 0.76541048 5451559
-0.63655961 0.29809529 0.79542661 7091241
-0.62874055 0.29809529 0.79542661 9255467
-0.62092143 0.29809529 0.79542661 10828841
-0.63812697 0.31026244 0.82789302 10894373
-0.62998873 0.31026244 0.82789302 10894373
-0.62185049 0.31026244 0.82789302 10959908
-0.63982767 0.32346508 0.86312246 11090725
-0.65940285 0.3378413 0.90148348 11287334
-0.62285858 0.32346508 0.86312246 11222054
-0.58929759 0.31026244 0.82789302 11024931
-0.58115941 0.31026244 0.82789302 11222053
-0.58495909 0.31672624 0.84514076 11353640
-0.58892047 0.32346508 0.86312246 11025445
-0.59305412 0.33049694 0.88188601 11221539
-0.58438516 0.33049694 0.88188601 11287334
-0.57571614 0.33049694 0.88188601 11287334
-0.56704718 0.33049694 0.88188601 11549477
-0.55837822 0.33049694 0.88188601 11746341
-0.5497092 0.33049694 0.88188601 11746597
-0.565633 0.34551951 0.92197174 11615011
-0.55656999 0.34551951 0.92197174 11418661
-0.54750693 0.34551951 0.92197174 11615269
-0.53844392 0.34551951 0.92197174 11615525
-0.52938092 0.34551951 0.92197174 11353636
-0.52031785 0.34551951 0.92197174 11353123
-0.56238037 0.38007149 1.014169 12075306
0 0 0 11943975
0 0 0 12074785
0 0 0 11878181
0 0 0 11680289
0 0 0 11615009
0 0 0 11877927
0 0 0 11943205
-1.6087524 1.266905 3.380563 12139813
-1.4543275 1.1694508 3.1205199 12009254
-1.5422902 1.266905 3.380563 12205604
-1.5090592 1.266905 3.380563 11550246
-1.4758281 1.266905 3.380563 11681318
-2.8851941 2.5338099 6.761126 11615525
-3.3824785 3.0405719 8.1133518 11877925
-3.3027239 3.0405719 8.1133518 11811617
-3.2229691 3.0405719 8.1133518 12139811
-1.964509 1.9003575 5.0708447 12074279
-1.1782538 1.1694508 3.1205199 11548963
-0.99456835 1.0135239 2.7044504 11943206
-0.90748453 0.95017874 2.5354223 12204834
-0.88256127 0.95017874 2.5354223 12205606
-0.85763794 0.95017874 2.5354223 11942945
-0.7401908 0.84460336 2.2537088 11877152
-0.68024528 0.80015051 2.1350925 11811363
-0.32962862 0.40007526 1.0675462 12074018
-0.30317789 0.38007149 1.014169 12139043
-0.28605711 0.37080145 0.98943311 12008226
-0.27633095 0.37080145 0.98943311 11680288
-0.26660478 0.37080145 0.98943311 11680289
-0.25076243 0.36197284 0.96587515 11811359
-0.23030111 0.34551951 0.92197174 11876639
0 0 0 11942947
-0.20295006 0.33049694 0.88188601 11680035
-0.18618605 0.31672624 0.84514076 11876387
-0.17424811 0.31026244 0.82789302 11746082
-0.16610989 0.31026244 0.82789302 11810848
-0.15797167 0.31026244 0.82789302 11877157
-0.1411892 0.29236269 0.78012997 11745828
-0.13352048 0.29236269 0.78012997 11680035
-0.12585177 0.29236269 0.78012997 11876898
-0.12050037 0.29809529 0.79542661 11811105
-0.11728053 0.31026244 0.82789302 11483426
-0.1091423 0.31026244 0.82789302 11286301
-0.10100408 0.31026244 0.82789302 11352096
-0.094800554 0.31672624 0.84514076 11548449
-0.072836034 0.26671684 0.71169752 11614754
-0.065840013 0.26671684 0.71169752 11613982
0 0 0 11614242
0 0 0 12072480
-0.052174725 0.31026244 0.82789302 11942434
-0.046908442 0.33049694 0.88188601 11614496
-0.040907335 0.35355487 0.94341296 11942947
-0.034006059 0.38007149 1.014169 11680289
-0.02465306 0.38981691 1.0401733 11549216
-0.01442811 0.38981691 1.0401733 11417376
-0.0042031598 0.38981691 1.0401733 11745568
0.0063472921 0.41088808 1.0963988 11614242
0 0 0 11417376
0 0 0 11745568
0 0 0 11745568
0 0 0 12074533
0 0 0 11811873
0 0 0 11745055
0 0 0 11811104
0 0 0 11877668
0 0 0 12401187
0 0 0 12401443
0 0 0 11876897
0 0 0 11942432
0.23560432 0.66099387 1.763772 12139299
0.22375664 0.58472538 1.5602599 12204835
0.27028024 0.66099387 1.763772 11942692
1.3230438 3.0405719 8.1133518 11811362
1.7534978 3.800715 10.141689 12205093
1.482553 3.0405719 8.1133518 11811621
1.9528844 3.800715 10.141689 11942693
0.63156235 1.1694508 3.1205199 11878181
0 0 0 11942693
0 0 0 11877668
0 0 0 12008740
0 0 0 12074272
1.0204177 1.520286 4.0566759 12008739
0.75735348 1.0859185 2.8976254 12008481
0.68760765 0.95017874 2.5354223 11942435
0.71253097 0.95017874 2.5354223 12008740
0.69407457 0.89428586 2.3862798 11745824
0 0 0 12074531
0 0 0 11746082
0.51982349 0.60811436 1.6226703 11877414
0.53577441 0.60811436 1.6226703 11877926
0.81136078 0.89428586 2.3862798 11746854
0.83481801 0.89428586 2.3862798 12139813
0.76793051 0.80015051 2.1350925 12074277
0.49964839 0.50676197 1.3522252 12271654
0.51294082 0.50676197 1.3522252 12074276
0.50925803 0.49041483 1.3086051 12074529
0.52212167 0.49041483 1.3086051 12205352
0.51826704 0.47508937 1.2677112 12205606
0.5307287 0.47508937 1.2677112 12467749
0.54319036 0.47508937 1.2677112 12271140
0.55565202 0.47508937 1.2677112 12008485
0.55089808 0.46069267 1.2292956 11812132
0.58057529 0.47508937 1.2677112 11812389
0.61216718 0.49041483 1.3086051 11681318
0.62503082 0.49041483 1.3086051 11746341
0.63789451 0.49041483 1.3086051 11615013
0.63042194 0.47508937 1.2677112 11681059
0.6428836 0.47508937 1.2677112 11680037
0.65534526 0.47508937 1.2677112 11812136
0.66780692 0.47508937 1.2677112 11745828
0.68026859 0.47508937 1.2677112 11746338
0.69273025 0.47508937 1.2677112 11680034
0.72794002 0.49041483 1.3086051 11483169
0.74080366 0.49041483 1.3086051 11483171
0.77878952 0.50676197 1.3522252 11353125
0.79208195 0.50676197 1.3522252 11615270
0.77939463 0.49041483 1.3086051 11615270
0.76750016 0.47508937 1.2677112 11615012
0.8051219 0.49041483 1.3086051 11548966
0.81798553 0.49041483 1.3086051 11482656
0.85854411 0.50676197 1.3522252 11483171
0.87183654 0.50676197 1.3522252 11286818
0.88512897 0.50676197 1.3522252 11090211
0.89842141 0.50676197 1.3522252 11222054
0.91171384 0.50676197 1.3522252 11024417
0.9569031 0.5242365 1.3988537 10827292
0.9382987 0.50676197 1.3522252 10958881
0.95159113 0.50676197 1.3522252 11090724
0.96488363 0.50676197 1.3522252 11090468
0.97817606 0.50676197 1.3522252 11089954
0.99146849 0.50676197 1.3522252 10630433
1.0394078 0.5242365 1.3988537 10959138
1.0180533 0.50676197 1.3522252 10958883
1.0669094 0.5242365 1.3988537 10696226
1.0109402 0.49041483 1.3086051 10827812
1.0238038 0.49041483 1.3086051 10762019
1.0042716 0.47508937 1.2677112 10631204
1.0495312 0.49041483 1.3086051 10303523
1.0978079 0.50676197 1.3522252 9975587
1.1111003 0.50676197 1.3522252 10171426
1.0881221 0.49041483 1.3086051 9908511
1.0665799 0.47508937 1.2677112 9647138
1.1138494 0.49041483 1.3086051 10107171
1.1642702 0.50676197 1.3522252 10499105
1.1775626 0.50676197 1.3522252 10696228
1.190855 0.50676197 1.3522252 10368290
1.2041475 0.50676197 1.3522252 10171423
1.2174399 0.50676197 1.3522252 10171681
1.2307323 0.50676197 1.3522252 10368291
1.203895 0.49041483 1.3086051 10171943
1.1787349 0.47508937 1.2677112 10237732
1.1911966 0.47508937 1.2677112 10369060
1.2036582 0.47508937 1.2677112 10368292
1.2161199 0.47508937 1.2677112 10236706
1.2285815 0.47508937 1.2677112 10237735
1.2410432 0.47508937 1.2677112 10107689
1.2535049 0.47508937 1.2677112 9779495
1.2659665 0.47508937 1.2677112 9714212
1.3196678 0.49041483 1.3086051 10043177
1.3769491 0.50676197 1.3522252 9976101
1.3033514 0.47508937 1.2677112 9649449
1.3158131 0.47508937 1.2677112 10173480
1.3282747 0.47508937 1.2677112 9911334
1.4301188 0.50676197 1.3522252 9976614
1.3531981 0.47508937 1.2677112 9582885
1.3656597 0.47508937 1.2677112 9845802
1.3363601 0.46069267 1.2292956 9844261
1.308784 0.44714293 1.1931399 9714473
1.3605281 0.46069267 1.2292956 9386278
1.4155064 0.47508937 1.2677112 9517353
1.427968 0.47508937 1.2677112 9648423
1.4404297 0.47508937 1.2677112 9582885
1.4528913 0.47508937 1.2677112 9450534
1.465353 0.47508937 1.2677112 9582122
1.5763355 0.50676197 1.3522252 9713960
1.589628 0.50676197 1.3522252 9451815
1.6581936 0.5242365 1.3988537 9516835
0 0 0 9845029
0 0 0 9648422
0 0 0 9517864
0 0 0 9780266
0 0 0 9321000
0 0 0 9583403
0 0 0 9583142
0 0 0 9715242
0 0 0 9584427
0 0 0 9649966
0 0 0 9518380
0 0 0 2431779
0 0 0 2300706
0 0 0 2300707
0 0 0 2234914
0 0 0 2300707
0 0 0 1905947
0 0 0 1906207
-1.4067149 0.47277671 1.2292956 1840156
-1.3536124 0.45887154 1.1931399 1971742
-1.2673348 0.4333787 1.1268544 1643036
-1.2223048 0.42166573 1.0963988 1774363
-1.2115271 0.42166573 1.0963988 1708314
-1.1691508 0.41056928 1.0675462 1445913
-1.0738771 0.38052762 0.98943311 1708569
-1.0388139 0.37146744 0.96587515 1577753
-1.0293193 0.37146744 0.96587515 1643545
-1.0198247 0.37146744 0.96587515 2037277
-0.96440601 0.35458255 0.92197174 2234140
-0.89436364 0.33194962 0.86312246 1707024
-0.70570034 0.26443446 0.68757218 1838610
-0.69894147 0.26443446 0.68757218 1707026
-0.69218266 0.26443446 0.68757218 2758941
-0.67399997 0.2600272 0.67611259 4993837
-0.70247769 0.27371287 0.71169752 5321513
-0.69548166 0.27371287 0.71169752 5255463
-0.70078003 0.27860057 0.72440636 5124390
-0.70627105 0.28366604 0.73757738 4861732
-0.69902062 0.28366604 0.73757738 4796195
-0.6917702 0.28366604 0.73757738 4926500
-0.67229623 0.27860057 0.72440636 4465949
-0.66517526 0.27860057 0.72440636 3744541
-0.67001897 0.28366604 0.73757738 4007710
-0.67504203 0.28891912 0.75123626 4006682
-0.68025464 0.29437041 0.76541048 4333853
-0.67273062 0.29437041 0.76541048 3873559
-0.67799908 0.30003139 0.78012997 4269086
-0.711371 0.31840068 0.82789302 4596508
-0.70323277 0.31840068 0.82789302 5582116
-0.77408254 0.35458255 0.92197174 7093037
-0.6120156 0.28366604 0.73757738 8732720
-0.58354539 0.27371287 0.71169752 10042663
-0.56660885 0.26899365 0.69942683 10829093
-0.57972389 0.27860057 0.72440636 10894373
-0.60501444 0.29437041 0.76541048 11025189
-0.59749043 0.29437041 0.76541048 11156261
-0.58996642 0.29437041 0.76541048 11418661
-0.5824424 0.29437041 0.76541048 11222052
-0.62185049 0.31840068 0.82789302 11156773
-0.61371231 0.31840068 0.82789302 11091752
-0.60557407 0.31840068 0.82789302 11156261
-0.62285858 0.33194962 0.86312246 11090211
-0.58929759 0.31840068 0.82789302 11353123
-0.60588956 0.33194962 0.86312246 11222054
-0.59740502 0.33194962 0.86312246 10959395
-0.58892047 0.33194962 0.86312246 10959908
-0.59305412 0.33916593 0.88188601 11222309
-0.58438516 0.33916593 0.88188601 11222052
-0.57571614 0.33916593 0.88188601 11287334
-0.56704718 0.33916593 0.88188601 11090212
-0.54649782 0.33194962 0.86312246 11221282
-0.5497092 0.33916593 0.88188601 11418404
-0.55306339 0.34670293 0.90148348 11614755
-0.55656999 0.35458255 0.92197174 11548961
-0.54750693 0.35458255 0.92197174 11614244
-0.53844392 0.35458255 0.92197174 11549221
-0.52938092 0.35458255 0.92197174 11615271
-0.52031785 0.35458255 0.92197174 11746341
-0.51125485 0.35458255 0.92197174 12009000
0 0 0 11616549
0 0 0 11616293
0 0 0 11484453
0 0 0 11483941
0 0 0 11615527
0 0 0 12074279
0 0 0 11811361
0 0 0 11549475
-1.5755213 1.300136 3.380563 11877668
-1.5422902 1.300136 3.380563 11877668
-1.5090592 1.300136 3.380563 11876900
-1.4758281 1.300136 3.380563 11746854
-1.442597 1.300136 3.380563 11812134
-2.4160559 2.2288046 5.7952509 11943460
-3.3027239 3.1203268 8.1133518 11877924
-3.2229691 3.1203268 8.1133518 11877924
-1.964509 1.950204 5.0708447 11418146
-1.0211532 1.0401088 2.7044504 11549732
-0.99456835 1.0401088 2.7044504 11942691
-1.0371252 1.1144023 2.8976254 12008486
-0.88256127 0.97510201 2.5354223 11876643
-0.80718863 0.91774309 2.3862798 11877409
-0.7401908 0.86675739 2.2537088 11877154
-0.34931514 0.42166573 1.0963988 11877154
-0.32962862 0.41056928 1.0675462 11877414
-0.31095168 0.40004188 1.0401733 12074020
-0.28605711 0.38052762 0.98943311 11680548
-0.27633095 0.38052762 0.98943311 11680035
-0.26025704 0.37146744 0.96587515 11679778
-0.23936415 0.35458255 0.92197174 11746083
-0.23030111 0.35458255 0.92197174 11811618
-0.22123809 0.35458255 0.92197174 11680801
-0.19449382 0.32503399 0.84514076 11680548
-0.18238634 0.31840068 0.82789302 11615009
-0.17424811 0.31840068 0.82789302 12073248
-0.16610989 0.31840068 0.82789302 11942180
-0.15797167 0.31840068 0.82789302 11744801
-0.14983343 0.31840068 0.82789302 11942693
-0.13613853 0.30591437 0.79542661 11811109
-0.12347721 0.29437041 0.76541048 11877154
-0.1138059 0.28891912 0.75123626 11614496
-0.11493492 0.31203264 0.81133515 11548962
-0.1091423 0.31840068 0.82789302 11417376
-0.10100408 0.31840068 0.82789302 11482397
-0.081257619 0.27860057 0.72440636 11154718
-0.072836034 0.27371287 0.71169752 11483170
-0.065840013 0.27371287 0.71169752 11417375
-0.069877237 0.32503399 0.84514076 11679775
0 0 0 11810851
0 0 0 11745314
-0.047950853 0.34670293 0.90148348 11679775
-0.042902816 0.38052762 0.98943311 12008227
-0.034006059 0.39004084 1.014169 11942947
-0.02465306 0.40004188 1.0401733 12074018
-0.013397531 0.37146744 0.96587515 11810848
-0.003902934 0.37146744 0.96587515 12074020
0.006180258 0.41056928 1.0675462 11744801
0.017600635 0.4333787 1.1268544 11811361
0 0 0 11549216
0 0 0 11811875
0 0 0 11745568
0 0 0 11679775
0 0 0 11810848
0 0 0 11745825
0 0 0 12073763
0 0 0 11810850
0 0 0 12073763
0 0 0 12008228
0 0 0 12139298
0 0 0 12073765
0.2327069 0.62406528 1.6226703 11943203
0.24865782 0.62406528 1.6226703 11680545
0.28761819 0.67833185 1.763772 11810848
1.4027984 3.1203268 8.1133518 12074018
1.482553 3.1203268 8.1133518 12008992
1.9528844 3.900408 10.141689 12008740
0.51314443 0.97510201 2.5354223 12139813
0 0 0 12074018
0 0 0 12074020
0 0 0 11548962
0 0 0 11483425
1.0204177 1.5601634 4.0566759 12008483
0.75735348 1.1144023 2.8976254 12008483
0.78583729 1.1144023 2.8976254 12074018
0.71253097 0.97510201 2.5354223 11877668
0.69407457 0.91774309 2.3862798 11942947
0.42062211 0.53798729 1.3988537 12074533
0.4343729 0.53798729 1.3988537 12271399
0.46412811 0.55720115 1.4488127 12074533
0.49608743 0.57783824 1.5024725 12074533
0.81136078 0.91774309 2.3862798 12074276
0.83481801 0.91774309 2.3862798 12008222
0.85827523 0.91774309 2.3862798 12467236
0.53533757 0.55720115 1.4488127 12271143
0.51294082 0.5200544 1.3522252 11943205
0.52623326 0.5200544 1.3522252 11877154
0.53952569 0.5200544 1.3522252 11812134
0.5349853 0.50327849 1.3086051 11745826
0.54784894 0.50327849 1.3086051 11484194
0.54319036 0.487551 1.2677112 11812134
0.55565202 0.487551 1.2677112 11812134
0.56811363 0.487551 1.2677112 11811877
0.59930354 0.50327849 1.3086051 11811621
0.61216718 0.50327849 1.3086051 11811363
0.62503082 0.50327849 1.3086051 11877154
0.63789451 0.50327849 1.3086051 11747365
0.63042194 0.487551 1.2677112 11549732
0.6428836 0.487551 1.2677112 11549734
0.65534526 0.487551 1.2677112 11484454
0.66780692 0.487551 1.2677112 11876900
0.68026859 0.487551 1.2677112 11877671
0.69273025 0.487551 1.2677112 11418916
0.70519191 0.487551 1.2677112 11549732
0.76549709 0.5200544 1.3522252 11615527
0.77878952 0.5200544 1.3522252 11614498
0.79208195 0.5200544 1.3522252 11549219
0.77939463 0.50327849 1.3086051 11746343
0.79225826 0.50327849 1.3086051 11417376
0.8051219 0.50327849 1.3086051 11483171
0.84525168 0.5200544 1.3522252 11286564
0.85854411 0.5200544 1.3522252 11287075
0.87183654 0.5200544 1.3522252 11156003
0.88512897 0.5200544 1.3522252 11286561
0.89842141 0.5200544 1.3522252 11089951
0.91171384 0.5200544 1.3522252 11221027
0.92500627 0.5200544 1.3522252 11089698
0.9382987 0.5200544 1.3522252 10499615
0.95159113 0.5200544 1.3522252 11090210
0.96488363 0.5200544 1.3522252 11287332
0.97817606 0.5200544 1.3522252 11089955
0.99146849 0.5200544 1.3522252 10893089
1.0394078 0.53798729 1.3988537 10959398
1.0180533 0.5200544 1.3522252 10696740
1.0669094 0.53798729 1.3988537 10696740
1.0109402 0.50327849 1.3086051 10564895
1.0238038 0.50327849 1.3086051 10828069
1.0366676 0.50327849 1.3086051 10630433
1.0845155 0.5200544 1.3522252 10892835
1.0978079 0.5200544 1.3522252 10368290
1.1111003 0.5200544 1.3522252 10237730
1.0881221 0.50327849 1.3086051 10105889
1.0665799 0.487551 1.2677112 9253920
1.0790416 0.487551 1.2677112 9516581
1.1642702 0.5200544 1.3522252 10499363
1.1775626 0.5200544 1.3522252 10040098
1.190855 0.5200544 1.3522252 10039840
1.1288882 0.487551 1.2677112 10105888
1.1413499 0.487551 1.2677112 10172194
1.1538116 0.487551 1.2677112 10237219
1.1662732 0.487551 1.2677112 10301986
1.1787349 0.487551 1.2677112 10171429
1.1911966 0.487551 1.2677112 10040355
1.1671836 0.47277671 1.2292956 10040867
1.1792676 0.47277671 1.2292956 10039840
1.1913517 0.47277671 1.2292956 9974820
1.2410432 0.487551 1.2677112 10106403
1.2535049 0.487551 1.2677112 10238505
1.2659665 0.487551 1.2677112 9910565
1.2784282 0.487551 1.2677112 9976872
1.2908897 0.487551 1.2677112 9975585
1.3033514 0.487551 1.2677112 9648165
1.3158131 0.487551 1.2677112 9844522
1.3282747 0.487551 1.2677112 9910312
1.4301188 0.5200544 1.3522252 9779750
1.3531981 0.487551 1.2677112 9713958
1.3242761 0.47277671 1.2292956 9844774
1.3363601 0.47277671 1.2292956 9975847
1.308784 0.45887154 1.1931399 9976616
1.3205127 0.45887154 1.1931399 9780266
1.4155064 0.487551 1.2677112 9648167
1.427968 0.487551 1.2677112 9779753
1.4404297 0.487551 1.2677112 9780264
1.4528913 0.487551 1.2677112 9451561
1.5630431 0.5200544 1.3522252 9319462
1.4778147 0.487551 1.2677112 9517093
1.589628 0.5200544 1.3522252 9713702
1.6029204 0.5200544 1.3522252 9647141
0 0 0 9713188
0 0 0 9386022
0 0 0 9319461
0 0 0 9517864
0 0 0 9386278
0 0 0 9517351
0 0 0 9582886
0 0 0 9911078
0 0 0 9583655
0 0 0 9649450
0 0 0 9845546
0 0 0 2497316
0 0 0 2431523
0 0 0 2431008
0 0 0 2168350
0 0 0 2037277
0 0 0 1971742
-1.8728148 0.6400162 1.6226703 1840156
-1.4067149 0.48486075 1.2292956 2037281
-1.2784119 0.44445574 1.1268544 1708826
-1.2673348 0.44445574 1.1268544 1839900
-1.2223048 0.43244338 1.0963988 1970972
-1.2115271 0.43244338 1.0963988 1905177
-1.1691508 0.4210633 1.0675462 1839386
-1.0738771 0.39025378 0.98943311 1643292
-1.0641508 0.39025378 0.98943311 2038046
-1.0544246 0.39025378 0.98943311 1972255
-1.0198247 0.38096201 0.96587515 2497825
-0.94297481 0.35556456 0.90148348 1839637
-0.67798537 0.25807106 0.65430254 1641487
-0.68256265 0.26230174 0.66502881 1706509
-0.67602539 0.26230174 0.66502881 1640974
-0.68064618 0.26667342 0.67611259 2034706
-0.67399997 0.26667342 0.67611259 5322029
-0.66735375 0.26667342 0.67611259 4927781
-0.68349057 0.27586904 0.69942683 3875360
-0.68848568 0.28070888 0.71169752 4926498
-0.69365907 0.28572151 0.72440636 4993576
-0.6865381 0.28572151 0.72440636 5058856
-0.66749763 0.28070888 0.71169752 5254180
-0.6605016 0.28070888 0.71169752 4072474
-0.65350556 0.28070888 0.71169752 3941663
-0.65805435 0.28572151 0.72440636 4270368
-0.68777865 0.30189443 0.76541048 4793625
-0.69333649 0.30770013 0.78012997 7022878
-0.68566781 0.30770013 0.78012997 7352353
-0.71950924 0.32653889 0.82789302 8469033
-0.79220855 0.36364558 0.92197174 9386539
-0.70323277 0.32653889 0.82789302 10500650
-0.72467297 0.34043413 0.86312246 10763045
-0.67321718 0.3200081 0.81133515 10762273
-0.59396583 0.28572151 0.72440636 10828580
-0.57654935 0.28070888 0.71169752 10762788
-0.56955338 0.28070888 0.71169752 10828836
-0.57260299 0.28572151 0.72440636 10959907
-0.59749043 0.30189443 0.76541048 11156261
-0.58996642 0.30189443 0.76541048 11221537
-0.62998873 0.32653889 0.82789302 11221540
-0.57491839 0.30189443 0.76541048 11353125
-0.61371231 0.32653889 0.82789302 11089953
-0.60557407 0.32653889 0.82789302 11155746
-0.59743583 0.32653889 0.82789302 11222052
-0.62773001 0.34783489 0.88188601 10959652
-0.61906105 0.34783489 0.88188601 10893603
-0.61039209 0.34783489 0.88188601 11156259
-0.58892047 0.34043413 0.86312246 10828580
-0.58043593 0.34043413 0.86312246 10894629
-0.57195139 0.34043413 0.86312246 11287333
-0.56346691 0.34043413 0.86312246 11418403
-0.55498236 0.34043413 0.86312246 11353638
-0.54649782 0.34043413 0.86312246 11222052
-0.5497092 0.34783489 0.88188601 11353125
-0.55306339 0.35556456 0.90148348 11549732
-0.54420173 0.35556456 0.90148348 11549991
-0.54750693 0.36364558 0.92197174 11615527
-0.53844392 0.36364558 0.92197174 11549989
-0.52938092 0.36364558 0.92197174 11680548
-0.52031785 0.36364558 0.92197174 11352611
-0.52314448 0.37210247 0.94341296 11615525
0 0 0 11681318
0 0 0 11418918
0 0 0 11616549
0 0 0 11484197
0 0 0 11812904
0 0 0 11616036
0 0 0 11877668
0 0 0 11549216
-1.5755213 1.3333671 3.380563 11352352
-1.5422902 1.3333671 3.380563 11943205
-1.3929777 1.2308005 3.1205199 12008741
-1.3623029 1.2308005 3.1205199 12140326
-1.3316281 1.2308005 3.1205199 12074533
-1.208028 1.142886 2.8976254 11811875
-1.3761348 1.3333671 3.380563 11614755
-2.0143557 2.0000508 5.0708447 12008996
-1.0477381 1.0666937 2.7044504 12271398
-0.95733118 1.0000254 2.5354223 12074533
-0.93240786 1.0000254 2.5354223 11614242
-0.90748453 1.0000254 2.5354223 11876897
-0.88256127 1.0000254 2.5354223 11876387
-0.85763794 1.0000254 2.5354223 11483941
-0.7401908 0.88891149 2.2537088 11877668
-0.34931514 0.43244338 1.0963988 11811106
-0.32962862 0.4210633 1.0675462 11745570
-0.31095168 0.41026682 1.0401733 11746595
-0.29320854 0.40001017 1.014169 11876900
-0.27633095 0.39025378 0.98943311 11942434
-0.24842717 0.36364558 0.92197174 12074020
-0.23936415 0.36364558 0.92197174 11680289
-0.23030111 0.36364558 0.92197174 11812389
-0.22123809 0.36364558 0.92197174 11811876
-0.19052456 0.32653889 0.82789302 11746081
-0.18238634 0.32653889 0.82789302 11811874
-0.17424811 0.32653889 0.82789302 11483425
-0.16610989 0.32653889 0.82789302 11286562
-0.15797167 0.32653889 0.82789302 11680289
-0.14983343 0.32653889 0.82789302 11680289
-0.1416952 0.32653889 0.82789302 11942434
-0.12585177 0.30770013 0.78012997 11876897
-0.1138059 0.29630381 0.75123626 11679778
-0.10842916 0.30189443 0.76541048 11548706
-0.1091423 0.32653889 0.82789302 11614497
-0.093381122 0.30189443 0.76541048 11417378
-0.085857108 0.30189443 0.76541048 11482401
-0.072836034 0.28070888 0.71169752 11482658
-0.070809066 0.30189443 0.76541048 11154461
-0.069877237 0.33334178 0.84514076 11613983
0 0 0 11286049
0 0 0 11613984
0 0 0 11548191
-0.042902816 0.39025378 0.98943311 11679264
-0.030227607 0.35556456 0.90148348 11482400
-0.021365985 0.35556456 0.90148348 11811103
-0.013397531 0.38096201 0.96587515 11876640
-0.003902934 0.38096201 0.96587515 11614497
0.0057280441 0.39025378 0.98943311 11548706
0.017124942 0.43244338 1.0963988 11811106
0 0 0 11745312
0 0 0 11614240
0 0 0 11876900
0 0 0 11745310
0 0 0 11614497
0 0 0 11483426
0 0 0 11417634
0 0 0 11482915
0 0 0 11745571
0 0 0 11876898
0 0 0 11942179
0 0 0 12074021
0.25294226 0.69566977 1.763772 12074277
0.27028024 0.69566977 1.763772 11811107
0.28761819 0.69566977 1.763772 12008485
0.30495614 0.69566977 1.763772 11942947
0.35298878 0.76192403 1.9317503 11942945
0.37197798 0.76192403 1.9317503 11811875
0.39096716 0.76192403 1.9317503 11811359
0.53806776 1.0000254 2.5354223 12074020
0 0 0 11811107
0 0 0 11548705
0 0 0 11877157
0.72886968 1.142886 2.8976254 12204836
0.75735348 1.142886 2.8976254 11942434
0.78583729 1.142886 2.8976254 11877414
0.71253097 1.0000254 2.5354223 11942947
0.69407457 0.94120032 2.3862798 11876900
0.42062211 0.55173808 1.3988537 12008227
0.4498862 0.57144302 1.4488127 12205606
0.48131806 0.59260762 1.5024725 12205350
0.53577441 0.6400162 1.6226703 12007972
0.55172533 0.6400162 1.6226703 12140326
0.83481801 0.94120032 2.3862798 12008738
0.76793051 0.84212661 2.1350925 11877924
0.53533757 0.57144302 1.4488127 12009253
0.51294082 0.53334683 1.3522252 12402470
0.52623326 0.53334683 1.3522252 12205607
0.53952569 0.53334683 1.3522252 11549732
0.55281812 0.53334683 1.3522252 11680802
0.56611055 0.53334683 1.3522252 11418918
0.54319036 0.5000127 1.2677112 11680550
0.55565202 0.5000127 1.2677112 11615525
0.56811363 0.5000127 1.2677112 11942690
0.59930354 0.51614213 1.3086051 11942948
0.61216718 0.51614213 1.3086051 11811621
0.62503082 0.51614213 1.3086051 11942692
0.61796027 0.5000127 1.2677112 11876641
0.63042194 0.5000127 1.2677112 11877157
0.6428836 0.5000127 1.2677112 11548706
0.65534526 0.5000127 1.2677112 11811621
0.66780692 0.5000127 1.2677112 11679778
0.68026859 0.5000127 1.2677112 11680548
0.69273025 0.5000127 1.2677112 11549732
0.70519191 0.5000127 1.2677112 11549991
0.71765357 0.5000127 1.2677112 11221795
0.77878952 0.53334683 1.3522252 11483426
0.74257684 0.5000127 1.2677112 11548703
0.7550385 0.5000127 1.2677112 11548963
0.79225826 0.51614213 1.3086051 11483171
0.8051219 0.51614213 1.3086051 11221025
0.81798553 0.51614213 1.3086051 11090468
0.85854411 0.53334683 1.3522252 11352610
0.87183654 0.53334683 1.3522252 11090468
0.88512897 0.53334683 1.3522252 11549221
0.92940152 0.55173808 1.3988537 11024161
0.94315231 0.55173808 1.3988537 11221541
0.9569031 0.55173808 1.3988537 11286048
0.9382987 0.53334683 1.3522252 11089953
0.95159113 0.53334683 1.3522252 10696226
0.96488363 0.53334683 1.3522252 10827042
0.97817606 0.53334683 1.3522252 10630433
0.99146849 0.53334683 1.3522252 10564640
1.0047609 0.53334683 1.3522252 10958369
1.0180533 0.53334683 1.3522252 10564897
1.237615 0.6400162 1.6226703 10630691
1.0109402 0.51614213 1.3086051 10499361
1.094411 0.55173808 1.3988537 10433570
1.0366676 0.51614213 1.3086051 10696483
1.0845155 0.53334683 1.3522252 10564898
1.0623949 0.51614213 1.3086051 10630690
1.0416566 0.5000127 1.2677112 10433570
1.0221753 0.48486075 1.2292956 10434082
1.0665799 0.5000127 1.2677112 10434084
1.0790416 0.5000127 1.2677112 10302499
1.1642702 0.53334683 1.3522252 10170913
1.1775626 0.53334683 1.3522252 10433572
1.190855 0.53334683 1.3522252 10433570
1.1288882 0.5000127 1.2677112 10171425
1.1413499 0.5000127 1.2677112 9975330
1.1538116 0.5000127 1.2677112 9581089
1.1662732 0.5000127 1.2677112 10302245
1.1430156 0.48486075 1.2292956 10105636
1.1550996 0.48486075 1.2292956 9974304
1.1671836 0.48486075 1.2292956 9646882
1.1792676 0.48486075 1.2292956 9712417
1.1913517 0.48486075 1.2292956 9909538
1.2034358 0.48486075 1.2292956 9779752
1.1797693 0.47060016 1.1931399 9779237
1.1914978 0.47060016 1.1931399 9778724
1.2784282 0.5000127 1.2677112 9780005
1.2908897 0.5000127 1.2677112 9714471
1.3033514 0.5000127 1.2677112 9713700
1.3158131 0.5000127 1.2677112 9647908
1.3282747 0.5000127 1.2677112 9648165
1.3407364 0.5000127 1.2677112 9910569
1.3531981 0.5000127 1.2677112 9778983
1.3242761 0.48486075 1.2292956 9910311
1.3363601 0.48486075 1.2292956 9844776
1.308784 0.47060016 1.1931399 9648167
1.3205127 0.47060016 1.1931399 9910567
1.3322413 0.47060016 1.1931399 9648423
1.3846962 0.48486075 1.2292956 9714728
1.4404297 0.5000127 1.2677112 9583400
1.4528913 0.5000127 1.2677112 9649193
1.4209483 0.48486075 1.2292956 9714473
1.3908844 0.47060016 1.1931399 9648681
1.4902763 0.5000127 1.2677112 9714472
0 0 0 9713958
0 0 0 9647397
0 0 0 9582885
0 0 0 9451815
0 0 0 9320229
0 0 0 9123364
0 0 0 9254952
0 0 0 9517355
0 0 0 9582632
0 0 0 9451559
0 0 0 9451047
0 0 0 9779753
0 0 0 2103587
0 0 0 2169121
0 0 0 2169121
0 0 0 2103328
-1.7636266 0.60737699 1.5024725 2234401
-1.7488571 0.60737699 1.5024725 2168351
-1.7340878 0.60737699 1.5024725 2037279
-1.7193184 0.60737699 1.5024725 1905949
-1.2784119 0.45553276 1.1268544 1906208
-1.2673348 0.45553276 1.1268544 1840156
-1.2223048 0.44322103 1.0963988 1774363
-1.2115271 0.44322103 1.0963988 1774876
-1.1691508 0.43155733 1.0675462 1708570
-1.1586568 0.43155733 1.0675462 1644060
-1.1187227 0.42049178 1.0401733 2102558
-1.0544246 0.39997998 0.98943311 2431520
-1.0446985 0.39997998 0.98943311 2431259
-0.68441719 0.26450288 0.65430254 1576465
-0.66722369 0.26030442 0.64391679 1641486
-0.67155355 0.26450288 0.65430254 1575436
-0.67602539 0.268839 0.66502881 1969425
-0.68064618 0.27331963 0.67611259 3613222
-0.66295081 0.268839 0.66502881 4074787
-0.65641356 0.268839 0.66502881 3742226
-0.6498763 0.268839 0.66502881 2034704
-0.65406132 0.27331963 0.67611259 4992299
-0.6474151 0.27331963 0.67611259 5058852
-0.65162945 0.27795219 0.68757218 5451559
-0.66749763 0.28770489 0.71169752 5517350
-0.6605016 0.28770489 0.71169752 5780009
-0.65350556 0.28770489 0.71169752 7616042
-0.65805435 0.29284248 0.72440636 9647653
-0.68777865 0.30941844 0.76541048 10303780
-0.69333649 0.31536883 0.78012997 10369060
-0.68566781 0.31536883 0.78012997 10434851
-0.71950924 0.33467713 0.82789302 10763301
-0.711371 0.33467713 0.82789302 10959909
-0.66266167 0.31536883 0.78012997 10696994
-0.65499294 0.31536883 0.78012997 10828066
-0.6351105 0.30941844 0.76541048 10762274
-0.61596459 0.3036885 0.75123626 10827812
-0.57654935 0.28770489 0.71169752 10697252
-0.56955338 0.28770489 0.71169752 10631457
-0.57260299 0.29284248 0.72440636 10959651
-0.57576352 0.29816687 0.73757738 10828325
-0.58996642 0.30941844 0.76541048 10827812
-0.5824424 0.30941844 0.76541048 10959398
-0.57491839 0.30941844 0.76541048 11024675
-0.61371231 0.33467713 0.82789302 11286563
-0.59346259 0.32798356 0.81133515 11286563
-0.58548713 0.32798356 0.81133515 11286562
-0.57751167 0.32798356 0.81133515 11155748
-0.61906105 0.35650387 0.88188601 11090468
-0.59740502 0.34891868 0.86312246 11090467
-0.57665133 0.34164953 0.84514076 11221795
-0.56834352 0.34164953 0.84514076 10763046
-0.56003577 0.34164953 0.84514076 11090464
-0.55172801 0.34164953 0.84514076 11353123
-0.5434202 0.34164953 0.84514076 11353126
-0.54649782 0.34891868 0.86312246 11484198
-0.5497092 0.35650387 0.88188601 11353123
-0.55306339 0.3644262 0.90148348 11418913
-0.54420173 0.3644262 0.90148348 11680036
-0.53534013 0.3644262 0.90148348 11417891
-0.53844392 0.37270859 0.92197174 11287330
-0.52938092 0.37270859 0.92197174 11155488
-0.52031785 0.37270859 0.92197174 11286560
0 0 0 11418404
0 0 0 11417889
0 0 0 11615524
0 0 0 11484709
0 0 0 11353125
0 0 0 11616039
0 0 0 11681573
0 0 0 11353380
0 0 0 11484709
0 0 0 12074279
-1.4236526 1.2614753 3.1205199 12074277
-1.3929777 1.2614753 3.1205199 11877412
-1.2649955 1.1713699 2.8976254 12269858
-1.2365117 1.1713699 2.8976254 11811618
-1.208028 1.1713699 2.8976254 11746341
-1.1009078 1.0932785 2.7044504 11877668
-1.0743229 1.0932785 2.7044504 12008740
-0.98225451 1.0249487 2.5354223 11811875
-0.90101761 0.96465755 2.3862798 11746083
-0.87756032 0.96465755 2.3862798 11746342
-0.85410309 0.96465755 2.3862798 11286819
-0.88256127 1.0249487 2.5354223 11483428
-0.85763794 1.0249487 2.5354223 11811361
-0.7837314 0.96465755 2.3862798 11418146
-0.34931514 0.44322103 1.0963988 11811109
-0.32962862 0.43155733 1.0675462 11877156
-0.31095168 0.42049178 1.0401733 11745572
-0.29320854 0.40997949 1.014169 11614239
-0.27633095 0.39997998 0.98943311 11877154
-0.26660478 0.39997998 0.98943311 12073766
-0.23936415 0.37270859 0.92197174 11877414
-0.23030111 0.37270859 0.92197174 11811364
-0.21161905 0.35650387 0.88188601 11614498
-0.19052456 0.33467713 0.82789302 11614753
-0.18238634 0.33467713 0.82789302 11614755
-0.17424811 0.33467713 0.82789302 11548963
-0.16610989 0.33467713 0.82789302 11417120
-0.15797167 0.33467713 0.82789302 11548705
-0.14683676 0.32798356 0.81133515 11877154
-0.1388613 0.32798356 0.81133515 11811107
-0.12585177 0.31536883 0.78012997 11680034
-0.11595318 0.30941844 0.76541048 11417889
-0.11051435 0.31536883 0.78012997 11482911
-0.1091423 0.33467713 0.82789302 11614242
-0.10100408 0.33467713 0.82789302 11614498
-0.092865855 0.33467713 0.82789302 11417122
-0.078333087 0.30941844 0.76541048 11483171
-0.072170787 0.31536883 0.78012997 11285790
-0.068451174 0.33467713 0.82789302 11417376
-0.065674096 0.3644262 0.90148348 11417378
0 0 0 11417377
0 0 0 11155233
0 0 0 11351072
-0.030227607 0.3644262 0.90148348 11351585
-0.021365985 0.3644262 0.90148348 11482653
-0.012504362 0.3644262 0.90148348 11613727
-0.0038121683 0.38137624 0.94341296 11679008
0.0058712456 0.40997949 1.014169 11679522
0 0 0 11745313
0 0 0 11876641
0 0 0 11547934
0 0 0 11811361
0 0 0 11745566
0 0 0 11548703
0 0 0 11877155
0 0 0 11679775
0 0 0 11286817
0 0 0 11416863
0 0 0 11548706
0 0 0 11548962
0 0 0 11745570
0 0 0 12007712
0.25901857 0.68329906 1.6902815 11746082
0.27563411 0.68329906 1.6902815 11811109
0.29224965 0.68329906 1.6902815 11942947
0.29651058 0.65596712 1.6226703 11942945
0.3124615 0.65596712 1.6226703 12204836
0.32841244 0.65596712 1.6226703 12073508
0.50641668 0.96465755 2.3862798 12073763
0 0 0 11810848
0 0 0 11942436
0 0 0 11745828
0.72886968 1.1713699 2.8976254 11942947
0.66268432 1.0249487 2.5354223 11942434
0.78583729 1.1713699 2.8976254 11942434
0.71253097 1.0249487 2.5354223 11548449
0.45381802 0.63073766 1.5602599 11811877
0.42062211 0.56548887 1.3988537 11942691
0.4498862 0.58568496 1.4488127 12007971
0.46412811 0.58568496 1.4488127 12074276
0.49608743 0.60737699 1.5024725 12139813
0.55172533 0.65596712 1.6226703 12139813
0.56767625 0.65596712 1.6226703 12074533
0.54039556 0.60737699 1.5024725 12008482
0.51687765 0.56548887 1.3988537 12074789
0.51294082 0.54663926 1.3522252 12139811
0.52623326 0.54663926 1.3522252 11942693
0.53952569 0.54663926 1.3522252 12205091
0.55281812 0.54663926 1.3522252 12074018
0.56611055 0.54663926 1.3522252 11877666
0.56071264 0.52900577 1.3086051 11811875
0.55565202 0.51247436 1.2677112 11615268
0.56811363 0.51247436 1.2677112 11811620
0.59930354 0.52900577 1.3086051 11483941
0.59303695 0.51247436 1.2677112 11615012
0.60549861 0.51247436 1.2677112 11812134
0.61796027 0.51247436 1.2677112 11812134
0.63042194 0.51247436 1.2677112 11811362
0.62340224 0.49694479 1.2292956 11483941
0.6354863 0.49694479 1.2292956 11942180
0.64757031 0.49694479 1.2292956 11615013
0.68026859 0.51247436 1.2677112 11287334
0.69273025 0.51247436 1.2677112 11680292
0.70519191 0.51247436 1.2677112 11548962
0.71765357 0.51247436 1.2677112 11221537
0.73011518 0.51247436 1.2677112 11418916
0.74257684 0.51247436 1.2677112 11024675
0.7550385 0.51247436 1.2677112 11222053
0.79225826 0.52900577 1.3086051 11614242
0.8051219 0.52900577 1.3086051 11287332
0.81798553 0.52900577 1.3086051 11155744
0.85854411 0.54663926 1.3522252 11222054
0.87183654 0.54663926 1.3522252 11221284
0.88512897 0.54663926 1.3522252 11483427
0.89842141 0.54663926 1.3522252 11352098
0.94315231 0.56548887 1.3988537 11286564
0.92500627 0.54663926 1.3522252 11089441
0.9382987 0.54663926 1.3522252 11024417
0.95159113 0.54663926 1.3522252 10892321
0.96488363 0.54663926 1.3522252 10958628
0.94662201 0.52900577 1.3086051 10893857
0.95948565 0.52900577 1.3086051 10827552
0.97234929 0.52900577 1.3086051 11220771
1.0180533 0.54663926 1.3522252 10761249
1.0313457 0.54663926 1.3522252 10433570
0.97934836 0.51247436 1.2677112 10302498
1.0579306 0.54663926 1.3522252 10236707
1.071223 0.54663926 1.3522252 10301985
1.1219126 0.56548887 1.3988537 10367777
0.99800724 0.49694479 1.2292956 10564641
1.0100912 0.49694479 1.2292956 10236447
1.0221753 0.49694479 1.2292956 10433313
1.0342593 0.49694479 1.2292956 10171426
1.0463433 0.49694479 1.2292956 10106403
1.0915033 0.51247436 1.2677112 10368290
1.1039649 0.51247436 1.2677112 10236963
1.1164266 0.51247436 1.2677112 10302497
1.1288882 0.51247436 1.2677112 10499105
1.0742117 0.48232877 1.1931399 10237218
1.0859402 0.48232877 1.1931399 10105890
1.0976689 0.48232877 1.1931399 10236960
1.1093975 0.48232877 1.1931399 9909024
1.1211262 0.48232877 1.1931399 9974304
1.1328548 0.48232877 1.1931399 9449505
1.1792676 0.49694479 1.2292956 9515555
1.156312 0.48232877 1.1931399 9514780
1.1680406 0.48232877 1.1931399 9384993
1.1797693 0.48232877 1.1931399 9385508
1.2276038 0.49694479 1.2292956 9780009
1.2396878 0.49694479 1.2292956 9779238
1.2908897 0.51247436 1.2677112 9844516
1.3033514 0.51247436 1.2677112 9779493
1.3158131 0.51247436 1.2677112 9517607
1.3282747 0.51247436 1.2677112 9648168
1.3407364 0.51247436 1.2677112 9779238
1.312192 0.49694479 1.2292956 9844775
1.3242761 0.49694479 1.2292956 9844518
1.3363601 0.49694479 1.2292956 10041640
1.308784 0.48232877 1.1931399 9778469
1.3205127 0.48232877 1.1931399 10041384
1.3322413 0.48232877 1.1931399 9975334
1.3439699 0.48232877 1.1931399 9910054
1.3967803 0.49694479 1.2292956 9713704
1.4088643 0.49694479 1.2292956 9517352
1.3791558 0.48232877 1.1931399 9451817
1.3136131 0.45553276 1.1268544 9648680
1.4451164 0.49694479 1.2292956 9713960
0 0 0 9779755
0 0 0 9450275
0 0 0 9517094
0 0 0 9582887
0 0 0 9451559
0 0 0 9517096
0 0 0 9713704
0 0 0 9320233
0 0 0 9255208
0 0 0 9386278
0 0 0 9320744
0 0 0 9451560
0 0 0 2365986
0 0 0 2300705
-1.4671351 0.50902879 1.2292956 2234914
-1.4550511 0.50902879 1.2292956 2169380
-1.4005269 0.49405739 1.1931399 2103587
-1.3887984 0.49405739 1.1931399 2037536
-1.560679 0.5599317 1.3522252 1971487
-1.5473865 0.5599317 1.3522252 2037281
-1.5340941 0.5599317 1.3522252 1905694
-1.2673348 0.46660978 1.1268544 1840156
-1.2223048 0.45399868 1.0963988 1840413
-1.2115271 0.45399868 1.0963988 1840415
-1.1691508 0.44205135 1.0675462 1970972
-1.1586568 0.44205135 1.0675462 1840155
-1.1481627 0.44205135 1.0675462 2563106
-1.1084977 0.43071672 1.0401733 2496798
-1.0982728 0.43071672 1.0401733 2167573
-1.0349723 0.40970615 0.98943311 1444879
-0.66722369 0.26663417 0.64391679 1772046
-0.67155355 0.2709347 0.65430254 1641488
-0.67602539 0.27537626 0.66502881 2233368
-0.68064618 0.27996585 0.67611259 4204581
-0.66295081 0.27537626 0.66502881 4598818
-0.65641356 0.27537626 0.66502881 4661785
-0.63939446 0.2709347 0.65430254 5382688
-0.64333904 0.27537626 0.66502881 7288105
-0.63680178 0.27537626 0.66502881 7682090
-0.64076889 0.27996585 0.67611259 8534313
-0.65598899 0.28961986 0.69942683 9189155
-0.6605016 0.29470092 0.71169752 9975842
-0.67726934 0.3054173 0.73757738 10171681
-0.67001897 0.3054173 0.73757738 10434853
-0.66276854 0.3054173 0.73757738 10434595
-0.68025464 0.31694248 0.76541048 10303519
-0.68566781 0.32303753 0.78012997 10434851
-0.70511901 0.33595905 0.81133515 10631203
-0.6576826 0.31694248 0.76541048 10631201
-0.65015858 0.31694248 0.76541048 10696994
-0.64263457 0.31694248 0.76541048 10827296
-0.6351105 0.31694248 0.76541048 10958369
-0.61596459 0.31107318 0.75123626 10696483
-0.59751475 0.3054173 0.73757738 10434082
-0.57972389 0.29996341 0.72440636 10565156
-0.57260299 0.29996341 0.72440636 10828066
-0.56548202 0.29996341 0.72440636 10894116
-0.55836105 0.29996341 0.72440636 11024931
-0.56126267 0.3054173 0.73757738 10959650
-0.55401224 0.3054173 0.73757738 11615009
-0.58964515 0.3293716 0.79542661 11024417
-0.58182603 0.3293716 0.79542661 11089955
-0.57400697 0.3293716 0.79542661 11287333
-0.56618792 0.3293716 0.79542661 11024417
-0.56953621 0.33595905 0.81133515 11155748
-0.57302117 0.34281534 0.82789302 11221539
-0.56488293 0.34281534 0.82789302 11222051
-0.55674469 0.34281534 0.82789302 11156259
-0.56003577 0.34995732 0.84514076 11024417
-0.55172801 0.34995732 0.84514076 11353123
-0.5434202 0.34995732 0.84514076 11222052
-0.55837822 0.36517286 0.88188601 11353126
-0.56192499 0.3732878 0.90148348 11353125
-0.55306339 0.3732878 0.90148348 11615011
-0.54420173 0.3732878 0.90148348 11418146
-0.53534013 0.3732878 0.90148348 11352866
-0.52647847 0.3732878 0.90148348 11417890
-0.51761687 0.3732878 0.90148348 11418404
-0.53241831 0.39065003 0.94341296 11286562
0 0 0 11746341
0 0 0 11287332
0 0 0 11484196
0 0 0 11680550
0 0 0 11550504
0 0 0 11353125
0 0 0 11812134
-1.5156772 1.2921501 3.1205199 11483937
-1.3789307 1.1998537 2.8976254 11812647
-1.260417 1.1198634 2.7044504 12074018
-1.2338321 1.1198634 2.7044504 11811364
-1.2072473 1.1198634 2.7044504 11877929
-1.2649955 1.1998537 2.8976254 12008740
-1.1540775 1.1198634 2.7044504 11812134
-1.1274927 1.1198634 2.7044504 11548963
-1.1009078 1.1198634 2.7044504 11680548
-1.0071778 1.0498719 2.5354223 11942945
-0.98225451 1.0498719 2.5354223 11811618
-0.90101761 0.98811477 2.3862798 11614755
-0.82880706 0.93321955 2.2537088 11745825
-0.80665296 0.93321955 2.2537088 11548707
-0.83064586 0.98811477 2.3862798 11549220
-0.80718863 0.98811477 2.3862798 11287330
-0.7837314 0.98811477 2.3862798 11745828
-0.64623308 0.83989763 2.028338 11877154
-0.32962862 0.44205135 1.0675462 12008486
-0.30317789 0.41994882 1.014169 11811621
-0.28605711 0.40970615 0.98943311 11614754
-0.27633095 0.40970615 0.98943311 11811104
-0.26660478 0.40970615 0.98943311 11614499
-0.25687858 0.40970615 0.98943311 11680289
-0.24715243 0.40970615 0.98943311 11548703
-0.19866279 0.34281534 0.82789302 11745828
-0.17953277 0.32303753 0.78012997 11811618
-0.17873861 0.33595905 0.81133515 11810848
-0.17424811 0.34281534 0.82789302 11613730
-0.16610989 0.34281534 0.82789302 11745566
-0.15797167 0.34281534 0.82789302 11483171
-0.14983343 0.34281534 0.82789302 11548963
-0.1416952 0.34281534 0.82789302 11614498
-0.13088584 0.33595905 0.81133515 11483683
-0.12541875 0.34281534 0.82789302 11351839
-0.11728053 0.34281534 0.82789302 11416862
-0.1091423 0.34281534 0.82789302 11679778
-0.10100408 0.34281534 0.82789302 11614239
-0.092865855 0.34281534 0.82789302 11548192
-0.083033077 0.33595905 0.81133515 11942432
-0.075057611 0.33595905 0.81133515 11614242
-0.068451174 0.34281534 0.82789302 11679521
-0.060312953 0.34281534 0.82789302 11745055
-0.054394923 0.35740322 0.86312246 11942947
-0.047950853 0.3732878 0.90148348 11614244
-0.039089229 0.3732878 0.90148348 11613982
-0.030227607 0.3732878 0.90148348 11285277
-0.021365985 0.3732878 0.90148348 11416863
-0.012504362 0.3732878 0.90148348 11548964
-0.0038121683 0.39065003 0.94341296 11417378
0.0055916621 0.39995122 0.96587515 11482656
0.01624674 0.43071672 1.0401733 11745055
0 0 0 11745568
0 0 0 11417376
0 0 0 11614244
0 0 0 11613728
0 0 0 11942178
0 0 0 11614239
0 0 0 11352097
0 0 0 11548447
0 0 0 11417118
0 0 0 11811363
0 0 0 11745312
0 0 0 11745314
0 0 0 11483941
0 0 0 11942693
0 0 0 11942691
0 0 0 11877157
0.35298878 0.79990244 1.9317503 12204835
0.3124615 0.67191809 1.6226703 11942434
0.34209627 0.69991463 1.6902815 11810591
0.50641668 0.98811477 2.3862798 11680037
0.60052377 1.1198634 2.7044504 11680032
0 0 0 12204836
0 0 0 11876643
0.78493661 1.2921501 3.1205199 11942947
0.66268432 1.0498719 2.5354223 11810594
0.68760765 1.0498719 2.5354223 12139811
0.43848059 0.64607507 1.5602599 11483425
0.42140242 0.59992683 1.4488127 11877924
0.46915543 0.64607507 1.5602599 12008484
0.4498862 0.59992683 1.4488127 12139300
0.48131806 0.62214637 1.5024725 11943207
0.49608743 0.62214637 1.5024725 12270629
0.53050512 0.64607507 1.5602599 12204836
0.54584259 0.64607507 1.5602599 11942947
0.54039556 0.62214637 1.5024725 11811104
0.53533757 0.59992683 1.4488127 11876896
0.53062844 0.57923973 1.3988537 11877414
0.54437923 0.57923973 1.3988537 12074279
0.55813003 0.57923973 1.3988537 12008483
0.55281812 0.5599317 1.3522252 12205604
0.56611055 0.5599317 1.3522252 11811617
0.56071264 0.5418694 1.3086051 11811621
0.57357627 0.5418694 1.3086051 11811879
0.58643991 0.5418694 1.3086051 11614755
0.58057529 0.52493596 1.2677112 11811621
0.59303695 0.52493596 1.2677112 11812903
0.60549861 0.52493596 1.2677112 11681060
0.61796027 0.52493596 1.2677112 11417378
0.63042194 0.52493596 1.2677112 11483169
0.6428836 0.52493596 1.2677112 11746343
0.65534526 0.52493596 1.2677112 11811876
0.66780692 0.52493596 1.2677112 11679780
0.68026859 0.52493596 1.2677112 11615014
0.69273025 0.52493596 1.2677112 11352612
0.70519191 0.52493596 1.2677112 11680037
0.71765357 0.52493596 1.2677112 11614242
0.73011518 0.52493596 1.2677112 11680805
0.74257684 0.52493596 1.2677112 11221538
0.7550385 0.52493596 1.2677112 11417378
0.76750016 0.52493596 1.2677112 11352100
0.8051219 0.5418694 1.3086051 11155746
0.81798553 0.5418694 1.3086051 11090212
0.83084917 0.5418694 1.3086051 11090467
0.87183654 0.5599317 1.3522252 10892834
0.88512897 0.5599317 1.3522252 10892835
0.92940152 0.57923973 1.3988537 11024677
0.91171384 0.5599317 1.3522252 10827809
0.92500627 0.5599317 1.3522252 10893089
0.9382987 0.5599317 1.3522252 10761504
0.95159113 0.5599317 1.3522252 11220767
0.96488363 0.5599317 1.3522252 10828066
0.94662201 0.5418694 1.3086051 11024672
0.92950171 0.52493596 1.2677112 11090466
0.94196337 0.52493596 1.2677112 10696480
0.95442504 0.52493596 1.2677112 11090466
0.9668867 0.52493596 1.2677112 10958626
0.94967109 0.50902879 1.2292956 10695712
0.99181002 0.52493596 1.2677112 10630433
1.0042716 0.52493596 1.2677112 10302499
1.0167333 0.52493596 1.2677112 10302497
0.99800724 0.50902879 1.2292956 10367776
1.0100912 0.50902879 1.2292956 10433056
1.0221753 0.50902879 1.2292956 10564640
1.0342593 0.50902879 1.2292956 10434083
1.0155686 0.49405739 1.1931399 10302242
1.0584273 0.50902879 1.2292956 10040354
1.0705113 0.50902879 1.2292956 10367779
1.0825955 0.50902879 1.2292956 10301986
1.0946795 0.50902879 1.2292956 10368805
1.0742117 0.49405739 1.1931399 10237220
1.0859402 0.49405739 1.1931399 10237218
1.0976689 0.49405739 1.1931399 10302497
1.1093975 0.49405739 1.1931399 10301984
1.1211262 0.49405739 1.1931399 10302241
1.0699184 0.46660978 1.1268544 10235934
1.0809954 0.46660978 1.1268544 9777184
1.0920725 0.46660978 1.1268544 9843231
1.1031495 0.46660978 1.1268544 9647139
1.1142266 0.46660978 1.1268544 9384738
1.1253036 0.46660978 1.1268544 9319202
1.2032264 0.49405739 1.1931399 9778983
1.2517718 0.50902879 1.2292956 9582117
1.3033514 0.52493596 1.2677112 9582373
1.3158131 0.52493596 1.2677112 9385763
1.3282747 0.52493596 1.2677112 9583399
1.300108 0.50902879 1.2292956 9714215
1.2372097 0.47994149 1.1590502 9713702
1.2486032 0.47994149 1.1590502 9648165
1.3363601 0.50902879 1.2292956 9713445
1.3484441 0.50902879 1.2292956 9778726
1.3205127 0.49405739 1.1931399 9845291
1.3322413 0.49405739 1.1931399 9779241
1.3439699 0.49405739 1.1931399 9910569
1.3967803 0.50902879 1.2292956 9713190
1.3674271 0.49405739 1.1931399 9647397
1.3397514 0.47994149 1.1590502 9713960
1.3136131 0.46660978 1.1268544 9647909
0 0 0 9582633
0 0 0 9648167
0 0 0 9517094
0 0 0 9517352
0 0 0 9386023
0 0 0 8991779
0 0 0 9451817
0 0 0 9844776
0 0 0 9385508
0 0 0 9451813
0 0 0 9319971
0 0 0 9582631
0 0 0 9779753
0 0 0 2169378
0 0 0 2234914
-1.4671351 0.52111286 1.2292956 2103584
-1.4550511 0.52111286 1.2292956 2038048
-1.4005269 0.505786 1.1931399 1972255
-1.3491184 0.491335 1.1590502 1971742
-1.3770697 0.505786 1.1931399 2037281
-1.5473865 0.57322413 1.3522252 2168096
-1.7701087 0.66141254 1.5602599 1905436
-1.901002 0.7165302 1.6902815 2102558
-1.2223048 0.46477634 1.0963988 2036764
-1.2115271 0.46477634 1.0963988 2102812
-1.2007495 0.46477634 1.0963988 1971227
-1.1586568 0.45254537 1.0675462 2563106
-1.1481627 0.45254537 1.0675462 2365982
-1.1376687 0.45254537 1.0675462 2102810
0 0 0 1707538
0 0 0 1641232
-0.77842766 0.31845787 0.75123626 1904403
-0.771043 0.31845787 0.75123626 2693662
-0.6872924 0.28661206 0.67611259 4532523
-0.68064618 0.28661206 0.67611259 6894889
-0.67399997 0.28661206 0.67611259 8665387
-0.66735375 0.28661206 0.67611259 9123879
-0.66070753 0.28661206 0.67611259 9320228
-0.64333904 0.28191352 0.66502881 9450788
-0.63680178 0.28191352 0.66502881 9581857
-0.63026452 0.28191352 0.66502881 9581343
-0.65598899 0.29649526 0.69942683 9581343
-0.67229623 0.30708435 0.72440636 9975329
