# .PCD v0.7 - Point Cloud Data file format
VERSION 0.7
FIELDS x y z rgb
SIZE 4 4 4 4
TYPE F F F U
COUNT 1 1 1 1
WIDTH 1246
HEIGHT 1
VIEWPOINT 0 0 0 1 0 0 0
POINTS 1246
DATA ascii
-0.10595722 -0.033523817 0.69942683 1706765
-0.095779091 -0.032406356 0.67611259 1575439
-0.086257629 -0.031360991 0.65430254 2494740
-0.078558728 -0.030863198 0.64391679 2035218
-0.072228998 -0.030863198 0.64391679 1837325
-0.065899268 -0.030863198 0.64391679 1377802
-0.059569534 -0.030863198 0.64391679 1508873
-0.054098509 -0.031360991 0.65430254 1114887
-0.047666688 -0.031360991 0.65430254 1049097
-0.041910846 -0.031875107 0.66502881 1772560
-0.035373583 -0.031875107 0.66502881 2493453
-0.029316923 -0.032406356 0.67611259 2690834
-0.023054956 -0.03295562 0.68757218 2691088
-0.016577058 -0.033523817 0.69942683 3281681
-0.0097016599 -0.033523817 0.69942683 3544597
-0.0029272006 -0.034721099 0.72440636 4003347
0.0043490706 -0.036007065 0.75123626 4135702
0.011955148 -0.036686443 0.76541048 4332564
0.019479167 -0.036686443 0.76541048 4595223
0.02752248 -0.037391953 0.78012997 4332312
0.035191193 -0.037391953 0.78012997 4595223
0.046431564 -0.040507946 0.84514076 5317910
0.054739334 -0.040507946 0.84514076 4072483
0.064388536 -0.041369818 0.86312246 1442050
0 0 0 4333847
0 0 0 6107168
0 0 0 5517088
0 0 0 5845796
0 0 0 5581598
0 0 0 4793627
0 0 0 5385250
0.56513143 -0.17676196 3.687887 5253659
0.66152191 -0.19443816 4.0566759 5253663
0.87674892 -0.24304768 5.0708447 5843999
0.92659557 -0.24304768 5.0708447 4201747
0.97644222 -0.24304768 5.0708447 1378316
1.0262889 -0.24304768 5.0708447 1246987
1.2298691 -0.27776879 5.7952509 1049865
1.2868366 -0.27776879 5.7952509 1181708
1.1758287 -0.24304768 5.0708447 3680549
1.2256753 -0.24304768 5.0708447 8410945
1.275522 -0.24304768 5.0708447 8608320
1.3253686 -0.24304768 5.0708447 9462599
1.3752153 -0.24304768 5.0708447 9988428
1.4250619 -0.24304768 5.0708447 10644813
1.4749085 -0.24304768 5.0708447 10776141
1.5247551 -0.24304768 5.0708447 11302225
1.7995448 -0.27776879 5.7952509 12353879
1.8565124 -0.27776879 5.7952509 12747356
1.91348 -0.27776879 5.7952509 13010525
1.7241417 -0.24304768 5.0708447 13011037
1.7739882 -0.24304768 5.0708447 13142366
1.6211867 -0.2160424 4.5074177 13273692
1.6654948 -0.2160424 4.5074177 13536609
1.7098029 -0.2160424 4.5074177 13339748
1.3155832 -0.16203178 3.380563 13733221
1.3488142 -0.16203178 3.380563 13535838
1.2757342 -0.14956781 3.1205199 13798753
1.4152764 -0.16203178 3.380563 13536866
1.4485075 -0.16203178 3.380563 13536614
1.7780864 -0.19443816 4.0566759 13471586
1.3984337 -0.14956781 3.1205199 13536608
1.4291085 -0.14956781 3.1205199 13600860
1.4597833 -0.14956781 3.1205199 13338463
1.4904583 -0.14956781 3.1205199 13010781
1.4124806 -0.1388844 2.8976254 13405025
1.4409643 -0.1388844 2.8976254 13338210
1.4694482 -0.1388844 2.8976254 13470046
1.497932 -0.1388844 2.8976254 13076058
1.5264157 -0.1388844 2.8976254 12879965
1.4512396 -0.12962542 2.7044504 12944988
1.4778244 -0.12962542 2.7044504 4725782
1.5044093 -0.12962542 2.7044504 1575436
1.5309942 -0.12962542 2.7044504 1313292
1.3743345 -0.11437538 2.3862798 1379086
1.3977917 -0.11437538 2.3862798 1444107
1.3422908 -0.1080212 2.2537088 1313294
1.2926319 -0.10233587 2.1350925 1444109
1.31362 -0.10233587 2.1350925 1443852
1.334608 -0.10233587 2.1350925 852743
1.3555961 -0.10233587 2.1350925 852743
1.4530611 -0.1080212 2.2537088 918536
1.3975722 -0.10233587 2.1350925 852747
1.4185603 -0.10233587 2.1350925 853261
1.3675709 -0.09721908 2.028338 787724
1.20653 -0.084538326 1.763772 524807
1.2794983 -0.088380978 1.8439435 590345
1.4273869 -0.09721908 2.028338 721417
1.4473255 -0.09721908 2.028338 655882
1.3973943 -0.092589594 1.9317503 721675
1.4163835 -0.092589594 1.9317503 459018
1.4353727 -0.092589594 1.9317503 590345
1.4543619 -0.092589594 1.9317503 590601
1.4063807 -0.088380978 1.8439435 655625
1.4245067 -0.088380978 1.8439435 786954
1.4426327 -0.088380978 1.8439435 786953
1.4607588 -0.088380978 1.8439435 656393
1.5493079 -0.092589594 1.9317503 655882
1.568297 -0.092589594 1.9317503 590602
1.5872862 -0.092589594 1.9317503 655882
1.6062754 -0.092589594 1.9317503 655882
1.6252646 -0.092589594 1.9317503 655882
1.6442538 -0.092589594 1.9317503 590602
1.6632431 -0.092589594 1.9317503 655880
1.6822323 -0.092589594 1.9317503 787208
1.7012215 -0.092589594 1.9317503 786696
1.6420193 -0.088380978 1.8439435 852489
1.587965 -0.084538326 1.763772 590087
1.605303 -0.084538326 1.763772 721673
1.622641 -0.084538326 1.763772 786696
1.6399789 -0.084538326 1.763772 721160
1.588262 -0.081015892 1.6902815 852489
1.6048776 -0.081015892 1.6902815 852230
1.6214931 -0.081015892 1.6902815 852489
1.6381086 -0.081015892 1.6902815 1049352
1.5885353 -0.077775262 1.6226703 1576200
1.6044862 -0.077775262 1.6226703 8673086
1.5581126 -0.074783906 1.5602599 9658948
1.5151742 -0.072014131 1.5024725 9528650
1.5299435 -0.072014131 1.5024725 9593930
1.4895445 -0.069442198 1.4488127 9725004
1.5037863 -0.069442198 1.4488127 9593674
1.5180283 -0.069442198 1.4488127 9462601
1.5322702 -0.069442198 1.4488127 9462856
1.546512 -0.069442198 1.4488127 9528135
1.5607539 -0.069442198 1.4488127 9331784
1.5749959 -0.069442198 1.4488127 9725257
1.5892377 -0.069442198 1.4488127 9659465
1.5481873 -0.067047633 1.3988537 9594187
1.561938 -0.067047633 1.3988537 9462858
1.427968 -0.060761921 1.2677112 9528651
1.280382 -0.0540106 1.1268544 9462346
1.2914591 -0.0540106 1.1268544 9528138
1.302536 -0.0540106 1.1268544 9791309
1.3511449 -0.055553757 1.1590502 9857100
1.4451164 -0.058920648 1.2292956 10053198
0 0 0 9593678
0 0 0 9594444
0 0 0 9856587
0 0 0 10053196
0 0 0 9659468
0 0 0 9593933
0 0 0 9790796
0 0 0 9791309
0 0 0 9791823
0 0 0 9921610
0 0 0 9856333
0 0 0 9922384
0 0 0 8608578
0 0 0 9134152
-4.4014053 -0.14050986 3.687887 9922894
-4.8016691 -0.15456085 4.0566759 10909015
-4.7617917 -0.15456085 4.0566759 11171929
-5.9023929 -0.19320105 5.0708447 11040343
-5.8525462 -0.19320105 5.0708447 11172181
-5.1579552 -0.17173427 4.5074177 11172951
-4.6022825 -0.15456085 4.0566759 11172181
-4.5624051 -0.15456085 4.0566759 11828056
-4.5225282 -0.15456085 4.0566759 11499861
-4.4826508 -0.15456085 4.0566759 11763033
-4.0388846 -0.14050986 3.687887 11697498
-4.0026326 -0.14050986 3.687887 11763035
-3.9663804 -0.14050986 3.687887 11894108
-3.9301283 -0.14050986 3.687887 11829086
-3.8938763 -0.14050986 3.687887 11828826
-3.8576241 -0.14050986 3.687887 12025176
-3.2334688 -0.11889296 3.1205199 11762518
-3.78512 -0.14050986 3.687887 11236171
-4.123755 -0.15456085 4.0566759 8672049
-4.0838776 -0.15456085 4.0566759 6767142
-4.4933338 -0.17173427 4.5074177 2953218
-4.4490256 -0.17173427 4.5074177 2363922
-4.4047174 -0.17173427 4.5074177 2034445
-4.3604093 -0.17173427 4.5074177 2889240
-4.3161011 -0.17173427 4.5074177 3414292
-4.2717929 -0.17173427 4.5074177 3545620
-4.2274847 -0.17173427 4.5074177 3677463
-4.183177 -0.17173427 4.5074177 3480342
-4.6562271 -0.19320105 5.0708447 3413777
-4.6063805 -0.19320105 5.0708447 3217683
-4.5565338 -0.19320105 5.0708447 3152147
-4.5066872 -0.19320105 5.0708447 3218456
-4.4568405 -0.19320105 5.0708447 3349015
-4.4069939 -0.19320105 5.0708447 3611158
-4.3571472 -0.19320105 5.0708447 3480085
-4.3073006 -0.19320105 5.0708447 3611669
-4.2574539 -0.19320105 5.0708447 3480085
-3.7400956 -0.17173427 4.5074177 3943466
-3.6957874 -0.17173427 4.5074177 7753792
-3.6514795 -0.17173427 4.5074177 9134149
-3.6071713 -0.17173427 4.5074177 9199168
-4.0082207 -0.19320105 5.0708447 9920838
-3.9583743 -0.19320105 5.0708447 9855810
-3.9085276 -0.19320105 5.0708447 9856834
-5.144908 -0.25760141 6.761126 10052676
-5.0784454 -0.25760141 6.761126 10117956
-5.0119834 -0.25760141 6.761126 10381640
-4.9455214 -0.25760141 6.761126 10447688
-4.8790593 -0.25760141 6.761126 10711628
-4.8125968 -0.25760141 6.761126 10841933
-4.0681157 -0.2208012 5.7952509 10644810
-4.6796727 -0.25760141 6.761126 10710346
-4.6132107 -0.25760141 6.761126 11104076
-4.5467482 -0.25760141 6.761126 10973519
-4.4802861 -0.25760141 6.761126 11236689
-4.4138241 -0.25760141 6.761126 11367246
-4.3473616 -0.25760141 6.761126 11433550
-5.1370797 -0.3091217 8.1133518 11368270
-5.0573254 -0.3091217 8.1133518 11564880
-4.9775705 -0.3091217 8.1133518 11630416
-3.0611348 -0.19320105 5.0708447 12024402
-3.0112882 -0.19320105 5.0708447 11828307
-3.3845046 -0.2208012 5.7952509 11958866
-3.3275371 -0.2208012 5.7952509 11893072
-3.2705696 -0.2208012 5.7952509 11958866
-3.2136018 -0.2208012 5.7952509 12419668
-3.1566343 -0.2208012 5.7952509 12352851
-3.0996668 -0.2208012 5.7952509 12352594
-2.6623619 -0.19320105 5.0708447 12812373
-2.6125152 -0.19320105 5.0708447 12747095
-2.5626686 -0.19320105 5.0708447 13010781
-2.5128219 -0.19320105 5.0708447 13140309
-2.8148289 -0.2208012 5.7952509 13141594
-2.7578614 -0.2208012 5.7952509 13142106
-2.7008936 -0.2208012 5.7952509 13141336
-3.0845804 -0.25760141 6.761126 13273176
-3.0181184 -0.25760141 6.761126 13273431
-2.9516561 -0.25760141 6.761126 13207381
-2.4730234 -0.2208012 5.7952509 13141336
-2.114049 -0.19320105 5.0708447 13602396
-2.3590882 -0.2208012 5.7952509 13865312
-2.6858075 -0.25760141 6.761126 13930845
-2.6193452 -0.25760141 6.761126 13601114
-2.5528831 -0.25760141 6.761126 13602137
-2.4864209 -0.25760141 6.761126 13471070
-2.4199588 -0.25760141 6.761126 13733211
-2.0172827 -0.2208012 5.7952509 13733470
-1.7152759 -0.19320105 5.0708447 13469524
-1.6654292 -0.19320105 5.0708447 13667934
-1.84638 -0.2208012 5.7952509 13732699
-1.7894125 -0.2208012 5.7952509 13799261
0 0 0 13537118
0 0 0 13471584
0 0 0 13667162
0 0 0 13601627
0 0 0 11564108
0 0 0 8873816
0 0 0 8479315
0 0 0 8545882
0 0 0 8677464
-0.13771221 -0.024929168 0.65430254 8611414
-0.13343252 -0.025337843 0.66502881 3350036
-0.12901019 -0.02576014 0.67611259 1837325
-0.12443794 -0.026196754 0.68757218 1640974
-0.11970802 -0.026648421 0.69942683 1509388
-0.11283262 -0.026648421 0.69942683 1313293
-0.10595722 -0.026648421 0.69942683 1312781
-0.099081822 -0.026648421 0.69942683 1312780
-0.092206426 -0.026648421 0.69942683 1181451
-0.079825804 -0.024929168 0.65430254 1115658
-0.073393978 -0.024929168 0.65430254 1049355
-0.06696216 -0.024929168 0.65430254 853000
-0.061522633 -0.025337843 0.66502881 1444368
-0.05498537 -0.025337843 0.66502881 1772047
-0.049255572 -0.02576014 0.67611259 2296592
-0.042609356 -0.02576014 0.67611259 2559244
-0.03596314 -0.02576014 0.67611259 2427917
-0.029813822 -0.026196754 0.68757218 2493710
-0.023452453 -0.026648421 0.69942683 3150098
-0.016577058 -0.026648421 0.69942683 3215632
-0.0097016599 -0.026648421 0.69942683 3347217
-0.0029272006 -0.027600151 0.72440636 3675666
0.0043490706 -0.02862238 0.75123626 3741972
0.011955148 -0.029162422 0.76541048 4266773
0.019479167 -0.029162422 0.76541048 4529428
0.02752248 -0.02972324 0.78012997 4398357
0.035191193 -0.02972324 0.78012997 4332566
0.042859904 -0.02972324 0.78012997 4332567
0.052549761 -0.030912168 0.81133515 5119765
0.064388536 -0.032885283 0.86312246 5252380
0 0 0 1442825
0 0 0 1969420
0 0 0 5254177
0 0 0 6042149
0 0 0 5187867
0 0 0 4990492
0 0 0 5581600
0 0 0 5516062
0.66152191 -0.15456085 4.0566759 5319711
0.70139921 -0.15456085 4.0566759 5845025
0.82364053 -0.17173427 4.5074177 4004624
0.97644222 -0.19320105 5.0708447 1312524
1.0262889 -0.19320105 5.0708447 984586
1.2298691 -0.2208012 5.7952509 1115915
1.125982 -0.19320105 5.0708447 1246987
1.1758287 -0.19320105 5.0708447 3482658
1.2256753 -0.19320105 5.0708447 8345408
1.275522 -0.19320105 5.0708447 8542015
1.514707 -0.2208012 5.7952509 9265223
1.3752153 -0.19320105 5.0708447 9922379
1.4250619 -0.19320105 5.0708447 10251341
1.4749085 -0.19320105 5.0708447 10513227
1.5247551 -0.19320105 5.0708447 11038798
1.5746018 -0.19320105 5.0708447 11433553
1.6244484 -0.19320105 5.0708447 12682333
1.6742951 -0.19320105 5.0708447 12682075
1.7241417 -0.19320105 5.0708447 12945501
1.5768785 -0.17173427 4.5074177 13076572
1.6211867 -0.17173427 4.5074177 13339489
1.6654948 -0.17173427 4.5074177 13405026
1.7098029 -0.17173427 4.5074177 13470820
1.5786999 -0.15456085 4.0566759 13536099
1.3488142 -0.12880071 3.380563 13602145
1.2757342 -0.11889296 3.1205199 13470561
1.3064091 -0.11889296 3.1205199 13601890
1.3370839 -0.11889296 3.1205199 13535842
1.3677588 -0.11889296 3.1205199 13470044
1.3984337 -0.11889296 3.1205199 13536863
1.4291085 -0.11889296 3.1205199 13404508
1.4597833 -0.11889296 3.1205199 13404505
1.2917304 -0.10304056 2.7044504 13141338
1.3183153 -0.10304056 2.7044504 13273184
1.3449001 -0.10304056 2.7044504 12944475
1.4694482 -0.1104006 2.8976254 12812889
1.3980699 -0.10304056 2.7044504 13142107
1.4246547 -0.10304056 2.7044504 13141338
1.4512396 -0.10304056 2.7044504 12681303
1.4778244 -0.10304056 2.7044504 4397846
1.5044093 -0.10304056 2.7044504 1313294
1.5309942 -0.10304056 2.7044504 1443851
1.4602304 -0.096600525 2.5354223 1312521
1.3977917 -0.090918146 2.3862798 1247500
1.4212489 -0.090918146 2.3862798 1575438
1.3644449 -0.085867137 2.2537088 1378316
1.31362 -0.081347816 2.1350925 1312780
1.334608 -0.081347816 2.1350925 590600
1.3555961 -0.081347816 2.1350925 721672
1.3765841 -0.081347816 2.1350925 787466
1.3975722 -0.081347816 2.1350925 852746
1.4185603 -0.081347816 2.1350925 590602
1.4395483 -0.081347816 2.1350925 655882
1.3875096 -0.077280425 2.028338 590602
1.4815243 -0.081347816 2.1350925 656395
1.5025125 -0.081347816 2.1350925 393735
1.4473255 -0.077280425 2.028338 590604
1.3973943 -0.073600397 1.9317503 786955
1.4163835 -0.073600397 1.9317503 720903
1.4353727 -0.073600397 1.9317503 721673
1.4543619 -0.073600397 1.9317503 656394
1.4733511 -0.073600397 1.9317503 524554
1.4923403 -0.073600397 1.9317503 655882
1.5113295 -0.073600397 1.9317503 590089
1.5303187 -0.073600397 1.9317503 655882
1.5493079 -0.073600397 1.9317503 786698
1.568297 -0.073600397 1.9317503 721419
1.5872862 -0.073600397 1.9317503 655883
1.6062754 -0.073600397 1.9317503 590089
1.6252646 -0.073600397 1.9317503 655626
1.7264667 -0.077280425 2.028338 655882
1.8383213 -0.081347816 2.1350925 721416
1.766344 -0.077280425 2.028338 655880
2.5518322 -0.1104006 2.8976254 524809
1.7202107 -0.073600397 1.9317503 590602
1.7391998 -0.073600397 1.9317503 590089
1.605303 -0.067200363 1.763772 655880
1.5550309 -0.064400353 1.6902815 590600
1.5716465 -0.064400353 1.6902815 721416
1.588262 -0.064400353 1.6902815 655623
1.6048776 -0.064400353 1.6902815 786696
1.6919928 -0.067200363 1.763772 852489
1.6381086 -0.064400353 1.6902815 917766
1.6547242 -0.064400353 1.6902815 1575945
1.6044862 -0.061824337 1.6226703 8673342
1.5581126 -0.05944648 1.5602599 9592643
1.5151742 -0.057244759 1.5024725 9330756
1.4753026 -0.055200301 1.4488127 9659210
1.4895445 -0.055200301 1.4488127 9659210
1.5037863 -0.055200301 1.4488127 9528137
1.5180283 -0.055200301 1.4488127 9462344
1.5322702 -0.055200301 1.4488127 9331785
1.546512 -0.055200301 1.4488127 9593928
1.5607539 -0.055200301 1.4488127 9462858
1.5749959 -0.055200301 1.4488127 9724233
1.5344365 -0.053296842 1.3988537 9528135
1.5481873 -0.053296842 1.3988537 9462344
1.561938 -0.053296842 1.3988537 9133893
1.269305 -0.042933568 1.1268544 9593928
1.280382 -0.042933568 1.1268544 9330500
1.2914591 -0.042933568 1.1268544 9593672
1.3397514 -0.044160243 1.1590502 9659466
1.3511449 -0.044160243 1.1590502 9593673
1.4902763 -0.048300263 1.2677112 9330759
0 0 0 9725261
0 0 0 9397068
0 0 0 9594444
0 0 0 9594445
0 0 0 9397324
0 0 0 9528910
0 0 0 9594188
0 0 0 9791565
0 0 0 9791308
0 0 0 9922897
0 0 0 9922896
0 0 0 9922639
0 0 0 8477249
0 0 0 8608578
-4.4014053 -0.10425776 3.687887 9463626
-4.3651533 -0.10425776 3.687887 10713176
-3.9681594 -0.095569611 3.380563 10778710
-4.7219143 -0.11468355 4.0566759 11172183
-4.6820374 -0.11468355 4.0566759 11172697
-5.1579552 -0.12742616 4.5074177 11106647
-4.6022825 -0.11468355 4.0566759 11368275
-4.5624051 -0.11468355 4.0566759 11500118
-4.1113887 -0.10425776 3.687887 11697242
-4.0751367 -0.10425776 3.687887 11500378
-4.0388846 -0.10425776 3.687887 11369050
-4.0026326 -0.10425776 3.687887 11500891
-3.9663804 -0.10425776 3.687887 11501146
-3.6026175 -0.095569611 3.380563 11697755
-3.8938763 -0.10425776 3.687887 11763548
-3.8576241 -0.10425776 3.687887 12025435
-3.2334688 -0.088218108 3.1205199 12221787
-3.2027938 -0.088218108 3.1205199 11236941
-4.123755 -0.11468355 4.0566759 8474414
-4.0838776 -0.11468355 4.0566759 6766628
-3.6763637 -0.10425776 3.687887 2690049
-3.6401114 -0.10425776 3.687887 1904401
-3.9642456 -0.11468355 4.0566759 1837581
-4.3604093 -0.12742616 4.5074177 2954775
-4.3161011 -0.12742616 4.5074177 3479828
-4.2717929 -0.12742616 4.5074177 3545364
-4.2274847 -0.12742616 4.5074177 3414037
-4.183177 -0.12742616 4.5074177 3348500
-4.1388688 -0.12742616 4.5074177 3348499
-4.0945606 -0.12742616 4.5074177 3348245
-4.5565338 -0.14335443 5.0708447 3545624
-4.5066872 -0.14335443 5.0708447 3480085
-4.4568405 -0.14335443 5.0708447 3479831
-4.4069939 -0.14335443 5.0708447 3676694
-4.3571472 -0.14335443 5.0708447 4005144
-4.3073006 -0.14335443 5.0708447 3480083
-4.2574539 -0.14335443 5.0708447 3610388
-4.2076073 -0.14335443 5.0708447 3615271
-3.6957874 -0.12742616 4.5074177 6438963
-3.6514795 -0.12742616 4.5074177 8213565
-3.6071713 -0.12742616 4.5074177 8738617
-3.5628631 -0.12742616 4.5074177 9133375
-3.9583743 -0.14335443 5.0708447 8672054
-3.9085276 -0.14335443 5.0708447 6699815
-3.858681 -0.14335443 5.0708447 6438189
-3.8088343 -0.14335443 5.0708447 6701103
-4.2959857 -0.16383362 5.7952509 7030320
-4.2390184 -0.16383362 5.7952509 7884853
-4.1820507 -0.16383362 5.7952509 9988166
-4.125083 -0.16383362 5.7952509 10315591
-4.0681157 -0.16383362 5.7952509 10381386
-4.011148 -0.16383362 5.7952509 10447432
-3.9541805 -0.16383362 5.7952509 10448458
-4.5467482 -0.19113922 6.761126 10447690
-4.4802861 -0.19113922 6.761126 10973516
-3.7832778 -0.16383362 5.7952509 10907724
-3.72631 -0.16383362 5.7952509 10973259
-3.6693425 -0.16383362 5.7952509 11170378
-5.0573254 -0.22936709 8.1133518 11433039
-4.9775705 -0.22936709 8.1133518 11826511
-3.0611348 -0.14335443 5.0708447 11432527
-3.0112882 -0.14335443 5.0708447 11433293
-2.9614415 -0.14335443 5.0708447 12023887
-3.3275371 -0.16383362 5.7952509 12220754
-3.2705696 -0.16383362 5.7952509 12024916
-3.2136018 -0.16383362 5.7952509 12287058
-3.1566343 -0.16383362 5.7952509 12287830
-3.0996668 -0.16383362 5.7952509 12025428
-2.6623619 -0.14335443 5.0708447 12156242
-2.6125152 -0.14335443 5.0708447 12353623
-2.5626686 -0.14335443 5.0708447 12550230
-2.5128219 -0.14335443 5.0708447 12288852
-2.8148289 -0.16383362 5.7952509 12682322
-2.7578614 -0.16383362 5.7952509 12747863
-2.7008936 -0.16383362 5.7952509 13009498
-2.6439261 -0.16383362 5.7952509 12747350
-2.5869586 -0.16383362 5.7952509 13207643
-2.9516561 -0.19113922 6.761126 13206102
-2.8851941 -0.19113922 6.761126 13010522
-2.8187318 -0.19113922 6.761126 12878162
-2.7522695 -0.19113922 6.761126 10182462
-2.6858075 -0.19113922 6.761126 11698525
-2.6193452 -0.19113922 6.761126 13470555
-2.5528831 -0.19113922 6.761126 13272147
-2.4864209 -0.19113922 6.761126 13470810
-2.4199588 -0.19113922 6.761126 13404762
-2.0172827 -0.16383362 5.7952509 13667422
-1.7152759 -0.14335443 5.0708447 13930075
-1.6654292 -0.14335443 5.0708447 13863771
-1.6155826 -0.14335443 5.0708447 13733727
-1.7894125 -0.16383362 5.7952509 13535837
0 0 0 13404247
0 0 0 13075541
0 0 0 13404247
0 0 0 13010261
0 0 0 11630413
0 0 0 8807509
0 0 0 8545621
0 0 0 8611674
-0.14414404 -0.018497344 0.65430254 8283218
-0.13771221 -0.018497344 0.65430254 2493451
-0.1356564 -0.019113922 0.67611259 1575181
-0.1311968 -0.019437889 0.68757218 1509644
-0.12658341 -0.019773023 0.69942683 1312526
-0.11970802 -0.019773023 0.69942683 1181451
-0.11283262 -0.019773023 0.69942683 1378059
-0.10595722 -0.019773023 0.69942683 1247501
-0.10448629 -0.020851552 0.73757738 1312267
-0.10090514 -0.021638403 0.76541048 1443853
-0.093381122 -0.021638403 0.76541048 1378060
-0.082735032 -0.020851552 0.73757738 3481633
-0.072836034 -0.02011992 0.71169752 3349276
-0.065840013 -0.02011992 0.71169752 2757399
-0.05782944 -0.019773023 0.69942683 2494224
-0.050090417 -0.019437889 0.68757218 2165262
-0.043331552 -0.019437889 0.68757218 2493712
-0.036572687 -0.019437889 0.68757218 2494222
-0.030327851 -0.019773023 0.69942683 2757395
-0.023452453 -0.019773023 0.69942683 2887954
-0.016577058 -0.019773023 0.69942683 3019024
-0.0098718647 -0.02011992 0.71169752 3150097
-0.0029804225 -0.020851552 0.73757738 3478548
0.0044311285 -0.021638403 0.76541048 3675923
0.011955148 -0.021638403 0.76541048 4069394
0.019479167 -0.021638403 0.76541048 4398359
0.02752248 -0.022054527 0.78012997 4201492
0.035191193 -0.022054527 0.78012997 4398103
0.042859904 -0.022054527 0.78012997 4200985
0.052549761 -0.022936707 0.81133515 4463639
0 0 0 4660501
0 0 0 3478545
0 0 0 786950
0 0 0 1115145
0 0 0 5189412
0 0 0 5516830
0 0 0 4859420
0 0 0 5451039
0 0 0 5516575
0.66152191 -0.11468355 4.0566759 5450782
0.70139921 -0.11468355 4.0566759 5712926
0.7412765 -0.11468355 4.0566759 3939860
0.86794865 -0.12742616 4.5074177 1181452
0.91225678 -0.12742616 4.5074177 1312524
1.0761355 -0.14335443 5.0708447 1246988
1.125982 -0.14335443 5.0708447 1050123
1.1758287 -0.14335443 5.0708447 3153950
1.2256753 -0.14335443 5.0708447 8083009
1.275522 -0.14335443 5.0708447 8214336
1.3253686 -0.14335443 5.0708447 9199431
1.3752153 -0.14335443 5.0708447 9462343
1.4250619 -0.14335443 5.0708447 9922121
1.4749085 -0.14335443 5.0708447 10054477
1.355338 -0.12742616 4.5074177 10580043
1.5746018 -0.14335443 5.0708447 11235664
1.6244484 -0.14335443 5.0708447 11828054
1.6742951 -0.14335443 5.0708447 12616539
1.7241417 -0.14335443 5.0708447 12748125
1.5768785 -0.12742616 4.5074177 12945503
1.6211867 -0.12742616 4.5074177 13273182
1.6654948 -0.12742616 4.5074177 13011552
1.5388227 -0.11468355 4.0566759 13536099
1.5786999 -0.11468355 4.0566759 13536097
1.6185772 -0.11468355 4.0566759 13209184
1.5076859 -0.10425776 3.687887 13340261
1.3064091 -0.088218108 3.1205199 13273442
1.3370839 -0.088218108 3.1205199 13405794
1.4817386 -0.095569611 3.380563 13142880
1.5149697 -0.095569611 3.380563 13340002
1.4291085 -0.088218108 3.1205199 12880478
1.2651454 -0.07645569 2.7044504 13273692
1.2917304 -0.07645569 2.7044504 12682329
1.3183153 -0.07645569 2.7044504 13076573
1.4409643 -0.081916809 2.8976254 12878682
1.4694482 -0.081916809 2.8976254 12813656
1.3980699 -0.07645569 2.7044504 12748638
1.4246547 -0.07645569 2.7044504 12486238
1.4512396 -0.07645569 2.7044504 12616023
1.4778244 -0.07645569 2.7044504 4200980
1.5044093 -0.07645569 2.7044504 1575438
1.5309942 -0.07645569 2.7044504 1312265
1.3743345 -0.067460902 2.3862798 1444107
1.3977917 -0.067460902 2.3862798 1378316
1.3422908 -0.063713081 2.2537088 1378316
1.3644449 -0.063713081 2.2537088 1247500
1.3865988 -0.063713081 2.2537088 1312523
1.4087529 -0.063713081 2.2537088 721157
1.3555961 -0.060359757 2.1350925 655622
1.3765841 -0.060359757 2.1350925 852743
1.5619924 -0.067460902 2.3862798 721160
1.5854496 -0.067460902 2.3862798 656134
1.6089069 -0.067460902 2.3862798 590087
1.4605364 -0.060359757 2.1350925 524294
1.4815243 -0.060359757 2.1350925 720905
1.4273869 -0.057341773 2.028338 720904
1.4473255 -0.057341773 2.028338 655882
1.4672642 -0.057341773 2.028338 721159
1.4163835 -0.054611206 1.9317503 720903
1.5071415 -0.057341773 2.028338 852489
1.4543619 -0.054611206 1.9317503 721673
1.4733511 -0.054611206 1.9317503 655880
1.4923403 -0.054611206 1.9317503 655882
1.5113295 -0.054611206 1.9317503 655880
1.5303187 -0.054611206 1.9317503 524294
1.5493079 -0.054611206 1.9317503 590089
1.568297 -0.054611206 1.9317503 655882
1.5872862 -0.054611206 1.9317503 656138
1.6062754 -0.054611206 1.9317503 590089
1.7963452 -0.060359757 2.1350925 590087
1.8173332 -0.060359757 2.1350925 524809
2.4948645 -0.081916809 2.8976254 721417
2.7174523 -0.088218108 3.1205199 655880
2.748127 -0.088218108 3.1205199 524808
3.0103686 -0.095569611 3.380563 655623
3.0435996 -0.095569611 3.380563 721158
1.605303 -0.049862407 1.763772 852232
1.5550309 -0.047784805 1.6902815 852743
1.5716465 -0.047784805 1.6902815 786951
1.588262 -0.047784805 1.6902815 852744
1.6048776 -0.047784805 1.6902815 721671
1.7689016 -0.052128881 1.8439435 852230
1.7093308 -0.049862407 1.763772 852743
1.6547242 -0.047784805 1.6902815 1707531
1.6044862 -0.045873415 1.6226703 8475450
1.6204371 -0.045873415 1.6226703 9264963
1.5151742 -0.042475387 1.5024725 9592902
1.5299435 -0.042475387 1.5024725 9265222
1.4895445 -0.040958405 1.4488127 9462344
1.5037863 -0.040958405 1.4488127 9133893
1.5180283 -0.040958405 1.4488127 9331015
1.5322702 -0.040958405 1.4488127 9396551
1.546512 -0.040958405 1.4488127 9461829
1.5607539 -0.040958405 1.4488127 9264711
1.5749959 -0.040958405 1.4488127 9330758
1.5892377 -0.040958405 1.4488127 9593930
1.5481873 -0.039546046 1.3988537 9462342
1.561938 -0.039546046 1.3988537 9265479
1.3846962 -0.034752585 1.2292956 9593415
1.280382 -0.031856541 1.1268544 9397067
1.3283578 -0.032766726 1.1590502 9199687
1.3397514 -0.032766726 1.1590502 9593929
1.3908844 -0.033730451 1.1931399 9725258
1.4902763 -0.035838608 1.2677112 9397322
0 0 0 9791309
0 0 0 9725514
0 0 0 9659469
0 0 0 9594190
0 0 0 9593931
0 0 0 9659468
0 0 0 9856335
0 0 0 9856589
0 0 0 9660237
0 0 0 9528397
0 0 0 9725776
0 0 0 9462605
0 0 0 8870980
0 0 0 9265481
-4.4014053 -0.068005666 3.687887 9397065
-4.3651533 -0.068005666 3.687887 10843993
-4.7617917 -0.074806236 4.0566759 11236950
-4.7219143 -0.074806236 4.0566759 11630679
-4.6820374 -0.074806236 4.0566759 11302484
-4.6421599 -0.074806236 4.0566759 11368536
-4.6022825 -0.074806236 4.0566759 11172181
-4.5624051 -0.074806236 4.0566759 11631449
-4.1113887 -0.068005666 3.687887 11302742
-4.0751367 -0.068005666 3.687887 11631708
-4.0388846 -0.068005666 3.687887 11565915
-4.4028959 -0.074806236 4.0566759 11698012
-3.9663804 -0.068005666 3.687887 11566938
-3.6026175 -0.062338527 3.380563 11435354
-3.5693865 -0.062338527 3.380563 11501405
-3.5361555 -0.062338527 3.380563 11829341
-3.2334688 -0.057543259 3.1205199 12025176
-3.2027938 -0.057543259 3.1205199 11499341
-4.123755 -0.074806236 4.0566759 8672817
-4.0838776 -0.074806236 4.0566759 7094308
-3.6763637 -0.068005666 3.687887 2689792
-3.6401114 -0.068005666 3.687887 1773070
-3.9642456 -0.074806236 4.0566759 1772045
-3.9243684 -0.074806236 4.0566759 3218203
-4.3161011 -0.083118044 4.5074177 4005144
-4.2717929 -0.083118044 4.5074177 3939864
-4.2274847 -0.083118044 4.5074177 3874328
-4.183177 -0.083118044 4.5074177 4005399
-4.1388688 -0.083118044 4.5074177 4005910
-4.0945606 -0.083118044 4.5074177 3808789
-4.5565338 -0.093507797 5.0708447 3742743
-4.5066872 -0.093507797 5.0708447 4005656
-4.4568405 -0.093507797 5.0708447 4005398
-4.4069939 -0.093507797 5.0708447 4005398
-4.3571472 -0.093507797 5.0708447 3874070
-4.3073006 -0.093507797 5.0708447 4005401
-4.2574539 -0.093507797 5.0708447 3873302
-3.7400956 -0.083118044 4.5074177 3220512
-3.6957874 -0.083118044 4.5074177 5912620
-4.107914 -0.093507797 5.0708447 6372651
-4.0580673 -0.093507797 5.0708447 7950390
-4.0082207 -0.093507797 5.0708447 7884593
-3.9583743 -0.093507797 5.0708447 5779479
-3.9085276 -0.093507797 5.0708447 1376518
-3.858681 -0.093507797 5.0708447 918536
-3.8088343 -0.093507797 5.0708447 1049609
-3.7589877 -0.093507797 5.0708447 1180681
-3.709141 -0.093507797 5.0708447 2625818
-3.6592944 -0.093507797 5.0708447 9132875
-4.125083 -0.10686605 5.7952509 9789760
-4.0681157 -0.10686605 5.7952509 9658943
-4.011148 -0.10686605 5.7952509 9855551
-3.9541805 -0.10686605 5.7952509 9856067
-4.5467482 -0.12467705 6.761126 9790274
-4.4802861 -0.12467705 6.761126 10381639
-3.7832778 -0.10686605 5.7952509 10316618
-3.72631 -0.10686605 5.7952509 10710090
-3.6693425 -0.10686605 5.7952509 10841161
-4.2144375 -0.12467705 6.761126 10842446
-4.1479754 -0.12467705 6.761126 10974032
-3.4984398 -0.10686605 5.7952509 11433039
-3.0112882 -0.093507797 5.0708447 11892304
-2.9614415 -0.093507797 5.0708447 11499084
-2.9115949 -0.093507797 5.0708447 11499341
-2.8617485 -0.093507797 5.0708447 11630159
-2.8119018 -0.093507797 5.0708447 11696465
-3.1566343 -0.10686605 5.7952509 11827279
-3.0996668 -0.10686605 5.7952509 11827793
-3.5498157 -0.12467705 6.761126 12155726
-2.9857316 -0.10686605 5.7952509 12353360
-2.5626686 -0.093507797 5.0708447 12352592
-2.8717964 -0.10686605 5.7952509 12287058
-2.8148289 -0.10686605 5.7952509 12944471
-2.7578614 -0.10686605 5.7952509 13075543
-2.7008936 -0.10686605 5.7952509 12288852
-2.6439261 -0.10686605 5.7952509 12616276
-2.5869586 -0.10686605 5.7952509 12878935
-2.9516561 -0.12467705 6.761126 12814678
-3.4622331 -0.14961247 8.1133518 12747348
-2.8187318 -0.12467705 6.761126 12483661
-2.7522695 -0.12467705 6.761126 8738619
-2.6858075 -0.12467705 6.761126 10646868
-2.6193452 -0.12467705 6.761126 12550484
-2.5528831 -0.12467705 6.761126 13404762
-2.4864209 -0.12467705 6.761126 13272661
-2.0742505 -0.10686605 5.7952509 12154956
-2.0172827 -0.10686605 5.7952509 11893840
-1.7152759 -0.093507797 5.0708447 11959635
-1.6654292 -0.093507797 5.0708447 12354643
-1.6155826 -0.093507797 5.0708447 11499083
-1.7894125 -0.10686605 5.7952509 13338715
0 0 0 12286800
0 0 0 11105098
0 0 0 13207129
0 0 0 12879191
0 0 0 11564106
0 0 0 8676178
0 0 0 8479314
-0.16378428 -0.013123902 0.71169752 8347989
-0.14894883 -0.012467706 0.67611259 2822154
-0.1472096 -0.012897626 0.69942683 1312524
-0.1403342 -0.012897626 0.69942683 1312524
-0.1311968 -0.012679024 0.68757218 1115402
-0.12443794 -0.012679024 0.68757218 1115915
-0.11970802 -0.012897626 0.69942683 1050122
-0.11283262 -0.012897626 0.69942683 1312525
-0.11173671 -0.013601133 0.73757738 1247244
-0.10842916 -0.014114384 0.76541048 1246731
0 0 0 984073
0 0 0 1444622
-0.085857108 -0.014114384 0.76541048 2297875
-0.076882474 -0.013853007 0.75123626 3677213
-0.069497794 -0.013853007 0.75123626 2626325
-0.058843996 -0.013123902 0.71169752 2166033
-0.051847976 -0.013123902 0.71169752 2165518
-0.044851959 -0.013123902 0.71169752 2362639
-0.037855938 -0.013123902 0.71169752 2560275
-0.030859921 -0.013123902 0.71169752 2822676
-0.023863902 -0.013123902 0.71169752 2822160
-0.016867884 -0.013123902 0.71169752 2625551
-0.010230841 -0.013601133 0.73757738 3150610
-0.0030356157 -0.013853007 0.75123626 3412754
0.0044311285 -0.014114384 0.76541048 3675668
0.011955148 -0.014114384 0.76541048 3938324
0.019853767 -0.014385815 0.78012997 4134934
0.02752248 -0.014385815 0.78012997 4069397
0.035191193 -0.014385815 0.78012997 4266774
0.042859904 -0.014385815 0.78012997 4332826
0 0 0 4201240
0 0 0 4332823
0 0 0 2164742
0 0 0 720903
0 0 0 918537
0 0 0 1245961
0 0 0 3216658
0 0 0 4662813
0 0 0 5647648
0 0 0 5384218
0.55126822 -0.062338527 3.380563 5318940
0.63763559 -0.068005666 3.687887 5450524
0.67388767 -0.068005666 3.687887 4070932
0.7811538 -0.074806236 4.0566759 1181194
0.91225678 -0.083118044 4.5074177 1246473
0.9565649 -0.083118044 4.5074177 1181707
1.000873 -0.083118044 4.5074177 984585
1.0451812 -0.083118044 4.5074177 3218972
1.0894892 -0.083118044 4.5074177 7753787
1.275522 -0.093507797 5.0708447 7884861
1.3253686 -0.093507797 5.0708447 8870979
1.3752153 -0.093507797 5.0708447 9264967
1.4250619 -0.093507797 5.0708447 9528133
1.4749085 -0.093507797 5.0708447 9725000
1.355338 -0.083118044 4.5074177 10119499
1.399646 -0.083118044 4.5074177 10842192
1.6244484 -0.093507797 5.0708447 11696468
1.6742951 -0.093507797 5.0708447 12418391
1.9704475 -0.10686605 5.7952509 12944991
1.7739882 -0.093507797 5.0708447 12747868
1.6211867 -0.083118044 4.5074177 13076317
1.6654948 -0.083118044 4.5074177 13141598
1.5388227 -0.074806236 4.0566759 13076831
1.5786999 -0.074806236 4.0566759 13470044
1.6185772 -0.074806236 4.0566759 13339487
1.6584545 -0.074806236 4.0566759 13470816
1.4152764 -0.062338527 3.380563 13207644
1.4485075 -0.062338527 3.380563 13274465
1.4817386 -0.062338527 3.380563 12945503
1.5149697 -0.062338527 3.380563 13011293
1.3270292 -0.053433023 2.8976254 12945758
1.2651454 -0.049870823 2.7044504 13076573
1.2917304 -0.049870823 2.7044504 12552544
1.4124806 -0.053433023 2.8976254 12814431
1.4409643 -0.053433023 2.8976254 12945242
1.371485 -0.049870823 2.7044504 12485724
1.3980699 -0.049870823 2.7044504 12551517
1.4246547 -0.049870823 2.7044504 12615767
1.4512396 -0.049870823 2.7044504 12485207
1.4778244 -0.049870823 2.7044504 4134674
1.4103838 -0.046753898 2.5354223 1443852
1.5309942 -0.049870823 2.7044504 1181450
1.3743345 -0.044003665 2.3862798 1378059
1.3201367 -0.041559022 2.2537088 1312523
1.2716439 -0.039371703 2.1350925 1378059
1.2926319 -0.039371703 2.1350925 1443853
1.3865988 -0.041559022 2.2537088 1443852
1.4087529 -0.041559022 2.2537088 524550
1.430907 -0.041559022 2.2537088 655365
1.3765841 -0.039371703 2.1350925 852489
1.5619924 -0.044003665 2.3862798 721674
1.5854496 -0.044003665 2.3862798 655880
1.6089069 -0.044003665 2.3862798 721417
1.4605364 -0.039371703 2.1350925 590087
1.4815243 -0.039371703 2.1350925 590087
1.4273869 -0.037403118 2.028338 655879
1.3157504 -0.034002833 1.8439435 655880
1.3338765 -0.034002833 1.8439435 589831
1.3520025 -0.034002833 1.8439435 721157
1.5071415 -0.037403118 2.028338 721157
1.4543619 -0.035622016 1.9317503 721673
1.4063807 -0.034002833 1.8439435 720905
1.4245067 -0.034002833 1.8439435 590089
1.5113295 -0.035622016 1.9317503 655624
1.5303187 -0.035622016 1.9317503 590087
1.5493079 -0.035622016 1.9317503 590087
1.4319234 -0.032524448 1.763772 590087
1.4492614 -0.032524448 1.763772 656137
1.533263 -0.034002833 1.8439435 524807
1.7963452 -0.039371703 2.1350925 656134
2.0311372 -0.044003665 2.3862798 656647
2.4948645 -0.053433023 2.8976254 589831
2.7174523 -0.057543259 3.1205199 720903
2.748127 -0.057543259 3.1205199 590087
3.0103686 -0.062338527 3.380563 656134
2.6087997 -0.053433023 2.8976254 786698
1.605303 -0.032524448 1.763772 917768
1.5550309 -0.031169264 1.6902815 721158
1.5716465 -0.031169264 1.6902815 721418
1.588262 -0.031169264 1.6902815 786696
1.6048776 -0.031169264 1.6902815 720903
1.6919928 -0.032524448 1.763772 852743
1.7093308 -0.032524448 1.763772 851973
1.5885353 -0.029922495 1.6226703 1575946
1.6044862 -0.029922495 1.6226703 8409918
1.6204371 -0.029922495 1.6226703 9133377
1.6363881 -0.029922495 1.6226703 9264965
1.5299435 -0.027706014 1.5024725 9264965
1.4895445 -0.026716512 1.4488127 9069127
1.5037863 -0.026716512 1.4488127 9002050
1.5180283 -0.026716512 1.4488127 9199170
1.5322702 -0.026716512 1.4488127 9002821
1.546512 -0.026716512 1.4488127 9462088
1.5069349 -0.025795253 1.3988537 9003081
1.5749959 -0.026716512 1.4488127 8937286
1.5892377 -0.026716512 1.4488127 9068100
1.5481873 -0.025795253 1.3988537 9199432
1.5098734 -0.024935411 1.3522252 9265222
1.3846962 -0.022668555 1.2292956 9331014
1.3967803 -0.022668555 1.2292956 9133893
1.3283578 -0.02137321 1.1590502 9396809
1.3791558 -0.022001833 1.1931399 9396808
1.3908844 -0.022001833 1.1931399 9528391
1.4902763 -0.023376949 1.2677112 9725000
1.502738 -0.023376949 1.2677112 9528394
0 0 0 9462601
0 0 0 9396812
0 0 0 9528139
0 0 0 9725517
0 0 0 9528395
0 0 0 9659983
0 0 0 9856847
0 0 0 9988430
0 0 0 9922380
0 0 0 9659212
0 0 0 9791054
0 0 0 8804932
0 0 0 8936261
-4.4014053 -0.031753574 3.687887 9068102
-4.3651533 -0.031753574 3.687887 10581080
-4.3289013 -0.031753574 3.687887 11171928
-4.2926493 -0.031753574 3.687887 11368535
-4.2563972 -0.031753574 3.687887 11302487
-4.6421599 -0.034928933 4.0566759 11236952
-4.6022825 -0.034928933 4.0566759 11171671
-4.1476407 -0.031753574 3.687887 11106136
-4.1113887 -0.031753574 3.687887 11434329
-4.0751367 -0.031753574 3.687887 11368534
-4.0388846 -0.031753574 3.687887 11697499
-4.0026326 -0.031753574 3.687887 11565913
-3.9663804 -0.031753574 3.687887 11631706
-3.6026175 -0.02910744 3.380563 11828315
-3.2948184 -0.026868409 3.1205199 11696728
-3.2641437 -0.026868409 3.1205199 11566168
-3.2334688 -0.026868409 3.1205199 11762261
-3.2027938 -0.026868409 3.1205199 11367758
-4.123755 -0.034928933 4.0566759 8869168
-4.0838776 -0.034928933 4.0566759 6962720
-3.6763637 -0.031753574 3.687887 2689536
-3.6401114 -0.031753574 3.687887 1444109
-3.6038594 -0.031753574 3.687887 1640975
-3.9243684 -0.034928933 4.0566759 3218203
-3.884491 -0.034928933 4.0566759 3741971
-4.2717929 -0.038809925 4.5074177 4004628
-4.7559204 -0.043661162 5.0708447 4070934
-4.7060738 -0.043661162 5.0708447 3874328
-4.1388688 -0.038809925 4.5074177 3546131
-4.0945606 -0.038809925 4.5074177 3677201
-4.0502524 -0.038809925 4.5074177 3874582
-4.5066872 -0.043661162 5.0708447 4136984
-3.9616363 -0.038809925 4.5074177 4333078
-3.9173281 -0.038809925 4.5074177 4333592
-4.3571472 -0.043661162 5.0708447 4333589
-4.3073006 -0.043661162 5.0708447 4202777
-3.7844038 -0.038809925 4.5074177 4069908
-3.7400956 -0.038809925 4.5074177 2957339
-3.6957874 -0.038809925 4.5074177 5255722
-3.6514795 -0.038809925 4.5074177 5583140
-4.0580673 -0.043661162 5.0708447 5978666
-4.0082207 -0.043661162 5.0708447 6963501
-3.9583743 -0.043661162 5.0708447 4531217
-3.9085276 -0.043661162 5.0708447 1114885
-3.858681 -0.043661162 5.0708447 1049352
-3.8088343 -0.043661162 5.0708447 1049351
-3.7589877 -0.043661162 5.0708447 984330
-3.709141 -0.043661162 5.0708447 1772821
-3.6592944 -0.043661162 5.0708447 8475722
-3.6094477 -0.043661162 5.0708447 8738875
-4.0681157 -0.049898472 5.7952509 7619877
-4.011148 -0.049898472 5.7952509 6238234
-3.9541805 -0.049898472 5.7952509 5845024
-3.8972127 -0.049898472 5.7952509 5582368
-4.4802861 -0.058214881 6.761126 5582622
-3.7832778 -0.049898472 5.7952509 5779231
-3.72631 -0.049898472 5.7952509 5844253
-3.6693425 -0.049898472 5.7952509 5713954
-4.2144375 -0.058214881 6.761126 5976097
-4.1479754 -0.058214881 6.761126 7159589
-3.0611348 -0.043661162 5.0708447 10973773
-3.0112882 -0.043661162 5.0708447 11563855
-2.9614415 -0.043661162 5.0708447 11171405
-2.9115949 -0.043661162 5.0708447 11629902
-2.8617485 -0.043661162 5.0708447 11367500
-2.8119018 -0.043661162 5.0708447 11433039
-3.1566343 -0.049898472 5.7952509 11367500
-3.0996668 -0.049898472 5.7952509 11696719
-3.5498157 -0.058214881 6.761126 12089679
-3.4833536 -0.058214881 6.761126 12090192
-2.9287641 -0.049898472 5.7952509 12155472
-2.8717964 -0.049898472 5.7952509 11894099
-2.8148289 -0.049898472 5.7952509 12483921
-2.7578614 -0.049898472 5.7952509 12747350
-2.7008936 -0.049898472 5.7952509 12747096
-2.6439261 -0.049898472 5.7952509 12812373
-3.0181184 -0.058214881 6.761126 12747094
-2.9516561 -0.058214881 6.761126 12485207
-3.4622331 -0.069857866 8.1133518 12812119
-2.8187318 -0.058214881 6.761126 12221010
-2.7522695 -0.058214881 6.761126 7686191
-2.6858075 -0.058214881 6.761126 10711894
-2.6193452 -0.058214881 6.761126 12681809
-2.5528831 -0.058214881 6.761126 12748633
-2.131218 -0.049898472 5.7952509 11235399
-2.0742505 -0.049898472 5.7952509 11038282
-1.7651225 -0.043661162 5.0708447 10907208
-1.7152759 -0.043661162 5.0708447 11235917
-1.6654292 -0.043661162 5.0708447 11565136
-1.6155826 -0.043661162 5.0708447 12024656
-1.7894125 -0.049898472 5.7952509 11762256
-1.7324449 -0.049898472 5.7952509 11564364
-1.9547236 -0.058214881 6.761126 12221776
0 0 0 13207128
0 0 0 12747606
0 0 0 11695174
0 0 0 8807249
-0.18366936 -0.006590364 0.76541048 8741715
-0.16378428 -0.0061278827 0.71169752 4335639
-0.15678826 -0.0061278827 0.71169752 1312265
-0.14979224 -0.0061278827 0.71169752 1312523
-0.1479888 -0.0063507142 0.73757738 1181197
-0.1358002 -0.0061278827 0.71169752 1247244
-0.12658341 -0.0060222293 0.69942683 1312781
-0.11970802 -0.0060222293 0.69942683 1115915
-0.11898712 -0.0063507142 0.73757738 1181454
-0.11595318 -0.006590364 0.76541048 1181708
-0.10842916 -0.006590364 0.76541048 1180938
-0.10284563 -0.0067171021 0.78012997 1181195
-0.09517692 -0.0067171021 0.78012997 1378317
-0.085857108 -0.006590364 0.76541048 984072
-0.078333087 -0.006590364 0.76541048 3677982
-0.070809066 -0.006590364 0.76541048 3217688
-0.062113106 -0.0064683203 0.75123626 2757397
-0.05277383 -0.006237309 0.72440636 2626327
-0.045652881 -0.006237309 0.72440636 2626326
-0.038531937 -0.006237309 0.72440636 2954518
-0.030859921 -0.0061278827 0.71169752 2888467
-0.023863902 -0.0061278827 0.71169752 2887954
-0.017169096 -0.006237309 0.72440636 3019283
-0.010230841 -0.0063507142 0.73757738 3085331
-0.0030356157 -0.0064683203 0.75123626 3282194
0.0044311285 -0.006590364 0.76541048 3675670
0.011955148 -0.006590364 0.76541048 3741461
0.019479167 -0.006590364 0.76541048 4135191
0.02752248 -0.0067171021 0.78012997 4004376
0.035191193 -0.0067171021 0.78012997 4332826
0.042859904 -0.0067171021 0.78012997 4332822
0.050528619 -0.0067171021 0.78012997 4267032
0 0 0 3413523
0 0 0 918024
0 0 0 721160
0 0 0 721671
0 0 0 786696
0 0 0 852489
0 0 0 1509645
0 0 0 3677207
0.62164456 -0.034928933 4.0566759 5384990
0.55126822 -0.02910744 3.380563 5712669
0.63763559 -0.031753574 3.687887 5516319
0.67388767 -0.031753574 3.687887 3808533
0.71013975 -0.031753574 3.687887 984329
0.82103109 -0.034928933 4.0566759 983816
0.9565649 -0.038809925 4.5074177 1115658
1.000873 -0.038809925 4.5074177 1181451
1.0451812 -0.038809925 4.5074177 2824729
1.0894892 -0.038809925 4.5074177 5847854
1.1337974 -0.038809925 4.5074177 5650219
1.3253686 -0.043661162 5.0708447 6241323
1.3752153 -0.043661162 5.0708447 7621948
1.4250619 -0.043661162 5.0708447 8936769
1.4749085 -0.043661162 5.0708447 8872007
1.355338 -0.038809925 4.5074177 9658694
1.399646 -0.038809925 4.5074177 10972495
1.6244484 -0.043661162 5.0708447 11696469
1.91348 -0.049898472 5.7952509 12156245
1.9704475 -0.049898472 5.7952509 12682075
2.027415 -0.049898472 5.7952509 13011295
1.8238349 -0.043661162 5.0708447 12945503
1.6654948 -0.038809925 4.5074177 12945245
1.5388227 -0.034928933 4.0566759 13207903
1.5786999 -0.034928933 4.0566759 13535581
1.6185772 -0.034928933 4.0566759 13405023
1.6584545 -0.034928933 4.0566759 13207902
1.5439379 -0.031753574 3.687887 13535841
1.4485075 -0.02910744 3.380563 12945246
1.4817386 -0.02910744 3.380563 13142110
1.5149697 -0.02910744 3.380563 13142109
1.4291085 -0.026868409 3.1205199 13076574
1.2651454 -0.023285951 2.7044504 12748382
1.3839968 -0.024949236 2.8976254 13076575
1.4124806 -0.024949236 2.8976254 12944733
1.4409643 -0.024949236 2.8976254 13010525
1.371485 -0.023285951 2.7044504 12814174
1.3980699 -0.023285951 2.7044504 12420188
1.4246547 -0.023285951 2.7044504 12288600
1.4512396 -0.023285951 2.7044504 12157016
1.4778244 -0.023285951 2.7044504 4135189
1.32742 -0.020546429 2.3862798 918025
1.2758286 -0.019404963 2.2537088 1115145
1.2979827 -0.019404963 2.2537088 1312523
1.2506558 -0.018383648 2.1350925 1247243
1.2716439 -0.018383648 2.1350925 1181451
1.2926319 -0.018383648 2.1350925 1378316
1.3865988 -0.019404963 2.2537088 1312523
1.4087529 -0.019404963 2.2537088 590341
1.430907 -0.019404963 2.2537088 655365
1.3765841 -0.018383648 2.1350925 656137
1.3975722 -0.018383648 2.1350925 655624
1.5854496 -0.020546429 2.3862798 656137
1.6089069 -0.020546429 2.3862798 590344
1.3875096 -0.017464466 2.028338 589835
1.4074482 -0.017464466 2.028338 655628
1.4273869 -0.017464466 2.028338 655368
1.3157504 -0.015876787 1.8439435 590089
1.2758818 -0.01518649 1.763772 590089
1.2932198 -0.01518649 1.763772 590087
1.3701285 -0.015876787 1.8439435 655364
1.3882545 -0.015876787 1.8439435 721416
1.4063807 -0.015876787 1.8439435 459015
1.4245067 -0.015876787 1.8439435 655882
1.4426327 -0.015876787 1.8439435 590602
1.4607588 -0.015876787 1.8439435 524809
1.4788848 -0.015876787 1.8439435 655628
1.4319234 -0.01518649 1.763772 917512
1.515137 -0.015876787 1.8439435 786696
1.533263 -0.015876787 1.8439435 524294
1.6252646 -0.016632823 1.9317503 786696
1.9182963 -0.019404963 2.2537088 787466
2.4948645 -0.024949236 2.8976254 721159
2.7174523 -0.026868409 3.1205199 589830
2.5518322 -0.024949236 2.8976254 590087
1.8062212 -0.017464466 2.028338 786698
1.5217998 -0.01455372 1.6902815 786698
1.5384154 -0.01455372 1.6902815 655882
1.5550309 -0.01455372 1.6902815 655880
1.5087806 -0.013971572 1.6226703 656136
1.5247315 -0.013971572 1.6226703 786953
1.6048776 -0.01455372 1.6902815 590087
1.6214931 -0.01455372 1.6902815 786950
1.5725844 -0.013971572 1.6226703 852743
1.5885353 -0.013971572 1.6226703 1641738
1.6044862 -0.013971572 1.6226703 7951168
1.6204371 -0.013971572 1.6226703 8870721
1.7045708 -0.01455372 1.6902815 8936514
1.5887874 -0.013434204 1.5602599 9133377
1.5447129 -0.012936641 1.5024725 9330243
1.5037863 -0.012474618 1.4488127 8936260
1.5180283 -0.012474618 1.4488127 9134152
1.5322702 -0.012474618 1.4488127 8936262
1.4931841 -0.012044459 1.3988537 9002568
1.5069349 -0.012044459 1.3988537 9198918
1.5749959 -0.012474618 1.4488127 9067846
1.5892377 -0.012474618 1.4488127 9067846
1.6034796 -0.012474618 1.4488127 9264965
1.5098734 -0.011642976 1.3522252 9068613
1.3846962 -0.010584524 1.2292956 9199432
1.3967803 -0.010584524 1.2292956 9331272
1.4088643 -0.010584524 1.2292956 9330502
1.3791558 -0.010273214 1.1931399 9265222
1.4778147 -0.010915291 1.2677112 9265736
1.4902763 -0.010915291 1.2677112 9527883
1.5512134 -0.011267397 1.3086051 9528397
0 0 0 9658958
0 0 0 9593676
0 0 0 9593930
0 0 0 9331530
0 0 0 9463117
0 0 0 9660240
0 0 0 10184530
0 0 0 9791055
0 0 0 9725516
0 0 0 9659980
0 0 0 9594444
0 0 0 8475963
0 0 0 8804158
-3.7242663 0.0038064423 3.1205199 9133636
-4.3651533 0.0044985223 3.687887 10384215
-4.7617917 0.0049483748 4.0566759 10909786
-4.2926493 0.0044985223 3.687887 11302232
-4.2563972 0.0044985223 3.687887 11105112
-4.2201452 0.0044985223 3.687887 11171159
-4.1838932 0.0044985223 3.687887 11302745
-4.1476407 0.0044985223 3.687887 11303515
-4.1113887 0.0044985223 3.687887 11171926
-4.0751367 0.0044985223 3.687887 11237976
-4.0388846 0.0044985223 3.687887 11500635
-4.0026326 0.0044985223 3.687887 11368792
-3.9663804 0.0044985223 3.687887 11566171
-3.6026175 0.0041236454 3.380563 11762519
-3.2948184 0.0038064423 3.1205199 11631958
-3.0309904 0.0035345533 2.8976254 11696470
-3.2334688 0.0038064423 3.1205199 11498839
-3.2027938 0.0038064423 3.1205199 11039308
-4.123755 0.0049483748 4.0566759 8999727
-4.0838776 0.0049483748 4.0566759 7028513
-3.6763637 0.0044985223 3.687887 2427136
-3.6401114 0.0044985223 3.687887 1444109
-3.6038594 0.0044985223 3.687887 1706253
-3.9243684 0.0049483748 4.0566759 3218971
-3.5313554 0.0044985223 3.687887 3940377
-3.8446138 0.0049483748 4.0566759 4006423
-4.7559204 0.0061854683 5.0708447 4071446
-4.7060738 0.0061854683 5.0708447 3940120
-4.1388688 0.0054981946 4.5074177 4071191
-4.0945606 0.0054981946 4.5074177 4071189
-4.0502524 0.0054981946 4.5074177 4071191
-4.0059443 0.0054981946 4.5074177 4136730
-3.9616363 0.0054981946 4.5074177 4202523
-3.9173281 0.0054981946 4.5074177 4202266
-3.8730199 0.0054981946 4.5074177 4202007
-3.8287117 0.0054981946 4.5074177 4202777
-3.4059634 0.0049483748 4.0566759 3873558
-3.366086 0.0049483748 4.0566759 2694169
-3.3262088 0.0049483748 4.0566759 4598822
-3.6514795 0.0054981946 4.5074177 4073247
-3.6071713 0.0054981946 4.5074177 4072220
-4.0082207 0.0061854683 5.0708447 5320225
-3.9583743 0.0061854683 5.0708447 3676942
-3.9085276 0.0061854683 5.0708447 1114629
-3.858681 0.0061854683 5.0708447 918282
-4.3529534 0.0070691067 5.7952509 1115145
-3.7589877 0.0061854683 5.0708447 853259
-3.709141 0.0061854683 5.0708447 1641235
-3.6592944 0.0061854683 5.0708447 6701114
-3.6094477 0.0061854683 5.0708447 7752756
-4.0681157 0.0070691067 5.7952509 5514777
-3.5097547 0.0061854683 5.0708447 1312522
-3.9541805 0.0070691067 5.7952509 1378317
-3.8972127 0.0070691067 5.7952509 1378060
-3.8402452 0.0070691067 5.7952509 1378059
-3.3103681 0.0061854683 5.0708447 1378316
-3.2605214 0.0061854683 5.0708447 1246987
-3.2106748 0.0061854683 5.0708447 1378316
-3.612375 0.0070691067 5.7952509 1443855
-3.1109815 0.0061854683 5.0708447 2562334
-3.4984398 0.0070691067 5.7952509 10250579
-3.0112882 0.0061854683 5.0708447 10906952
-3.3845046 0.0070691067 5.7952509 11039051
-3.3275371 0.0070691067 5.7952509 10710860
-3.2705696 0.0070691067 5.7952509 11039054
-3.2136018 0.0070691067 5.7952509 11037513
-3.1566343 0.0070691067 5.7952509 11039308
-3.0996668 0.0070691067 5.7952509 11366986
-3.0426991 0.0070691067 5.7952509 11826509
-3.4833536 0.0082472907 6.761126 11827535
-3.4168913 0.0082472907 6.761126 12024656
-3.3504291 0.0082472907 6.761126 12155474
