# .PCD v0.7 - Point Cloud Data file format
VERSION 0.7
FIELDS x y z rgb
SIZE 4 4 4 4
TYPE F F F U
COUNT 1 1 1 1
WIDTH 1309
HEIGHT 1
VIEWPOINT 0 0 0 1 0 0 0
POINTS 1309
DATA ascii
0.44647866 0.4801771 1.3522252 12074533
0.47562528 0.49673492 1.3988537 12139811
0.48937607 0.49673492 1.3988537 12270371
0.50312686 0.49673492 1.3988537 11942693
0.51687765 0.49673492 1.3988537 12205090
0.53062844 0.49673492 1.3988537 12270886
0.54437923 0.49673492 1.3988537 11943462
0.53952569 0.4801771 1.3522252 11813417
0.50256193 0.43652463 1.2292956 11878181
0.51464599 0.43652463 1.2292956 12074533
0.51123798 0.4236857 1.1931399 12141095
0.52296656 0.4236857 1.1931399 12140326
0.51941818 0.41158038 1.1590502 11943464
0.51606697 0.40014762 1.1268544 11811621
0.52714401 0.40014762 1.1268544 11877156
0.538221 0.40014762 1.1268544 11746082
0.54929805 0.40014762 1.1268544 11811621
0.56037509 0.40014762 1.1268544 12139560
0.57145214 0.40014762 1.1268544 11615526
0.58252913 0.40014762 1.1268544 11680550
0.62852412 0.4236857 1.1931399 11746600
0.64025277 0.4236857 1.1931399 11681318
0.73891222 0.4801771 1.3522252 11811621
0.75220466 0.4801771 1.3522252 11943207
0.76549709 0.4801771 1.3522252 11483684
0.80564433 0.49673492 1.3988537 11418405
0.84865928 0.51447546 1.4488127 11614499
0.96644932 0.57621253 1.6226703 11615009
0.98240024 0.57621253 1.6226703 11614242
0.99835116 0.57621253 1.6226703 11615527
1.1025022 0.62631798 1.763772 11614755
1.1198401 0.62631798 1.763772 11483684
1.188868 0.65478694 1.8439435 11286564
1.2069941 0.65478694 1.8439435 11220771
1.2251202 0.65478694 1.8439435 11222054
1.2432462 0.65478694 1.8439435 11221540
1.3214376 0.68596727 1.9317503 11221283
1.2238679 0.62631798 1.763772 11352355
1.2412059 0.62631798 1.763772 11024421
1.2061045 0.6002214 1.6902815 10499876
1.2758818 0.62631798 1.763772 10434083
1.1897622 0.57621253 1.6226703 10827556
1.2559512 0.6002214 1.6902815 10630690
1.2216641 0.57621253 1.6226703 10237987
1.2891822 0.6002214 1.6902815 10237730
1.3057978 0.6002214 1.6902815 10697508
1.3224133 0.6002214 1.6902815 10893862
1.2854677 0.57621253 1.6226703 11024421
1.1219126 0.49673492 1.3988537 11090213
1.1356634 0.49673492 1.3988537 10762019
1.1494142 0.49673492 1.3988537 10565156
1.163165 0.49673492 1.3988537 10630949
1.1769158 0.49673492 1.3988537 10499877
1.1906666 0.49673492 1.3988537 10761763
1.2044173 0.49673492 1.3988537 10893605
1.2181681 0.49673492 1.3988537 10696999
1.190855 0.4801771 1.3522252 10368805
1.2041475 0.4801771 1.3522252 10499620
1.2174399 0.4801771 1.3522252 10565155
1.2307323 0.4801771 1.3522252 10565669
1.2440248 0.4801771 1.3522252 10171938
1.3006729 0.49673492 1.3988537 10368292
1.3144237 0.49673492 1.3988537 10237474
1.3281745 0.49673492 1.3988537 10237987
1.3419253 0.49673492 1.3988537 10303780
1.3556761 0.49673492 1.3988537 10501159
1.3694268 0.49673492 1.3988537 10304809
1.3831778 0.49673492 1.3988537 10041897
1.3969285 0.49673492 1.3988537 10107434
1.4106793 0.49673492 1.3988537 10107434
1.4244301 0.49673492 1.3988537 9910056
1.3902415 0.4801771 1.3522252 9976360
1.4035339 0.4801771 1.3522252 9647396
1.4168264 0.4801771 1.3522252 10107946
1.4301188 0.4801771 1.3522252 9780007
1.4434112 0.4801771 1.3522252 9780779
1.4567037 0.4801771 1.3522252 9649706
1.4699961 0.4801771 1.3522252 9452587
1.4832885 0.4801771 1.3522252 9518636
1.496581 0.4801771 1.3522252 9650475
1.5098734 0.4801771 1.3522252 9912621
1.5231658 0.4801771 1.3522252 9846316
1.5364583 0.4801771 1.3522252 9583914
1.5497507 0.4801771 1.3522252 9387048
1.5630431 0.4801771 1.3522252 9386794
1.630692 0.49673492 1.3988537 9649196
1.6444428 0.49673492 1.3988537 9780266
0 0 0 9517096
0 0 0 9910569
0 0 0 9518121
0 0 0 9452841
0 0 0 9518121
0 0 0 9714473
0 0 0 9517352
0 0 0 9451817
0 0 0 9648167
0 0 0 9583146
0 0 0 9846574
0 0 0 9978158
0 0 0 3023141
0 0 0 2628126
0 0 0 2825506
0 0 0 2759459
0 0 0 2496544
0 0 0 2431263
0 0 0 2037277
-1.6007446 0.51048571 1.3988537 1971742
-1.5869938 0.51048571 1.3988537 1905949
-1.573243 0.51048571 1.3988537 1774363
-1.6151885 0.52871734 1.4488127 1708828
-1.6009465 0.52871734 1.4488127 2037281
-1.5867046 0.52871734 1.4488127 2102558
-1.3342108 0.44860867 1.2292956 1970972
-1.0907546 0.37010217 1.014169 2036765
-0.98253208 0.33645651 0.92197174 1774106
-0.97346908 0.33645651 0.92197174 1906205
-0.96440601 0.33645651 0.92197174 1839638
-0.93411314 0.3289797 0.90148348 2102037
-0.78559089 0.27932239 0.76541048 1509645
-0.76365829 0.27414975 0.75123626 1444110
-0.75627363 0.27414975 0.75123626 1707024
-0.74888891 0.27414975 0.75123626 1773074
-0.74150425 0.27414975 0.75123626 1838868
-0.73411953 0.27414975 0.75123626 2035215
-0.74044681 0.27932239 0.76541048 2035728
-0.73292279 0.27932239 0.76541048 2103325
-0.72539878 0.27932239 0.76541048 2498855
-0.7316801 0.28469399 0.78012997 2102810
-0.73820764 0.2902762 0.79542661 1970455
-0.73038858 0.2902762 0.79542661 1774103
-0.72256947 0.2902762 0.79542661 3020827
-0.68777865 0.27932239 0.76541048 3547171
-0.66765738 0.27414975 0.75123626 4007724
-0.67273062 0.27932239 0.76541048 4073769
-0.66520661 0.27932239 0.76541048 4138532
-0.67033035 0.28469399 0.78012997 3809825
-0.66266167 0.28469399 0.78012997 3415839
-0.64263457 0.27932239 0.76541048 3350044
-0.6351105 0.27932239 0.76541048 3547423
-0.63965553 0.28469399 0.78012997 3153180
-0.65726626 0.29608172 0.81133515 3677724
-0.66254163 0.30212423 0.82789302 3939353
-0.66803682 0.30841845 0.84514076 4594973
-0.659729 0.30841845 0.84514076 4402464
-0.65142125 0.30841845 0.84514076 5385764
-0.61738896 0.29608172 0.81133515 7417634
-0.62185049 0.30212423 0.82789302 9844261
-0.62649792 0.30841845 0.84514076 10632231
-0.61819017 0.30841845 0.84514076 10697253
-0.59743583 0.30212423 0.82789302 11025958
-0.57751167 0.29608172 0.81133515 11025445
-0.58115941 0.30212423 0.82789302 10959650
-0.57302117 0.30212423 0.82789302 11287332
-0.57665133 0.30841845 0.84514076 11419430
-0.56834352 0.30841845 0.84514076 11484709
-0.56003577 0.30841845 0.84514076 11484195
-0.56346691 0.31498054 0.86312246 11483941
-0.55498236 0.31498054 0.86312246 11680548
-0.54649782 0.31498054 0.86312246 11550247
-0.56192499 0.3289797 0.90148348 11943463
-0.55306339 0.3289797 0.90148348 11811875
-0.54420173 0.3289797 0.90148348 11221537
-0.53534013 0.3289797 0.90148348 11484194
-0.52647847 0.3289797 0.90148348 11616295
-0.52938092 0.33645651 0.92197174 11812133
-0.53241831 0.34428108 0.94341296 11747109
-0.5356003 0.35247824 0.96587515 11812389
-0.5261057 0.35247824 0.96587515 12141099
-0.54244173 0.37010217 1.014169 12074533
0 0 0 11747110
0 0 0 12009254
0 0 0 12074276
0 0 0 11944230
0 0 0 11878181
0 0 0 12074790
0 0 0 12140326
0 0 0 12075045
0 0 0 12140839
-1.9677709 1.6448985 4.5074177 12075046
-1.9234627 1.6448985 4.5074177 11877924
-1.8791547 1.6448985 4.5074177 12206891
-1.8348465 1.6448985 4.5074177 12140326
-1.7905384 1.6448985 4.5074177 12140840
-1.7462304 1.6448985 4.5074177 12140586
-1.2764416 1.2336738 3.380563 12205863
-1.147579 1.1387759 3.1205199 12074277
-0.96798348 0.98693907 2.7044504 12140324
-0.94139862 0.98693907 2.7044504 12139813
-0.54888827 0.59216344 1.6226703 12140324
-0.51243979 0.56938797 1.5602599 12205861
-0.31523561 0.36107528 0.98943311 12271399
-0.27835307 0.3289797 0.90148348 12139813
-0.26363292 0.32182795 0.88188601 11943972
-0.25496393 0.32182795 0.88188601 12140324
-0.24629496 0.32182795 0.88188601 12205862
-0.23257011 0.31498054 0.86312246 12008740
-0.228957 0.32182795 0.88188601 12074532
-0.22518331 0.3289797 0.90148348 11878179
-0.20280159 0.30841845 0.84514076 12074279
-0.19449382 0.30841845 0.84514076 12008225
-0.18618605 0.30841845 0.84514076 11615009
-0.18166292 0.31498054 0.86312246 12074533
-0.16957051 0.30841845 0.84514076 12074533
-0.16469385 0.31498054 0.86312246 11680033
-0.15620932 0.31498054 0.86312246 12271141
-0.14772478 0.31498054 0.86312246 12008483
-0.13355698 0.30212423 0.82789302 11811361
-0.12291038 0.29608172 0.81133515 11942946
-0.11268129 0.2902762 0.79542661 11680289
-0.10486221 0.2902762 0.79542661 11745314
-0.097043134 0.2902762 0.79542661 11745314
-0.074597158 0.24268994 0.66502881 11811361
-0.068059899 0.24268994 0.66502881 11876387
-0.061522633 0.24268994 0.66502881 11745053
-0.051601656 0.22775517 0.62410396 11942180
-0.045466688 0.22775517 0.62410396 11877154
-0.039331716 0.22775517 0.62410396 12008225
-0.030391388 0.20850827 0.57136279 11614496
-0.02443077 0.20561232 0.56342721 11614242
-0.018892257 0.20561232 0.56342721 11679775
-0.013170812 0.2027957 0.555709 11613730
-0.0077081681 0.2027957 0.555709 11679775
0 0 0 11941410
0 0 0 11482656
0 0 0 11679775
0 0 0 11614242
0 0 0 12007457
0 0 0 12402213
0 0 0 12139813
0 0 0 12204064
0 0 0 12335652
0 0 0 12008227
0 0 0 11942432
0 0 0 12074020
0 0 0 12008482
0 0 0 11680287
0 0 0 11942434
0 0 0 12073763
0.69071621 1.6448985 4.5074177 12270372
0.73502433 1.6448985 4.5074177 11811363
0.77933246 1.6448985 4.5074177 12008996
0.57021266 1.1387759 3.1205199 12204836
0.26936337 0.51048571 1.3988537 12073505
0.27367702 0.49346954 1.3522252 11876641
0.28696945 0.49346954 1.3522252 12466977
0.30026188 0.49346954 1.3522252 12074018
0 0 0 12204834
0 0 0 12270881
0 0 0 11746082
0 0 0 12205863
0.29734382 0.40011045 1.0963988 12008741
0.30812147 0.40011045 1.0963988 12008740
0.31889912 0.40011045 1.0963988 12074533
0.34851548 0.4229739 1.1590502 11812647
0.38172162 0.44860867 1.2292956 12008482
0.39380565 0.44860867 1.2292956 12205865
0.44647866 0.49346954 1.3522252 12073766
0.47562528 0.51048571 1.3988537 11942693
0.48937607 0.51048571 1.3988537 12205606
0.50312686 0.51048571 1.3988537 12205607
0.51687765 0.51048571 1.3988537 12074277
0.53062844 0.51048571 1.3988537 12401954
0.54437923 0.51048571 1.3988537 12074534
0.52212167 0.47755116 1.3086051 12009000
0.51826704 0.46262771 1.2677112 11878181
0.51464599 0.44860867 1.2292956 12075049
0.52673 0.44860867 1.2292956 11877926
0.52296656 0.43541431 1.1931399 11812646
0.53469521 0.43541431 1.1931399 12009514
0.53081173 0.4229739 1.1590502 12008744
0.54220521 0.4229739 1.1590502 12206119
0.55359876 0.4229739 1.1590502 11877927
0.58160967 0.43541431 1.1931399 12139812
0.5763858 0.4229739 1.1590502 12271397
0.58777928 0.4229739 1.1590502 11942693
0.58252913 0.41122463 1.1268544 11548962
0.59360617 0.41122463 1.1268544 11549732
0.65965432 0.44860867 1.2292956 11812134
0.73891222 0.49346954 1.3522252 11812136
0.75220466 0.49346954 1.3522252 11745825
0.76549709 0.49346954 1.3522252 11745829
0.80564433 0.51048571 1.3988537 11614757
0.84865928 0.52871734 1.4488127 11614500
0.96644932 0.59216344 1.6226703 11287332
0.98240024 0.59216344 1.6226703 11351584
0.99835116 0.59216344 1.6226703 11287075
1.0565646 0.61683691 1.6902815 11352355
1.1198401 0.6436559 1.763772 11746343
1.188868 0.67291301 1.8439435 11483683
1.1545161 0.6436559 1.763772 11221539
1.1230268 0.61683691 1.6902815 11089954
1.0940567 0.59216344 1.6226703 11089183
1.3214376 0.70495647 1.9317503 10958883
1.2238679 0.6436559 1.763772 11155748
1.359416 0.70495647 1.9317503 11024675
1.1578604 0.59216344 1.6226703 11156007
1.3973943 0.70495647 1.9317503 10893089
1.1897622 0.59216344 1.6226703 10696740
1.2057132 0.59216344 1.6226703 10434852
1.174677 0.56938797 1.5602599 9909794
1.1900145 0.56938797 1.5602599 10499361
1.3057978 0.61683691 1.6902815 10237729
1.3224133 0.61683691 1.6902815 10629917
1.2854677 0.59216344 1.6226703 10959398
1.3014187 0.59216344 1.6226703 10696740
1.1356634 0.51048571 1.3988537 10696227
1.1494142 0.51048571 1.3988537 10695970
1.163165 0.51048571 1.3988537 10565158
1.1769158 0.51048571 1.3988537 10696484
1.2331904 0.52871734 1.4488127 10892835
1.2044173 0.51048571 1.3988537 10827041
1.2181681 0.51048571 1.3988537 10827042
1.2319189 0.51048571 1.3988537 10630949
1.2041475 0.49346954 1.3522252 10499361
1.2174399 0.49346954 1.3522252 10631204
1.2307323 0.49346954 1.3522252 10302496
1.2869221 0.51048571 1.3988537 10171423
1.3006729 0.51048571 1.3988537 10172196
1.3144237 0.51048571 1.3988537 10237474
1.3281745 0.51048571 1.3988537 10434085
1.3898512 0.52871734 1.4488127 10434083
1.4040931 0.52871734 1.4488127 10501159
1.5274378 0.56938797 1.5602599 10239273
1.3831778 0.51048571 1.3988537 10436650
1.3969285 0.51048571 1.3988537 10239273
1.3636566 0.49346954 1.3522252 10239275
1.3769491 0.49346954 1.3522252 10107948
1.3902415 0.49346954 1.3522252 10042410
1.4035339 0.49346954 1.3522252 10042152
1.4168264 0.49346954 1.3522252 9779239
1.4301188 0.49346954 1.3522252 9779240
1.4434112 0.49346954 1.3522252 9910568
1.4567037 0.49346954 1.3522252 9844774
1.4699961 0.49346954 1.3522252 10107945
1.4832885 0.49346954 1.3522252 10042409
1.496581 0.49346954 1.3522252 9910567
1.5098734 0.49346954 1.3522252 9517606
1.5231658 0.49346954 1.3522252 9517610
1.5364583 0.49346954 1.3522252 9713960
1.5497507 0.49346954 1.3522252 9517609
1.6169412 0.51048571 1.3988537 9452075
1.630692 0.51048571 1.3988537 9582890
0 0 0 9780266
0 0 0 9648678
0 0 0 9714471
0 0 0 9649449
0 0 0 9387048
0 0 0 9781034
12.52037 3.7010217 10.141689 9387048
12.620064 3.7010217 10.141689 9518380
12.719757 3.7010217 10.141689 9714989
0 0 0 9648938
0 0 0 9583915
0 0 0 9584170
0 0 0 10109483
0 0 0 2562593
0 0 0 2693923
0 0 0 2562338
0 0 0 2497058
0 0 0 2103328
0 0 0 2168351
-2.7541394 0.89428586 2.3862798 2168351
-2.2105522 0.72394568 1.9317503 1905949
-1.6436722 0.54295927 1.4488127 1840156
-1.573243 0.5242365 1.3988537 1971742
-1.6151885 0.54295927 1.4488127 1840156
-1.6009465 0.54295927 1.4488127 1905691
-1.2341037 0.42230168 1.1268544 1905435
-1.0483085 0.36197284 0.96587515 1774109
-1.0146555 0.35355487 0.94341296 1577499
-0.98253208 0.34551951 0.92197174 1512217
-0.97346908 0.34551951 0.92197174 1905947
-0.96440601 0.34551951 0.92197174 2431005
-0.87573111 0.31672624 0.84514076 1707794
-0.73046178 0.26671684 0.71169752 1707279
-0.71099216 0.26211825 0.69942683 1837840
-0.71646976 0.26671684 0.71169752 2234396
-0.72214288 0.27147964 0.72440636 1906462
-0.71502191 0.27147964 0.72440636 1905176
-0.72077191 0.27641562 0.73757738 2035987
-0.72673488 0.28153443 0.75123626 2561559
-0.71935016 0.28153443 0.75123626 3482148
-0.72539878 0.2868464 0.76541048 4140075
-0.71787477 0.2868464 0.76541048 4599593
-0.71035069 0.2868464 0.76541048 4992549
-0.70282668 0.2868464 0.76541048 4466719
-0.68242675 0.28153443 0.75123626 3875611
-0.66276854 0.27641562 0.73757738 3809820
-0.65551811 0.27641562 0.73757738 4137761
-0.66027266 0.28153443 0.75123626 4268316
-0.66520661 0.2868464 0.76541048 3809823
-0.6576826 0.2868464 0.76541048 3810593
-0.65015858 0.2868464 0.76541048 3679010
-0.64263457 0.2868464 0.76541048 3284252
-0.6351105 0.2868464 0.76541048 4135704
-0.63965553 0.29236269 0.78012997 4269347
-0.6319868 0.29236269 0.78012997 5582633
-0.62431812 0.29236269 0.78012997 6829099
-0.65440339 0.31026244 0.82789302 9059370
-0.659729 0.31672624 0.84514076 10959911
-0.65142125 0.31672624 0.84514076 11157031
-0.62998873 0.31026244 0.82789302 11091238
-0.62185049 0.31026244 0.82789302 11222567
-0.62649792 0.31672624 0.84514076 11090211
-0.60557407 0.31026244 0.82789302 11157031
-0.58548713 0.30405718 0.81133515 11025445
-0.56618792 0.29809529 0.79542661 11353123
-0.5583688 0.29809529 0.79542661 11156258
-0.57302117 0.31026244 0.82789302 11484709
-0.57665133 0.31672624 0.84514076 11615525
-0.56834352 0.31672624 0.84514076 11353123
-0.56003577 0.31672624 0.84514076 11418148
-0.55172801 0.31672624 0.84514076 11483941
-0.5434202 0.31672624 0.84514076 11353124
-0.53511244 0.31672624 0.84514076 11747113
-0.56192499 0.3378413 0.90148348 11418916
-0.55306339 0.3378413 0.90148348 11680289
-0.54420173 0.3378413 0.90148348 11680805
-0.53534013 0.3378413 0.90148348 11417889
-0.53844392 0.34551951 0.92197174 11614496
-0.52938092 0.34551951 0.92197174 11353123
-0.53241831 0.35355487 0.94341296 12074793
-0.5356003 0.36197284 0.96587515 11944490
-0.51387072 0.35355487 0.94341296 12206376
-0.5292114 0.37080145 0.98943311 11943461
0 0 0 11550245
0 0 0 11943459
0 0 0 11812390
0 0 0 12008739
0 0 0 11943462
0 0 0 12074532
0 0 0 12140324
0 0 0 12271397
0 0 0 12008740
-2.9516561 2.5338099 6.761126 11681318
-1.9234627 1.6892067 4.5074177 11812648
-1.8791547 1.6892067 4.5074177 12337448
-1.8348465 1.6892067 4.5074177 12074531
-1.7905384 1.6892067 4.5074177 12271397
-1.3096726 1.266905 3.380563 12074533
-1.1782538 1.1694508 3.1205199 11943204
-1.065609 1.0859185 2.8976254 12140840
-0.96798348 1.0135239 2.7044504 12402210
-0.94139862 1.0135239 2.7044504 12271398
-0.80718863 0.89428586 2.3862798 12075045
-0.4758369 0.54295927 1.4488127 12468260
-0.31523561 0.37080145 0.98943311 12008740
-0.27835307 0.3378413 0.90148348 11681572
-0.26363292 0.33049694 0.88188601 12139811
-0.25496393 0.33049694 0.88188601 12074272
-0.24629496 0.33049694 0.88188601 12271397
-0.23762599 0.33049694 0.88188601 12205351
-0.23404494 0.3378413 0.90148348 12140068
-0.22518331 0.3378413 0.90148348 12139811
-0.20711651 0.32346508 0.86312246 11876641
-0.19449382 0.31672624 0.84514076 11812134
-0.19014744 0.32346508 0.86312246 11877668
-0.18973683 0.3378413 0.90148348 11942947
-0.1808752 0.3378413 0.90148348 11942434
-0.17201358 0.3378413 0.90148348 12008227
-0.16315195 0.3378413 0.90148348 12139299
-0.14772478 0.32346508 0.86312246 11877411
-0.13355698 0.31026244 0.82789302 11943205
-0.12541875 0.31026244 0.82789302 11614497
-0.11493492 0.30405718 0.81133515 11548962
-0.10486221 0.29809529 0.79542661 11483169
-0.09517692 0.29236269 0.78012997 11549216
-0.074597158 0.24922721 0.66502881 11615269
-0.06696216 0.24520741 0.65430254 11548962
-0.060530335 0.24520741 0.65430254 11680289
-0.052407932 0.23754469 0.63385558 11745828
-0.045466688 0.23389015 0.62410396 11876641
-0.038157634 0.22690836 0.605474 11614496
-0.031272296 0.2203313 0.587924 11876641
-0.025867874 0.22357146 0.59656996 11876641
-0.018892257 0.21115084 0.56342721 11549734
-0.012819591 0.20270479 0.5408901 11810594
-0.0076040039 0.20544404 0.54819942 11614242
-0.0023756991 0.2203313 0.587924 11745568
0 0 0 11613982
0 0 0 11679521
0 0 0 11220767
0 0 0 11679775
0 0 0 12073248
0 0 0 12074018
0 0 0 11679262
0 0 0 11811873
0 0 0 12008226
0 0 0 12139043
0 0 0 12401442
0 0 0 12204835
0 0 0 11876897
0 0 0 12205091
0 0 0 12138786
0 0 0 12139301
0.73502433 1.6892067 4.5074177 11680033
0.70139921 1.520286 4.0566759 11745823
0.24709214 0.50676197 1.3522252 12072480
0.26038459 0.50676197 1.3522252 11811361
0.27367702 0.50676197 1.3522252 11810848
0.28696945 0.50676197 1.3522252 11943209
0.30026188 0.50676197 1.3522252 12139813
0 0 0 11942947
0 0 0 12139813
0 0 0 11942432
0 0 0 12139556
0 0 0 12074534
0.30812147 0.41088808 1.0963988 12074018
0.32775748 0.42230168 1.1268544 11943463
0.33883449 0.42230168 1.1268544 11614755
0.38172162 0.46069267 1.2292956 11942947
0.39380565 0.46069267 1.2292956 11812388
0.44647866 0.50676197 1.3522252 11485223
0.47562528 0.5242365 1.3988537 11681063
0.48937607 0.5242365 1.3988537 11745828
0.50312686 0.5242365 1.3988537 11943203
0.51687765 0.5242365 1.3988537 11942945
0.51294082 0.50676197 1.3522252 12205860
0.52623326 0.50676197 1.3522252 12205606
0.53952569 0.50676197 1.3522252 12139813
0.5349853 0.49041483 1.3086051 12336422
0.51464599 0.46069267 1.2292956 12139811
0.51123798 0.44714293 1.1931399 12139812
0.50802469 0.43436742 1.1590502 12074533
0.51941818 0.43436742 1.1590502 12336420
0.53081173 0.43436742 1.1590502 11877155
0.54220521 0.43436742 1.1590502 12139559
0.55359876 0.43436742 1.1590502 11681318
0.58160967 0.44714293 1.1931399 11812391
0.59333831 0.44714293 1.1931399 11680289
0.58777928 0.43436742 1.1590502 11483941
0.59917283 0.43436742 1.1590502 11746856
0.64757031 0.46069267 1.2292956 11812388
0.68026859 0.47508937 1.2677112 11812135
0.73891222 0.50676197 1.3522252 11615013
0.75220466 0.50676197 1.3522252 11483169
0.76549709 0.50676197 1.3522252 11680035
0.80564433 0.5242365 1.3988537 11221539
0.84865928 0.54295927 1.4488127 11614242
0.92927819 0.58472538 1.5602599 11549219
0.98240024 0.60811436 1.6226703 11615013
0.95995307 0.58472538 1.5602599 11613728
0.97529048 0.58472538 1.5602599 11548963
0.99062788 0.58472538 1.5602599 11548962
1.0897957 0.63345248 1.6902815 11221795
1.0621549 0.60811436 1.6226703 11089699
0.99824607 0.56306887 1.5024725 11221539
0.97683632 0.54295927 1.4488127 11024675
1.20653 0.66099387 1.763772 11024673
1.1259586 0.60811436 1.6226703 11089955
0.98440468 0.5242365 1.3988537 11090214
0.99815547 0.5242365 1.3988537 11352357
1.1286647 0.58472538 1.5602599 11024161
1.1897622 0.60811436 1.6226703 10762787
1.2057132 0.60811436 1.6226703 10828068
1.174677 0.58472538 1.5602599 10828068
1.1459398 0.56306887 1.5024725 10827042
1.1192552 0.54295927 1.4488127 10827812
1.1754786 0.56306887 1.5024725 10827555
1.1902479 0.56306887 1.5024725 10827812
1.2050173 0.56306887 1.5024725 10499618
1.1356634 0.5242365 1.3988537 10237476
1.1494142 0.5242365 1.3988537 10106915
1.163165 0.5242365 1.3988537 10041383
1.1769158 0.5242365 1.3988537 9909025
1.2331904 0.54295927 1.4488127 10302499
1.2044173 0.5242365 1.3988537 10762020
1.2181681 0.5242365 1.3988537 10696226
1.2319189 0.5242365 1.3988537 10236704
1.2456697 0.5242365 1.3988537 10434082
1.2594205 0.5242365 1.3988537 10368288
1.2731713 0.5242365 1.3988537 10237474
1.2869221 0.5242365 1.3988537 10303269
1.3006729 0.5242365 1.3988537 10434084
1.3144237 0.5242365 1.3988537 10367779
1.3281745 0.5242365 1.3988537 10367777
1.3898512 0.54295927 1.4488127 10368288
1.4040931 0.54295927 1.4488127 10435368
1.5274378 0.58472538 1.5602599 9910569
1.5427752 0.58472538 1.5602599 9910311
1.3969285 0.5242365 1.3988537 10173226
1.3196678 0.49041483 1.3086051 10173226
1.3325315 0.49041483 1.3086051 9977130
1.3902415 0.50676197 1.3522252 10042666
1.4035339 0.50676197 1.3522252 10108201
1.4168264 0.50676197 1.3522252 9976360
1.4301188 0.50676197 1.3522252 10042153
1.4434112 0.50676197 1.3522252 9976101
1.4567037 0.50676197 1.3522252 9977386
1.4699961 0.50676197 1.3522252 9844774
1.4832885 0.50676197 1.3522252 10041380
1.496581 0.50676197 1.3522252 9714473
1.5098734 0.50676197 1.3522252 9647913
1.5231658 0.50676197 1.3522252 9386022
1.5894396 0.5242365 1.3988537 9713960
1.6031904 0.5242365 1.3988537 9385508
1.6169412 0.5242365 1.3988537 9648426
0 0 0 9253155
0 0 0 9451048
0 0 0 9386023
0 0 0 9188642
0 0 0 9321255
0 0 0 9387305
16.560902 5.0676198 13.522252 9387050
12.52037 3.800715 10.141689 9321258
10.096051 3.0405719 8.1133518 9452841
10.175806 3.0405719 8.1133518 9714728
0 0 0 9715243
0 0 0 9649966
0 0 0 9781037
0 0 0 9453098
0 0 0 2497573
0 0 0 2563108
0 0 0 2563107
0 0 0 2365729
0 0 0 2234144
-1.9674642 0.65006799 1.6902815 2037279
-2.3410187 0.78008169 2.028338 2103074
-2.32108 0.78008169 2.028338 2102556
-2.3011413 0.78008169 2.028338 1840154
-1.6294303 0.55720115 1.4488127 1709083
-1.2562578 0.4333787 1.1268544 1708570
-1.2451807 0.4333787 1.1268544 1642523
-1.0578032 0.37146744 0.96587515 1708572
-1.0483085 0.37146744 0.96587515 1774364
-1.0388139 0.37146744 0.96587515 1709085
-1.0053817 0.36282867 0.94341296 1774620
-0.99610788 0.36282867 0.94341296 2168605
-0.96440601 0.35458255 0.92197174 2168603
-0.72474295 0.26899365 0.69942683 1576208
-0.71786755 0.26899365 0.69942683 1838096
-0.71099216 0.26899365 0.69942683 1707024
-0.69218266 0.26443446 0.68757218 2759198
-0.69724137 0.26899365 0.69942683 5124653
-0.71502191 0.27860057 0.72440636 5518378
-0.72077191 0.28366604 0.73757738 5189413
-0.71352148 0.28366604 0.73757738 5190184
-0.71935016 0.28891912 0.75123626 5189413
-0.72539878 0.29437041 0.76541048 4993061
-0.70458078 0.28891912 0.75123626 5123875
-0.67229623 0.27860057 0.72440636 4531740
-0.66517526 0.27860057 0.72440636 3810849
-0.67001897 0.28366604 0.73757738 4138786
-0.66276854 0.28366604 0.73757738 4334111
-0.66765738 0.28891912 0.75123626 4269597
-0.68566781 0.30003139 0.78012997 3874583
-0.67799908 0.30003139 0.78012997 4530720
-0.6576826 0.29437041 0.76541048 4859167
-0.65015858 0.29437041 0.76541048 5648163
-0.66783589 0.30591437 0.79542661 6961459
-0.66001683 0.30591437 0.79542661 8600879
-0.59396583 0.27860057 0.72440636 9911080
-0.58684486 0.27860057 0.72440636 11091752
-0.59026432 0.28366604 0.73757738 11222824
-0.5938105 0.28891912 0.75123626 11223081
-0.58642584 0.28891912 0.75123626 11090723
-0.60131198 0.30003139 0.78012997 11287588
-0.59364325 0.30003139 0.78012997 11353127
-0.6094135 0.31203264 0.81133515 11221796
-0.61371231 0.31840068 0.82789302 10893605
-0.60557407 0.31840068 0.82789302 11221797
-0.58548713 0.31203264 0.81133515 11090982
-0.57751167 0.31203264 0.81133515 11221800
-0.5583688 0.30591437 0.79542661 11025445
-0.56156075 0.31203264 0.81133515 11352866
-0.56488293 0.31840068 0.82789302 11221540
-0.56834352 0.32503399 0.84514076 11222822
-0.56003577 0.32503399 0.84514076 11419177
-0.55172801 0.32503399 0.84514076 11287334
-0.5434202 0.32503399 0.84514076 11419175
-0.53511244 0.32503399 0.84514076 11352610
-0.56192499 0.34670293 0.90148348 11287076
-0.55306339 0.34670293 0.90148348 11614755
-0.54420173 0.34670293 0.90148348 11549731
-0.53534013 0.34670293 0.90148348 11548962
-0.52647847 0.34670293 0.90148348 11614755
-0.52938092 0.35458255 0.92197174 11943208
-0.52031785 0.35458255 0.92197174 11483683
-0.5356003 0.37146744 0.96587515 11943461
-0.5261057 0.37146744 0.96587515 12075048
-0.5292114 0.38052762 0.98943311 11878181
-0.51948524 0.38052762 0.98943311 11878437
0 0 0 11747111
0 0 0 11812904
0 0 0 12009512
0 0 0 11877666
0 0 0 12139043
0 0 0 11943206
0 0 0 12074531
0 0 0 11548962
-2.9516561 2.6002719 6.761126 11943204
-1.442597 1.300136 3.380563 11877927
-1.3009531 1.2001256 3.1205199 12337444
-1.8348465 1.7335148 4.5074177 12074788
-1.7905384 1.7335148 4.5074177 11811876
-1.3096726 1.300136 3.380563 11943461
-1.0940927 1.1144023 2.8976254 11943459
-0.99456835 1.0401088 2.7044504 12271397
-0.96798348 1.0401088 2.7044504 12271397
-0.94139862 1.0401088 2.7044504 12140326
-0.80718863 0.91774309 2.3862798 11942947
-0.53293735 0.62406528 1.6226703 12008997
-0.31523561 0.38052762 0.98943311 11943460
-0.27230191 0.33916593 0.88188601 11746595
-0.26363292 0.33916593 0.88188601 12140326
-0.25496393 0.33916593 0.88188601 12008740
-0.24629496 0.33916593 0.88188601 11746595
-0.23762599 0.33916593 0.88188601 12008482
-0.228957 0.33916593 0.88188601 12008483
-0.22028802 0.33916593 0.88188601 12008482
-0.20711651 0.33194962 0.86312246 12009252
-0.19863197 0.33194962 0.86312246 11943463
-0.19859844 0.34670293 0.90148348 12008738
-0.18973683 0.34670293 0.90148348 12140324
-0.1808752 0.34670293 0.90148348 12074018
-0.17201358 0.34670293 0.90148348 12204836
-0.16315195 0.34670293 0.90148348 12204836
-0.14464718 0.32503399 0.84514076 12008483
-0.13355698 0.31840068 0.82789302 11877667
-0.12541875 0.31840068 0.82789302 11746344
-0.11728053 0.31840068 0.82789302 11745828
-0.10486221 0.30591437 0.79542661 11746084
-0.09517692 0.30003139 0.78012997 11417631
-0.072228998 0.24764496 0.64391679 11417376
-0.06486959 0.2437755 0.63385558 11417890
-0.059569534 0.24764496 0.64391679 11286048
-0.052407932 0.2437755 0.63385558 11483171
-0.045466688 0.24002512 0.62410396 11811107
-0.037051614 0.22611061 0.587924 11483168
-0.031272296 0.22611061 0.587924 11548703
-0.025867874 0.22943577 0.59656996 11810848
-0.018633457 0.21372099 0.555709 11745314
-0.012650913 0.20528464 0.53377312 11942945
-0.0074038985 0.20528464 0.53377312 11942434
-0.0022455237 0.21372099 0.555709 11745568
0 0 0 11876641
0 0 0 12074018
0 0 0 11615009
0 0 0 11876639
0 0 0 11680037
0 0 0 11811107
0 0 0 11680289
0 0 0 11745314
0 0 0 11745314
0 0 0 11810851
0 0 0 11942434
0 0 0 12204579
0 0 0 12139555
0 0 0 12008226
0 0 0 12007969
0 0 0 12007713
0.73502433 1.7335148 4.5074177 11745314
0.70139921 1.5601634 4.0566759 11680289
0.24709214 0.5200544 1.3522252 12008225
0.26038459 0.5200544 1.3522252 12008227
0.26484874 0.50327849 1.3086051 12008227
0.28696945 0.5200544 1.3522252 11614242
0.31061575 0.53798729 1.3988537 11746082
0 0 0 11418146
0 0 0 11614242
0 0 0 11942947
0 0 0 12139554
0 0 0 12008740
0.32572845 0.44576094 1.1590502 11942686
0.33712196 0.44576094 1.1590502 11877152
0.34851548 0.44576094 1.1590502 12139813
0.37049454 0.45887154 1.1931399 11942947
0.39380565 0.47277671 1.2292956 12139811
0.44647866 0.5200544 1.3522252 11942949
0.47562528 0.53798729 1.3988537 12139814
0.48937607 0.53798729 1.3988537 12009254
0.50312686 0.53798729 1.3988537 12139041
0.49964839 0.5200544 1.3522252 12074533
0.51294082 0.5200544 1.3522252 11877414
0.52623326 0.5200544 1.3522252 12008738
0.53952569 0.5200544 1.3522252 12074533
0.5349853 0.50327849 1.3086051 11680546
0.51464599 0.47277671 1.2292956 11811364
0.49663118 0.44576094 1.1590502 12139811
0.50802469 0.44576094 1.1590502 12008740
0.51941818 0.44576094 1.1590502 12073764
0.53081173 0.44576094 1.1590502 11811621
0.55815244 0.45887154 1.1931399 11811877
0.56988108 0.45887154 1.1931399 12008997
0.59923416 0.47277671 1.2292956 12008740
0.61131823 0.47277671 1.2292956 11811621
0.6050669 0.45887154 1.1931399 11746343
0.61679554 0.45887154 1.1931399 11418918
0.64757031 0.47277671 1.2292956 12074533
0.68026859 0.487551 1.2677112 11746343
0.69273025 0.487551 1.2677112 11680548
0.77814275 0.53798729 1.3988537 11746085
0.79189354 0.53798729 1.3988537 11548962
0.80564433 0.53798729 1.3988537 11614757
0.88009113 0.57783824 1.5024725 11812134
0.86290115 0.55720115 1.4488127 11287075
0.9446156 0.60006279 1.5602599 11485224
0.95995307 0.60006279 1.5602599 11811623
1.014302 0.62406528 1.6226703 11221284
1.0302529 0.62406528 1.6226703 11417892
0.96870732 0.57783824 1.5024725 11024162
1.0621549 0.62406528 1.6226703 10958628
1.0781058 0.62406528 1.6226703 11220771
1.0940567 0.62406528 1.6226703 11024163
1.20653 0.67833185 1.763772 10959140
0.97065389 0.53798729 1.3988537 10827812
0.98440468 0.53798729 1.3988537 11155494
0.99815547 0.53798729 1.3988537 10828326
1.0868623 0.57783824 1.5024725 11024162
1.1440022 0.60006279 1.5602599 10958113
1.1593395 0.60006279 1.5602599 10762019
1.174677 0.60006279 1.5602599 11023905
1.1900145 0.60006279 1.5602599 10433568
1.2053518 0.60006279 1.5602599 11024419
1.1334971 0.55720115 1.4488127 10696226
1.1477391 0.55720115 1.4488127 10564897
1.1219126 0.53798729 1.3988537 10630947
1.1356634 0.53798729 1.3988537 10499361
1.1494142 0.53798729 1.3988537 10302497
1.163165 0.53798729 1.3988537 10171428
1.1769158 0.53798729 1.3988537 9449764
1.1906666 0.53798729 1.3988537 9712677
1.2044173 0.53798729 1.3988537 9975076
1.2181681 0.53798729 1.3988537 10237219
1.2319189 0.53798729 1.3988537 10302497
1.2456697 0.53798729 1.3988537 10106149
1.2594205 0.53798729 1.3988537 10434085
1.2731713 0.53798729 1.3988537 10499106
1.2869221 0.53798729 1.3988537 10368292
1.3006729 0.53798729 1.3988537 10499878
1.3613675 0.55720115 1.4488127 10433830
1.3756093 0.55720115 1.4488127 10236708
1.3898512 0.55720115 1.4488127 10170655
1.4040931 0.55720115 1.4488127 10237989
1.418335 0.55720115 1.4488127 10369575
1.3831778 0.53798729 1.3988537 10172712
1.3503642 0.5200544 1.3522252 10172969
1.3196678 0.50327849 1.3086051 10238506
1.3325315 0.50327849 1.3086051 9648165
1.3453951 0.50327849 1.3086051 9975847
1.3582587 0.50327849 1.3086051 10106919
1.4168264 0.5200544 1.3522252 9779753
1.4301188 0.5200544 1.3522252 9779240
1.4434112 0.5200544 1.3522252 9844774
1.4567037 0.5200544 1.3522252 9779751
1.4699961 0.5200544 1.3522252 9779751
1.4832885 0.5200544 1.3522252 9780007
1.496581 0.5200544 1.3522252 9582889
1.5098734 0.5200544 1.3522252 9779753
1.5756888 0.53798729 1.3988537 9845544
1.5894396 0.53798729 1.3988537 9845544
1.6031904 0.53798729 1.3988537 9582116
1.6746891 0.55720115 1.4488127 9713190
0 0 0 9910569
0 0 0 9582119
0 0 0 9516840
0 0 0 9451048
0 0 0 9189415
12.320984 3.900408 10.141689 9451047
9.9365416 3.1203268 8.1133518 9582633
10.016296 3.1203268 8.1133518 9648678
10.096051 3.1203268 8.1133518 9517607
0 0 0 9320743
0 0 0 9386794
0 0 0 9387046
0 0 0 9715241
0 0 0 9781034
0 0 0 2366246
0 0 0 2169380
0 0 0 2168607
0 0 0 2234400
-1.9047166 0.6400162 1.6226703 2037536
-1.8887657 0.6400162 1.6226703 2037796
-1.9508487 0.66668355 1.6902815 2102304
-2.32108 0.80002034 2.028338 1971742
-2.5568237 0.88891149 2.2537088 1971741
-2.5346696 0.88891149 2.2537088 1774618
-1.2562578 0.44445574 1.1268544 1708570
-1.2115271 0.43244338 1.0963988 1905179
-1.0578032 0.38096201 0.96587515 1839386
-1.0483085 0.38096201 0.96587515 1840155
-1.0388139 0.38096201 0.96587515 2037020
-1.0293193 0.38096201 0.96587515 2169119
-1.0198247 0.38096201 0.96587515 2497568
-0.69563717 0.26230174 0.66502881 1838867
-0.68909991 0.26230174 0.66502881 1641488
-0.69393861 0.26667342 0.67611259 1641230
-0.6872924 0.26667342 0.67611259 1575695
-0.68064618 0.26667342 0.67611259 2099986
-0.66295081 0.26230174 0.66502881 5321775
-0.66735375 0.26667342 0.67611259 5124133
-0.70790094 0.28572151 0.72440636 4268574
-0.71352148 0.29091644 0.73757738 5188898
-0.70627105 0.29091644 0.73757738 5190440
-0.7119655 0.29630381 0.75123626 5255978
-0.66749763 0.28070888 0.71169752 5123877
-0.6605016 0.28070888 0.71169752 4137754
-0.65350556 0.28070888 0.71169752 3876386
-0.65805435 0.28572151 0.72440636 4204579
-0.70100522 0.30770013 0.78012997 4728346
-0.70693129 0.31373343 0.79542661 6827809
-0.69911224 0.31373343 0.79542661 7352099
-0.67799908 0.30770013 0.78012997 8402986
-0.6576826 0.30189443 0.76541048 9649711
-0.67565501 0.31373343 0.79542661 10500903
-0.66783589 0.31373343 0.79542661 10763047
-0.66001683 0.31373343 0.79542661 11156261
-0.58354539 0.28070888 0.71169752 10698023
-0.57654935 0.28070888 0.71169752 11156259
-0.56955338 0.28070888 0.71169752 11090723
-0.57260299 0.28572151 0.72440636 11156259
-0.58642584 0.29630381 0.75123626 11287845
-0.57904112 0.29630381 0.75123626 11418146
-0.57165647 0.29630381 0.75123626 11090468
-0.57491839 0.30189443 0.76541048 11221798
-0.57830584 0.30770013 0.78012997 11221541
-0.58182603 0.31373343 0.79542661 11221026
-0.57400697 0.31373343 0.79542661 11353640
-0.56618792 0.31373343 0.79542661 11286820
-0.5583688 0.31373343 0.79542661 11025188
-0.55054975 0.31373343 0.79542661 11221800
-0.55358529 0.3200081 0.81133515 11024675
-0.54560983 0.3200081 0.81133515 10763302
-0.54860646 0.32653889 0.82789302 11353897
-0.54046828 0.32653889 0.82789302 11287075
-0.53233004 0.32653889 0.82789302 11811875
-0.5241918 0.32653889 0.82789302 11614496
-0.5497092 0.34783489 0.88188601 11680805
-0.54104024 0.34783489 0.88188601 11680805
-0.54420173 0.35556456 0.90148348 11877411
-0.53534013 0.35556456 0.90148348 11418918
-0.52647847 0.35556456 0.90148348 11811878
-0.52938092 0.36364558 0.92197174 11614757
-0.52031785 0.36364558 0.92197174 11549476
-0.51125485 0.36364558 0.92197174 11483939
-0.51387072 0.37210247 0.94341296 11549986
-0.5166111 0.38096201 0.96587515 11681319
-0.51948524 0.39025378 0.98943311 11484709
0 0 0 11616038
0 0 0 11681574
0 0 0 11484452
0 0 0 11943720
0 0 0 11876900
0 0 0 12009254
0 0 0 11943461
0 0 0 12008486
-1.4758281 1.3333671 3.380563 11877413
-1.442597 1.3333671 3.380563 12074533
-1.3009531 1.2308005 3.1205199 11877666
-1.2702783 1.2308005 3.1205199 11812648
-1.3429037 1.3333671 3.380563 12008742
-1.3096726 1.3333671 3.380563 12074022
-1.1782538 1.2308005 3.1205199 11877668
-1.065609 1.142886 2.8976254 11943460
-0.96798348 1.0666937 2.7044504 11746083
-0.88256127 1.0000254 2.5354223 12074533
-0.54888827 0.6400162 1.6226703 12139559
-0.53293735 0.6400162 1.6226703 12074531
-0.30773002 0.38096201 0.96587515 11811361
-0.27230191 0.34783489 0.88188601 11877669
-0.26363292 0.34783489 0.88188601 12074533
-0.25496393 0.34783489 0.88188601 12139811
-0.24629496 0.34783489 0.88188601 12139811
-0.23762599 0.34783489 0.88188601 12074020
-0.228957 0.34783489 0.88188601 12271397
-0.21110936 0.33334178 0.84514076 11942949
-0.20280159 0.33334178 0.84514076 11681574
-0.19863197 0.34043413 0.86312246 11811363
-0.20783558 0.37210247 0.94341296 12074790
-0.1985618 0.37210247 0.94341296 12008740
-0.1808752 0.35556456 0.90148348 12008740
-0.16126272 0.33334178 0.84514076 11811875
-0.15295495 0.33334178 0.84514076 11876641
-0.14464718 0.33334178 0.84514076 11942947
-0.13355698 0.32653889 0.82789302 11745825
-0.12541875 0.32653889 0.82789302 11745572
-0.11493492 0.3200081 0.81133515 11745569
-0.10486221 0.31373343 0.79542661 11679778
-0.081134424 0.26230174 0.66502881 11483169
-0.071100421 0.25000635 0.63385558 11745569
-0.06486959 0.25000635 0.63385558 11482913
-0.058638759 0.25000635 0.63385558 11351583
-0.052407932 0.25000635 0.63385558 11679520
-0.044777796 0.24243037 0.61464781 11154206
-0.037051614 0.23188993 0.587924 11352096
-0.029558746 0.21918364 0.555709 11745057
-0.024096102 0.21918364 0.555709 11482909
-0.018136565 0.21333875 0.5408901 11876128
-0.012486614 0.20779747 0.52684098 11679264
-0.0073077437 0.20779747 0.52684098 11810593
-0.0022151789 0.21622169 0.54819942 12008226
0 0 0 11942179
0 0 0 12072991
0 0 0 11942690
0 0 0 11744801
0.024399227 0.21333875 0.5408901 12007970
0 0 0 11482401
0 0 0 11811364
0 0 0 11482912
0 0 0 11286305
0 0 0 11679523
0 0 0 11811364
0 0 0 11877153
0 0 0 11942944
0 0 0 12008485
0 0 0 11876897
0 0 0 11942434
0.73502433 1.777823 4.5074177 11942691
0.70139921 1.6000407 4.0566759 11877668
0.29651058 0.6400162 1.6226703 12204064
0.30044377 0.61540025 1.5602599 11811361
0.27367702 0.53334683 1.3522252 12074533
0.29686496 0.55173808 1.3988537 12270884
0.33362433 0.59260762 1.5024725 11745571
0 0 0 11548964
0 0 0 11942692
0 0 0 11877412
0 0 0 11943205
0 0 0 12074279
0 0 0 12204836
0.34703729 0.47060016 1.1931399 11811100
0.34851548 0.45715445 1.1590502 11614757
0.37049454 0.47060016 1.1931399 11876899
0.39380565 0.48486075 1.2292956 12336165
0.44647866 0.53334683 1.3522252 12008487
0.4597711 0.53334683 1.3522252 12139813
0.47306353 0.53334683 1.3522252 11811875
0.48635596 0.53334683 1.3522252 12140326
0.49964839 0.53334683 1.3522252 11876899
0.51294082 0.53334683 1.3522252 12139813
0.54437923 0.55173808 1.3988537 11943203
0.55813003 0.55173808 1.3988537 11812389
0.57188082 0.55173808 1.3988537 11746083
0.48523766 0.45715445 1.1590502 11418146
0.49663118 0.45715445 1.1590502 11614755
0.49391291 0.44445574 1.1268544 11942947
0.51941818 0.45715445 1.1590502 11942949
0.53081173 0.45715445 1.1590502 11943204
0.57506615 0.48486075 1.2292956 12205093
0.56988108 0.47060016 1.1931399 11745571
0.59923416 0.48486075 1.2292956 11811621
0.61131823 0.48486075 1.2292956 12074279
0.62340224 0.48486075 1.2292956 11745828
0.6354863 0.48486075 1.2292956 11614500
0.64757031 0.48486075 1.2292956 11483427
0.68026859 0.5000127 1.2677112 11812134
0.73891222 0.53334683 1.3522252 11418146
0.75220466 0.53334683 1.3522252 11746341
0.91859657 0.6400162 1.6226703 11483684
0.93454748 0.6400162 1.6226703 11680807
0.9504984 0.6400162 1.6226703 11483941
0.92927819 0.61540025 1.5602599 11417633
0.98240024 0.6400162 1.6226703 11680548
0.99835116 0.6400162 1.6226703 11417890
1.014302 0.6400162 1.6226703 11156004
1.2264916 0.76192403 1.9317503 11352613
0.96870732 0.59260762 1.5024725 11353123
0.9834767 0.59260762 1.5024725 11155747
1.0781058 0.6400162 1.6226703 11417379
1.0940567 0.6400162 1.6226703 11417379
1.1100076 0.6400162 1.6226703 10958367
0.9382987 0.53334683 1.3522252 11090468
0.95159113 0.53334683 1.3522252 11089955
0.99815547 0.55173808 1.3988537 10892064
1.0480458 0.57144302 1.4488127 10827042
1.1440022 0.61540025 1.5602599 10892833
1.1593395 0.61540025 1.5602599 10499363
1.2216641 0.6400162 1.6226703 10696226
1.237615 0.6400162 1.6226703 10564641
1.2535659 0.6400162 1.6226703 10958628
1.1754786 0.59260762 1.5024725 10892835
1.1081618 0.55173808 1.3988537 10696486
1.1219126 0.55173808 1.3988537 10564383
1.029195 0.5000127 1.2677112 10827040
1.1494142 0.55173808 1.3988537 10760736
1.0881221 0.51614213 1.3086051 10630949
1.1769158 0.55173808 1.3988537 10565156
1.1906666 0.55173808 1.3988537 10565157
1.2044173 0.55173808 1.3988537 10302499
1.2181681 0.55173808 1.3988537 10302499
1.2319189 0.55173808 1.3988537 10433570
1.2456697 0.55173808 1.3988537 10236705
1.2594205 0.55173808 1.3988537 9909798
1.2731713 0.55173808 1.3988537 9711909
1.2869221 0.55173808 1.3988537 10433572
1.3006729 0.55173808 1.3988537 10434084
1.3613675 0.57144302 1.4488127 10105891
1.3756093 0.57144302 1.4488127 10171169
1.3898512 0.57144302 1.4488127 10106403
1.3556761 0.55173808 1.3988537 9975331
1.3694268 0.55173808 1.3988537 9779495
1.3370718 0.53334683 1.3522252 9779493
1.3503642 0.53334683 1.3522252 9976101
1.3196678 0.51614213 1.3086051 9975847
1.3325315 0.51614213 1.3086051 9648167
1.3453951 0.51614213 1.3086051 9779498
1.3582587 0.51614213 1.3086051 9909541
1.3711224 0.51614213 1.3086051 10041128
1.4301188 0.53334683 1.3522252 10107687
1.4434112 0.53334683 1.3522252 9844774
1.4567037 0.53334683 1.3522252 9845031
1.4699961 0.53334683 1.3522252 9844776
1.4832885 0.53334683 1.3522252 9713958
1.496581 0.53334683 1.3522252 9910056
1.561938 0.55173808 1.3988537 9713192
1.5756888 0.55173808 1.3988537 9845547
1.5894396 0.55173808 1.3988537 9780008
1.6031904 0.55173808 1.3988537 9780008
1.6169412 0.55173808 1.3988537 9779751
1.688931 0.57144302 1.4488127 9845031
0 0 0 9780265
0 0 0 9386794
0 0 0 9517094
0 0 0 9582374
0 0 0 9516837
9.9365416 3.2000813 8.1133518 9254179
10.016296 3.2000813 8.1133518 9188386
10.096051 3.2000813 8.1133518 9320228
0 0 0 9648680
0 0 0 9451558
0 0 0 9583656
0 0 0 9320483
0 0 0 9452069
0 0 0 2300966
0 0 0 2235173
0 0 0 2103328
-3.6935916 1.2614753 3.1205199 2300453
-1.7636266 0.60737699 1.5024725 2168865
-1.7488571 0.60737699 1.5024725 2234400
-1.8007835 0.63073766 1.5602599 2102815
-2.0183303 0.71300775 1.763772 1971487
-2.3011413 0.81995898 2.028338 1972001
-2.5346696 0.91106552 2.2537088 1840156
-1.2562578 0.45553276 1.1268544 2102558
-1.1796448 0.43155733 1.0675462 1905436
-1.0836033 0.39997998 0.98943311 1774362
-1.0738771 0.39997998 0.98943311 2102556
-1.0641508 0.39997998 0.98943311 2102556
-1.0544246 0.39997998 0.98943311 2628384
-1.0446985 0.39997998 0.98943311 2299674
-0.69563717 0.268839 0.66502881 1444879
-0.67798537 0.26450288 0.65430254 1510672
-0.68256265 0.268839 0.66502881 1707024
-0.67602539 0.268839 0.66502881 1904403
-0.66948807 0.268839 0.66502881 3350822
-0.66295081 0.268839 0.66502881 4139812
-0.65641356 0.268839 0.66502881 3939605
-0.68349057 0.28274444 0.69942683 1968911
-0.68848568 0.28770489 0.71169752 4861481
-0.68148965 0.28770489 0.71169752 4993316
-0.67449361 0.28770489 0.71169752 5387049
-0.66749763 0.28770489 0.71169752 5452842
-0.6491136 0.28274444 0.69942683 5845801
-0.65350556 0.28770489 0.71169752 7878699
-0.67001897 0.29816687 0.73757738 9647909
-0.70100522 0.31536883 0.78012997 9646882
-0.69333649 0.31536883 0.78012997 10303782
-0.68566781 0.31536883 0.78012997 10565926
-0.66520661 0.30941844 0.76541048 10696995
-0.6576826 0.30941844 0.76541048 10894118
-0.67565501 0.32155252 0.79542661 10696997
-0.66783589 0.32155252 0.79542661 10827042
-0.62334925 0.3036885 0.75123626 10959140
-0.58354539 0.28770489 0.71169752 11025191
-0.57654935 0.28770489 0.71169752 11025188
-0.56955338 0.28770489 0.71169752 10762530
-0.56255734 0.28770489 0.71169752 11156003
-0.57576352 0.29816687 0.73757738 11156260
-0.57904112 0.3036885 0.75123626 11024674
-0.57165647 0.3036885 0.75123626 11483943
-0.56427175 0.3036885 0.75123626 11352355
-0.56739438 0.30941844 0.76541048 11155747
-0.57063711 0.31536883 0.78012997 11221796
-0.56296837 0.31536883 0.78012997 10958369
-0.5552997 0.31536883 0.78012997 11090466
-0.5583688 0.32155252 0.79542661 11025444
-0.55054975 0.32155252 0.79542661 11090467
-0.54273063 0.32155252 0.79542661 11024418
-0.53491157 0.32155252 0.79542661 10893857
-0.52709252 0.32155252 0.79542661 11353123
-0.52965891 0.32798356 0.81133515 11419173
-0.52168345 0.32798356 0.81133515 11287330
-0.5241918 0.33467713 0.82789302 11680805
-0.56192499 0.3644262 0.90148348 11615527
-0.55306339 0.3644262 0.90148348 11942947
-0.54420173 0.3644262 0.90148348 11680806
-0.52370226 0.35650387 0.88188601 11484711
-0.52647847 0.3644262 0.90148348 11811621
-0.51761687 0.3644262 0.90148348 11549477
-0.52031785 0.37270859 0.92197174 11680035
-0.51125485 0.37270859 0.92197174 11811364
-0.50219184 0.37270859 0.92197174 11549732
-0.5166111 0.39045662 0.96587515 12009510
-0.54612553 0.42049178 1.0401733 11747111
0 0 0 11943717
0 0 0 11615525
0 0 0 11812646
0 0 0 12008742
0 0 0 11746595
0 0 0 12205606
0 0 0 11943204
-1.5090592 1.3665981 3.380563 11746084
-1.4758281 1.3665981 3.380563 11942948
-1.442597 1.3665981 3.380563 11877413
-1.3009531 1.2614753 3.1205199 12008486
-1.2702783 1.2614753 3.1205199 11812388
-1.2396035 1.2614753 3.1205199 11615009
-1.2089287 1.2614753 3.1205199 12074019
-1.1782538 1.2614753 3.1205199 11943204
-1.147579 1.2614753 3.1205199 11877923
-0.96798348 1.0932785 2.7044504 11483938
-0.67242759 0.78091323 1.9317503 11222052
-0.54888827 0.65596712 1.6226703 12139813
-0.41635731 0.51247436 1.2677112 11812388
-0.30773002 0.39045662 0.96587515 12074533
-0.27835307 0.3644262 0.90148348 11943204
-0.26363292 0.35650387 0.88188601 12007969
-0.25496393 0.35650387 0.88188601 12139043
-0.24629496 0.35650387 0.88188601 12205088
-0.23257011 0.34891868 0.86312246 11877927
-0.21941712 0.34164953 0.84514076 12008997
-0.21110936 0.34164953 0.84514076 11811878
-0.20280159 0.34164953 0.84514076 11942948
-0.22770008 0.39997998 0.98943311 12204834
-0.2179739 0.39997998 0.98943311 12074020
-0.18973683 0.3644262 0.90148348 11812133
-0.16610989 0.33467713 0.82789302 11680547
-0.14885791 0.31536883 0.78012997 11876899
-0.14683676 0.32798356 0.81133515 12073766
-0.1416952 0.33467713 0.82789302 11942947
-0.13088584 0.32798356 0.81133515 11811361
-0.12291038 0.32798356 0.81133515 11811105
-0.094208948 0.268839 0.66502881 11745056
-0.08767169 0.268839 0.66502881 11810849
-0.079825804 0.26450288 0.65430254 11417889
-0.071100421 0.25623718 0.63385558 11286560
-0.06486959 0.25623718 0.63385558 11482656
-0.058638759 0.25623718 0.63385558 11483171
-0.052407932 0.25623718 0.63385558 11351583
-0.046177104 0.25623718 0.63385558 11483171
-0.037051614 0.23766924 0.587924 11548705
-0.029558746 0.22464629 0.555709 11614239
-0.023770478 0.22161052 0.54819942 11416605
-0.017897926 0.21577866 0.53377312 11745571
-0.01232653 0.21024589 0.52008665 11679008
-0.0072140549 0.21024589 0.52008665 11745056
-0.0024466156 0.24476387 0.605474 11482911
0 0 0 11810851
0 0 0 11613728
0 0 0 11810848
0 0 0 11679519
0.024078185 0.21577866 0.53377312 11942178
0 0 0 12008229
0 0 0 11483169
0 0 0 11680550
0 0 0 11548962
0 0 0 11417120
0 0 0 11483169
0 0 0 11614242
0 0 0 11745571
0 0 0 11811360
0 0 0 11877154
0 0 0 11614496
0.73502433 1.822131 4.5074177 11877668
0.77933246 1.822131 4.5074177 12008225
0.7412765 1.639918 4.0566759 11877668
0.3124615 0.65596712 1.6226703 11942949
0.31578118 0.63073766 1.5602599 11942436
0.33111861 0.63073766 1.5602599 12205605
0.33362433 0.60737699 1.5024725 12007713
0 0 0 11876645
0 0 0 12074019
0 0 0 12073762
0 0 0 11811875
0 0 0 11877414
0 0 0 11876902
0.33712196 0.46854797 1.1590502 11680036
0.34851548 0.46854797 1.1590502 12074277
0.37049454 0.48232877 1.1931399 11942690
0.39380565 0.49694479 1.2292956 12008226
0.41857377 0.51247436 1.2677112 12074279
0.4597711 0.54663926 1.3522252 12008227
0.44349706 0.51247436 1.2677112 12402213
0.45595872 0.51247436 1.2677112 12074020
0.46842039 0.51247436 1.2677112 11877411
0.51294082 0.54663926 1.3522252 12074277
0.54437923 0.56548887 1.3988537 12074531
0.55813003 0.56548887 1.3988537 12074275
0.57188082 0.56548887 1.3988537 11812134
0.48523766 0.46854797 1.1590502 12008486
0.46978623 0.44322103 1.0963988 11812133
0.48056388 0.44322103 1.0963988 11680547
0.50498992 0.45553276 1.1268544 11615782
0.56298208 0.49694479 1.2292956 11614755
0.57506615 0.49694479 1.2292956 11811876
0.56988108 0.48232877 1.1931399 11548962
0.58160967 0.48232877 1.1931399 11614755
0.59333831 0.48232877 1.1931399 11811621
0.6050669 0.48232877 1.1931399 11745573
0.59917283 0.46854797 1.1590502 11681572
0.64757031 0.49694479 1.2292956 11812131
0.68026859 0.51247436 1.2677112 11614755
0.71507639 0.52900577 1.3086051 11483170
0.72794002 0.52900577 1.3086051 11549732
0.76549709 0.54663926 1.3522252 11548962
0.93454748 0.65596712 1.6226703 11680802
0.9504984 0.65596712 1.6226703 11221537
0.96644932 0.65596712 1.6226703 11156003
0.90962988 0.60737699 1.5024725 11090725
