# .PCD v0.7 - Point Cloud Data file format
VERSION 0.7
FIELDS x y z rgb
SIZE 4 4 4 4
TYPE F F F U
COUNT 1 1 1 1
WIDTH 1289
HEIGHT 1
VIEWPOINT 0 0 0 1 0 0 0
POINTS 1289
DATA ascii
-3.929018 3.0031688 10.141689 12140583
-3.8293247 3.0031688 10.141689 12140584
-0.99456835 0.80084497 2.7044504 12205093
-0.76419753 0.63224608 2.1350925 12074279
-0.61395562 0.52229023 1.763772 12009254
-0.37087044 0.32466689 1.0963988 12140326
-0.32496181 0.29299209 0.98943311 11812134
-0.31523561 0.29299209 0.98943311 12206120
-0.2912997 0.27936453 0.94341296 12272167
-0.27561623 0.27301535 0.92197174 12469285
-0.26655322 0.27301535 0.92197174 12074790
-0.25749019 0.27301535 0.92197174 12008739
-0.22772489 0.25026405 0.84514076 12271397
-0.21493924 0.24515665 0.82789302 12598822
-0.19487019 0.23101299 0.78012997 12270884
-0.19866279 0.24515665 0.82789302 12402215
-0.17614534 0.22665423 0.76541048 12533029
-0.16549872 0.22245695 0.75123626 12074533
-0.15523921 0.21841227 0.73757738 12140072
-0.1479888 0.21841227 0.73757738 12008486
-0.14073838 0.21841227 0.73757738 11680032
-0.13110425 0.21451205 0.72440636 11811104
-0.11970802 0.20711508 0.69942683 11876640
-0.10907153 0.20021124 0.67611259 12073766
-0.094546445 0.18481039 0.62410396 11942947
-0.088411473 0.18481039 0.62410396 11942947
-0.077506848 0.17409673 0.587924 12204835
-0.067797258 0.16455719 0.555709 12008227
-0.062334612 0.16455719 0.555709 12139042
-0.056871969 0.16455719 0.555709 11876641
-0.051409323 0.16455719 0.555709 11811361
-0.045325778 0.16233344 0.54819942 11810848
-0.039936952 0.16233344 0.54819942 12139041
-0.03454813 0.16233344 0.54819942 11746082
-0.028770514 0.16016901 0.5408901 12073250
-0.02314494 0.15806152 0.53377312 12008227
-0.017897926 0.15806152 0.53377312 12139043
-0.012650913 0.15806152 0.53377312 11745055
-0.0074038985 0.15806152 0.53377312 12008740
-0.0021568846 0.15806152 0.53377312 11548962
0.0031736461 0.16233344 0.54819942 11942947
0 0 0 11548962
0 0 0 11155746
0 0 0 11548964
0 0 0 11548449
0 0 0 11745568
0 0 0 12467238
0 0 0 12139811
0 0 0 12468006
0 0 0 12729635
0 0 0 12337190
0 0 0 12336672
0 0 0 12795687
0 0 0 12467491
0 0 0 12598822
0 0 0 12205347
0.3891305 0.70662796 2.3862798 12139811
0.38966623 0.66737086 2.2537088 12206120
0.41182026 0.66737086 2.2537088 12008228
0.43397433 0.66737086 2.2537088 12205863
0.45612839 0.66737086 2.2537088 12598820
0.45310968 0.63224608 2.1350925 12598308
0.47409773 0.63224608 2.1350925 12402728
0.49508578 0.63224608 2.1350925 12730664
0.61283767 0.75079221 2.5354223 12927013
0 0 0 12598563
0 0 0 12336420
0 0 0 12206371
0 0 0 12664872
0.58996344 0.6006338 2.028338 12730663
0.58085907 0.57203215 1.9317503 12796455
0.50387257 0.48050702 1.6226703 12469033
0.46412811 0.4290241 1.4488127 12468519
0.49608743 0.44491389 1.5024725 12468521
0.55172533 0.48050702 1.6226703 12795688
0.56767625 0.48050702 1.6226703 12468006
0.58362716 0.48050702 1.6226703 12862248
0.5765174 0.46202597 1.5602599 12797224
0.59185487 0.46202597 1.5602599 12599848
0.60719228 0.46202597 1.5602599 12600106
0.62252969 0.46202597 1.5602599 12534056
0.59230512 0.4290241 1.4488127 12731432
0.56611055 0.40042248 1.3522252 12140582
0.54319036 0.3753961 1.2677112 12468776
0.55565202 0.3753961 1.2677112 12206119
0.56811363 0.3753961 1.2677112 12403750
0.58057529 0.3753961 1.2677112 12074534
0.59303695 0.3753961 1.2677112 12271912
0.62503082 0.38750565 1.3086051 12272168
0.65915763 0.40042248 1.3522252 12468521
0.67245007 0.40042248 1.3522252 12140326
0.70938879 0.41423017 1.3988537 12206119
0.74896598 0.4290241 1.4488127 11747367
0.79147488 0.44491389 1.5024725 11878181
0.80624425 0.44491389 1.5024725 12139557
0.82101363 0.44491389 1.5024725 12140324
0.80593354 0.4290241 1.4488127 12074275
0.82017547 0.4290241 1.4488127 11746340
0.83441734 0.4290241 1.4488127 12074533
0.84865928 0.4290241 1.4488127 11353120
0.86290115 0.4290241 1.4488127 11615009
0.87714303 0.4290241 1.4488127 11156261
0.89138496 0.4290241 1.4488127 11417891
0.90562683 0.4290241 1.4488127 11483169
0.95393795 0.44491389 1.5024725 11483939
0.96870732 0.44491389 1.5024725 11418148
0.9834767 0.44491389 1.5024725 11549732
0.99824607 0.44491389 1.5024725 11287331
1.0519776 0.46202597 1.5602599 11287076
1.1100076 0.48050702 1.6226703 11287591
1.1728734 0.5005281 1.6902815 11614757
1.189489 0.5005281 1.6902815 11025445
1.1133273 0.46202597 1.5602599 11353641
1.0868623 0.44491389 1.5024725 11024932
1.1016316 0.44491389 1.5024725 11090468
1.0765295 0.4290241 1.4488127 10499361
1.0907714 0.4290241 1.4488127 11024675
1.1050134 0.4290241 1.4488127 10893857
1.0806602 0.41423017 1.3988537 11025445
1.1334971 0.4290241 1.4488127 10959399
1.1081618 0.41423017 1.3988537 10827814
1.1219126 0.41423017 1.3988537 10762278
1.1356634 0.41423017 1.3988537 10762019
1.1904647 0.4290241 1.4488127 11090216
1.2047065 0.4290241 1.4488127 10959656
1.2189485 0.4290241 1.4488127 10696482
1.1906666 0.41423017 1.3988537 10500133
1.2044173 0.41423017 1.3988537 10106401
1.2181681 0.41423017 1.3988537 10369573
1.2319189 0.41423017 1.3988537 10631714
1.2456697 0.41423017 1.3988537 10434853
1.2594205 0.41423017 1.3988537 10499363
1.3186418 0.4290241 1.4488127 10368288
1.3328836 0.4290241 1.4488127 10368292
1.5716465 0.5005281 1.6902815 10499624
1.588262 0.5005281 1.6902815 10237476
1.5406824 0.48050702 1.6226703 10434338
1.5566334 0.48050702 1.6226703 10437422
1.4040931 0.4290241 1.4488127 10174509
1.418335 0.4290241 1.4488127 10436397
1.4325769 0.4290241 1.4488127 10239275
1.4468188 0.4290241 1.4488127 10305323
1.4610606 0.4290241 1.4488127 9977642
1.5299435 0.44491389 1.5024725 9780264
1.6682899 0.48050702 1.6226703 9518375
1.6842408 0.48050702 1.6226703 9780262
1.7001917 0.48050702 1.6226703 9846058
1.7161427 0.48050702 1.6226703 10042410
1.7320936 0.48050702 1.6226703 10043179
1.680812 0.46202597 1.5602599 10043689
1.5749959 0.4290241 1.4488127 9977900
1.4832885 0.40042248 1.3522252 10042925
1.496581 0.40042248 1.3522252 9649452
1.561938 0.41423017 1.3988537 9649195
1.4740316 0.38750565 1.3086051 10043438
1.5894396 0.41423017 1.3988537 9780522
1.6031904 0.41423017 1.3988537 9583913
2.0387518 0.52229023 1.763772 9321255
0 0 0 9714473
0 0 0 9845546
0 0 0 9977645
0 0 0 9517610
0 0 0 9321002
0 0 0 9320744
6.2103386 1.5015844 5.0708447 9583402
6.2601852 1.5015844 5.0708447 9978415
6.3100319 1.5015844 5.0708447 10044976
10.175806 2.4025352 8.1133518 10242100
0 0 0 10044208
0 0 0 9913136
0 0 0 9847858
0 0 0 9650995
0 0 0 3351849
0 0 0 3549226
-1.3832989 0.3546128 1.1590502 3416869
-1.4122555 0.3650426 1.1931399 3416871
-1.4429671 0.37610447 1.2292956 3286055
-1.430883 0.37610447 1.2292956 3154469
-1.418799 0.37610447 1.2292956 3154468
-1.4974709 0.40036929 1.3086051 3088675
-1.4846072 0.40036929 1.3086051 2891554
-1.573243 0.42798096 1.3988537 2891813
0 0 0 2825762
0 0 0 2431003
0 0 0 1839638
-1.4202889 0.40036929 1.3086051 1509902
-1.2465768 0.3546128 1.1590502 1378059
-0.91981727 0.26407334 0.86312246 1444366
-0.91133273 0.26407334 0.86312246 1509901
-0.92247534 0.26981407 0.88188601 1312524
-0.91380632 0.26981407 0.88188601 1509649
-0.92525154 0.27580994 0.90148348 2890526
-0.91638994 0.27580994 0.90148348 4927016
-0.92815393 0.28207836 0.92197174 6503468
-0.94046515 0.28863832 0.94341296 7094061
-0.93119133 0.28863832 0.94341296 6962985
-0.92191756 0.28863832 0.94341296 6962985
-0.89190185 0.28207836 0.92197174 6831917
-0.88283885 0.28207836 0.92197174 4727572
-0.8940962 0.28863832 0.94341296 2035721
-0.88482237 0.28863832 0.94341296 1772815
-0.91825831 0.30271825 0.98943311 1903633
-0.93124545 0.31028622 1.014169 1838353
-0.92127615 0.31028622 1.014169 1772815
-0.9113068 0.31028622 1.014169 1575695
-0.9013375 0.31028622 1.014169 1838609
-0.89136815 0.31028622 1.014169 1772817
-0.8813988 0.31028622 1.014169 1773074
-0.85017508 0.30271825 0.98943311 1904144
-0.71788341 0.25857183 0.84514076 1640974
-0.69509453 0.25329486 0.82789302 1575695
-0.7012679 0.25857183 0.84514076 1970194
-0.69296008 0.25857183 0.84514076 1772302
-0.68465233 0.25857183 0.84514076 1312267
-0.66254163 0.25329486 0.82789302 1970964
-0.65440339 0.25329486 0.82789302 2429975
-0.64626521 0.25329486 0.82789302 1904402
-0.63812697 0.25329486 0.82789302 3545629
-0.64311349 0.25857183 0.84514076 4595743
-0.63480568 0.25857183 0.84514076 4463898
-0.62649792 0.25857183 0.84514076 4069142
-0.61819017 0.25857183 0.84514076 3346189
-0.60988241 0.25857183 0.84514076 3281170
-0.6015746 0.25857183 0.84514076 2690834
-0.59326684 0.25857183 0.84514076 2296848
-0.58495909 0.25857183 0.84514076 1837325
-0.57665133 0.25857183 0.84514076 1902604
-0.56834352 0.25857183 0.84514076 1639948
-0.57195139 0.26407334 0.86312246 1574411
-0.56346691 0.26407334 0.86312246 1902348
-0.55498236 0.26407334 0.86312246 1705482
-0.55837822 0.26981407 0.88188601 1311240
-0.5497092 0.26981407 0.88188601 1311497
-0.55306339 0.27580994 0.90148348 851976
-0.54420173 0.27580994 0.90148348 853255
-0.53534013 0.27580994 0.90148348 1181192
-0.52647847 0.27580994 0.90148348 1706505
-0.51761687 0.27580994 0.90148348 2231565
-0.52031785 0.28207836 0.92197174 2560276
-0.5356003 0.29551065 0.96587515 2626324
-1.0522114 0.5910213 1.9317503 8938321
0 0 0 8806474
0 0 0 7621430
0 0 0 5713952
-1.1389638 0.68952495 2.2537088 3348496
-1.1168098 0.68952495 2.2537088 2955288
-1.3135868 0.82742983 2.7044504 3744032
0 0 0 6174260
0 0 0 8994610
0 0 0 11026730
0 0 0 12141352
-1.9677709 1.3790499 4.5074177 12272939
-1.442597 1.0342873 3.380563 12140586
-1.4093659 1.0342873 3.380563 12075558
-1.6513619 1.2411449 4.0566759 12009000
-1.6114845 1.2411449 4.0566759 11877414
-1.964509 1.5514311 5.0708447 11745828
-1.1782538 0.95472682 3.1205199 11811879
-0.93240786 0.77571553 2.5354223 12008998
-0.63129359 0.53962815 1.763772 11944744
-0.61395562 0.53962815 1.763772 12009000
-0.54888827 0.49645793 1.6226703 12140586
-0.53293735 0.49645793 1.6226703 11812134
-0.32311654 0.31028622 1.014169 11615526
-0.30550945 0.30271825 0.98943311 11812386
-0.28202593 0.28863832 0.94341296 11943203
-0.26655322 0.28207836 0.92197174 12074533
-0.25749019 0.28207836 0.92197174 11877668
-0.23762599 0.26981407 0.88188601 12140324
-0.21941712 0.25857183 0.84514076 12205604
-0.21110936 0.25857183 0.84514076 12205348
-0.18366936 0.23417826 0.76541048 12139811
-0.17288339 0.22984163 0.75123626 12008740
-0.16549872 0.22984163 0.75123626 12008997
-0.15523921 0.22566269 0.73757738 12074529
-0.1479888 0.22566269 0.73757738 12204836
-0.14073838 0.22566269 0.73757738 12139813
-0.13348795 0.22566269 0.73757738 12074020
-0.12180816 0.21774471 0.71169752 12335650
-0.10728347 0.20346637 0.66502881 11745313
-0.097547919 0.19700712 0.64391679 11679775
-0.091218188 0.19700712 0.64391679 11942434
-0.084888458 0.19700712 0.64391679 12335650
-0.071727529 0.17987606 0.587924 12139299
-0.063200377 0.17238124 0.56342721 12335904
-0.056871969 0.17001984 0.555709 12007456
-0.051409323 0.17001984 0.555709 11680289
-0.045325778 0.16772227 0.54819942 11614242
-0.039936952 0.16772227 0.54819942 11876639
-0.03454813 0.16772227 0.54819942 11876641
-0.028770514 0.16548598 0.5408901 11679773
-0.02314494 0.16330853 0.53377312 11876641
-0.017897926 0.16330853 0.53377312 12008227
-0.012650913 0.16330853 0.53377312 11877668
-0.0074038985 0.16330853 0.53377312 11876900
-0.0022151789 0.16772227 0.54819942 11745314
0.003261803 0.17238124 0.56342721 12204836
0 0 0 11876639
0 0 0 11548449
0 0 0 12074018
0 0 0 11810846
0 0 0 11746082
0 0 0 11876387
0 0 0 12533031
0 0 0 12204834
0 0 0 12074017
0 0 0 12335906
0 0 0 12336417
0 0 0 12402214
0 0 0 12074273
0 0 0 12270881
0.36567327 0.73008519 2.3862798 12599336
0.3891305 0.73008519 2.3862798 12467748
0.38966623 0.68952495 2.2537088 12467493
0.41182026 0.68952495 2.2537088 11942691
0.41113356 0.65323412 2.1350925 11878181
0.4321216 0.65323412 2.1350925 12206631
0.45310968 0.65323412 2.1350925 12140578
0.50043648 0.68952495 2.2537088 12402471
0.49508578 0.65323412 2.1350925 12271653
0.54474461 0.68952495 2.2537088 12336934
0.637761 0.77571553 2.5354223 12598309
0.66268432 0.77571553 2.5354223 12402467
0.44006887 0.49645793 1.6226703 12468006
0.45601982 0.49645793 1.6226703 12402468
0.49163616 0.51714367 1.6902815 12337444
0.50825173 0.51714367 1.6902815 12796456
0.50387257 0.49645793 1.6226703 12598819
0.46412811 0.443266 1.4488127 12336677
0.49608743 0.45968327 1.5024725 12337190
0.55172533 0.49645793 1.6226703 12534053
0.5913294 0.51714367 1.6902815 12271397
0.58362716 0.49645793 1.6226703 12731432
0.59957808 0.49645793 1.6226703 12271909
0.59185487 0.47736341 1.5602599 12534311
0.60719228 0.47736341 1.5602599 12665382
0.57806325 0.443266 1.4488127 12534569
0.57188082 0.42798096 1.3988537 12534571
0.54784894 0.40036929 1.3086051 12534059
0.54319036 0.38785776 1.2677112 12337705
0.55565202 0.38785776 1.2677112 12402985
0.56811363 0.38785776 1.2677112 12140070
0.58057529 0.38785776 1.2677112 12205607
0.61216718 0.40036929 1.3086051 12075047
0.6458652 0.41371492 1.3522252 11747883
0.65915763 0.41371492 1.3522252 11616810
0.67245007 0.41371492 1.3522252 11617578
0.70938879 0.42798096 1.3988537 11483941
0.72313958 0.42798096 1.3988537 11877926
0.73689038 0.42798096 1.3988537 12009768
0.75064117 0.42798096 1.3988537 12140326
0.79169166 0.443266 1.4488127 11942947
0.80593354 0.443266 1.4488127 12140324
0.82017547 0.443266 1.4488127 11943463
0.83441734 0.443266 1.4488127 12074279
0.84865928 0.443266 1.4488127 11877671
0.86290115 0.443266 1.4488127 11484198
0.87714303 0.443266 1.4488127 11156260
0.89138496 0.443266 1.4488127 10631714
0.90562683 0.443266 1.4488127 10237987
0.91986871 0.443266 1.4488127 11483941
0.93411064 0.443266 1.4488127 11156004
0.9834767 0.45968327 1.5024725 11156260
0.99824607 0.45968327 1.5024725 11483939
1.0130155 0.45968327 1.5024725 11155746
1.067315 0.47736341 1.5602599 11483171
1.0826524 0.47736341 1.5602599 11483941
1.0573236 0.45968327 1.5024725 11287589
1.0338038 0.443266 1.4488127 11156518
1.0480458 0.443266 1.4488127 11024934
1.0622877 0.443266 1.4488127 11287334
1.0765295 0.443266 1.4488127 10893605
1.0531586 0.42798096 1.3988537 10630687
1.0669094 0.42798096 1.3988537 10894120
1.0806602 0.42798096 1.3988537 11024934
1.1334971 0.443266 1.4488127 10762533
1.1081618 0.42798096 1.3988537 11025193
1.1619809 0.443266 1.4488127 11024164
1.1762228 0.443266 1.4488127 10827812
1.1904647 0.443266 1.4488127 10762534
1.2047065 0.443266 1.4488127 10893860
1.2640948 0.45968327 1.5024725 10499361
1.2331904 0.443266 1.4488127 10630947
1.2044173 0.42798096 1.3988537 10697255
1.2181681 0.42798096 1.3988537 10565156
1.2319189 0.42798096 1.3988537 10499875
1.2901579 0.443266 1.4488127 10369058
1.3043998 0.443266 1.4488127 10303780
1.3186418 0.443266 1.4488127 10303267
1.3328836 0.443266 1.4488127 10237735
1.3970191 0.45968327 1.5024725 10237221
1.4117885 0.45968327 1.5024725 10303268
1.4265579 0.45968327 1.5024725 10302497
1.4413272 0.45968327 1.5024725 10238759
1.4040931 0.443266 1.4488127 10109483
1.5885353 0.49645793 1.6226703 10240555
1.6044862 0.49645793 1.6226703 10502700
1.6204371 0.49645793 1.6226703 10371628
1.4610606 0.443266 1.4488127 10240556
1.5299435 0.45968327 1.5024725 10109486
1.6682899 0.49645793 1.6226703 10175020
1.6842408 0.49645793 1.6226703 9977899
1.7001917 0.49645793 1.6226703 9911851
1.7161427 0.49645793 1.6226703 9977645
1.7320936 0.49645793 1.6226703 9911595
1.680812 0.47736341 1.5602599 10042153
1.4225769 0.40036929 1.3086051 9976358
1.4354405 0.40036929 1.3086051 9779494
1.4030447 0.38785776 1.2677112 9779753
1.5098734 0.41371492 1.3522252 9846059
1.5756888 0.42798096 1.3988537 9583657
1.5894396 0.42798096 1.3988537 9911852
1.9371884 0.51714367 1.6902815 10306095
2.0387518 0.53962815 1.763772 9912108
0 0 0 9715500
0 0 0 9977131
0 0 0 9582887
6.0607986 1.5514311 5.0708447 9911337
6.1106453 1.5514311 5.0708447 9583143
5.4759932 1.3790499 4.5074177 9583144
5.5203009 1.3790499 4.5074177 9714731
6.2601852 1.5514311 5.0708447 9715499
10.096051 2.4822898 8.1133518 9846829
0 0 0 9716016
0 0 0 9847600
0 0 0 10045492
0 0 0 9979702
0 0 0 9978674
0 0 0 3548458
0 0 0 3680043
-1.3832989 0.36600631 1.1590502 3416870
-1.4550511 0.38818851 1.2292956 3416872
-1.4005269 0.37677121 1.1931399 3416870
-1.430883 0.38818851 1.2292956 3088675
-1.3770697 0.37677121 1.1931399 2892067
-1.4067149 0.38818851 1.2292956 3023396
-1.3946309 0.38818851 1.2292956 2760996
-1.4717436 0.41323295 1.3086051 2563361
-1.5594922 0.44173175 1.3988537 2365469
-1.4942168 0.42700735 1.3522252 2102811
-1.5319906 0.44173175 1.3988537 1905692
-1.5182399 0.44173175 1.3988537 1839384
-1.4074253 0.41323295 1.3086051 1378830
-0.91981727 0.27255788 0.86312246 1247501
-0.91133273 0.27255788 0.86312246 1838868
-0.90284818 0.27255788 0.86312246 3547943
-0.87573111 0.26687959 0.84514076 5058088
-0.8858791 0.27255788 0.86312246 5912105
-0.91638994 0.28467157 0.90148348 6241065
-0.90752828 0.28467157 0.90148348 6241065
-0.89866668 0.28467157 0.90148348 6766124
-0.88980502 0.28467157 0.90148348 5976348
-0.86179245 0.27848306 0.88188601 4399894
-0.85312349 0.27848306 0.88188601 2297611
-0.84445453 0.27848306 0.88188601 2101010
-0.83578551 0.27848306 0.88188601 2956317
-0.82711655 0.27848306 0.88188601 2561559
-0.81844759 0.27848306 0.88188601 1706765
-0.79254925 0.27255788 0.86312246 1838351
-0.78406471 0.27255788 0.86312246 1641229
-0.77558017 0.27255788 0.86312246 1838608
-0.76709569 0.27255788 0.86312246 1707022
-0.74280673 0.26687959 0.84514076 1838608
-0.73449898 0.26687959 0.84514076 1838351
-0.69714355 0.25620443 0.81133515 1707022
-0.6891681 0.25620443 0.81133515 1444109
-0.69509453 0.26143309 0.82789302 1378314
-0.68695635 0.26143309 0.82789302 656134
-0.67881811 0.26143309 0.82789302 786695
-0.67067987 0.26143309 0.82789302 1180938
-0.66254163 0.26143309 0.82789302 1378062
-0.65440339 0.26143309 0.82789302 1378317
-0.64626521 0.26143309 0.82789302 2364441
-0.63812697 0.26143309 0.82789302 3676956
-0.62998873 0.26143309 0.82789302 3282198
-0.62185049 0.26143309 0.82789302 2690062
-0.62649792 0.26687959 0.84514076 1640204
-0.61819017 0.26687959 0.84514076 1443853
-0.60988241 0.26687959 0.84514076 1311496
-0.6015746 0.26687959 0.84514076 983045
-0.59326684 0.26687959 0.84514076 655622
-0.58495909 0.26687959 0.84514076 786696
-0.57665133 0.26687959 0.84514076 721675
-0.56834352 0.26687959 0.84514076 852489
-0.56003577 0.26687959 0.84514076 1115663
-0.56346691 0.27255788 0.86312246 983559
-0.5434202 0.26687959 0.84514076 1574923
-0.53511244 0.26687959 0.84514076 2298389
-0.5497092 0.27848306 0.88188601 3218458
-0.55306339 0.28467157 0.90148348 3875358
-0.54420173 0.28467157 0.90148348 4204576
-0.53534013 0.28467157 0.90148348 4006173
-0.5150333 0.27848306 0.88188601 4269086
-0.50636435 0.27848306 0.88188601 4597020
-0.50875527 0.28467157 0.90148348 4663585
-0.49989364 0.28467157 0.90148348 4596765
-0.50219184 0.29114139 0.92197174 6240046
-0.5166111 0.30500525 0.96587515 10576964
0 0 0 10246200
0 0 0 10702128
0 0 0 11224619
0 0 0 11748137
0 0 0 12206117
0 0 0 11943715
0 0 0 11943464
0 0 0 12075302
0 0 0 12074788
-1.9677709 1.423358 4.5074177 12008484
-1.442597 1.0675184 3.380563 11878697
-1.3009531 0.98540163 3.1205199 12206119
-1.2702783 0.98540163 3.1205199 11549990
-1.6114845 1.2810222 4.0566759 12009256
-1.5716072 1.2810222 4.0566759 12140840
-1.0940927 0.91501576 2.8976254 12074789
-0.93240786 0.80063885 2.5354223 11943460
-0.63129359 0.55696613 1.763772 12008997
-0.61395562 0.55696613 1.763772 12139811
-0.57175863 0.53375918 1.6902815 12205604
-0.53293735 0.51240885 1.6226703 12206117
-0.51698643 0.51240885 1.6226703 11811875
-0.30550945 0.31244442 0.98943311 12074534
-0.28874081 0.30500525 0.96587515 11877414
-0.27275214 0.29791212 0.94341296 12074533
-0.24629496 0.27848306 0.88188601 11877925
-0.23762599 0.27848306 0.88188601 12205605
-0.21941712 0.26687959 0.84514076 11614497
-0.21110936 0.26687959 0.84514076 12008227
-0.18366936 0.24170227 0.76541048 11877670
-0.16974005 0.23291311 0.73757738 11548705
-0.16248964 0.23291311 0.73757738 11811107
-0.15246709 0.22875394 0.72440636 12139299
-0.14534613 0.22875394 0.72440636 12074276
-0.1382252 0.22875394 0.72440636 11942945
-0.13110425 0.22875394 0.72440636 12336674
-0.1239833 0.22875394 0.72440636 11943461
-0.11481214 0.22474073 0.71169752 11680289
-0.099121273 0.20661648 0.65430254 12008997
-0.091218188 0.20333685 0.64391679 11745826
-0.084888458 0.20333685 0.64391679 11810850
-0.068738893 0.17791975 0.56342721 12008227
-0.062334612 0.17548248 0.555709 11942179
-0.056871969 0.17548248 0.555709 12073761
-0.051409323 0.17548248 0.555709 12139297
-0.04594668 0.17548248 0.555709 12007714
-0.039936952 0.1731111 0.54819942 12139296
-0.03454813 0.1731111 0.54819942 12008227
-0.028770514 0.17080295 0.5408901 12270882
-0.02314494 0.16855554 0.53377312 11811359
-0.017897926 0.16855554 0.53377312 11482910
-0.012650913 0.16855554 0.53377312 11483171
-0.0074038985 0.16855554 0.53377312 11679521
-0.0022151789 0.1731111 0.54819942 11482910
0.003261803 0.17791975 0.56342721 11548703
0 0 0 11811620
0 0 0 11942947
0 0 0 12074279
0 0 0 11876900
0 0 0 12729892
0 0 0 12271140
0 0 0 12532514
0 0 0 12139042
0 0 0 11812133
0 0 0 11943201
0 0 0 12205345
0 0 0 12074274
0 0 0 12598564
0 0 0 12336162
0.36567327 0.75354242 2.3862798 12335906
0.3891305 0.75354242 2.3862798 12467236
0.3506996 0.6405111 2.028338 12271397
0.37063825 0.6405111 2.028338 12336421
0.3905769 0.6405111 2.028338 12336420
0.41051555 0.6405111 2.028338 12205604
0.45310968 0.67422217 2.1350925 12271652
0.47409773 0.67422217 2.1350925 12336424
0.49508578 0.67422217 2.1350925 12599592
0.51607382 0.67422217 2.1350925 12271397
0.53706187 0.67422217 2.1350925 12402211
0.42411795 0.51240885 1.6226703 12205349
0.40747118 0.47445264 1.5024725 12140068
0.43848059 0.49270082 1.5602599 12402469
0.45381802 0.49270082 1.5602599 12270629
0.48792166 0.51240885 1.6226703 12205861
0.4498862 0.45750788 1.4488127 12468264
0.44812369 0.44173175 1.3988537 12665126
0.47837001 0.45750788 1.4488127 12469030
0.55172533 0.51240885 1.6226703 12271651
0.56767625 0.51240885 1.6226703 12337702
0.58362716 0.51240885 1.6226703 12402983
0.59957808 0.51240885 1.6226703 12271141
0.59185487 0.49270082 1.5602599 12337444
0.56382138 0.45750788 1.4488127 12337190
0.55813003 0.44173175 1.3988537 12205606
0.55281812 0.42700735 1.3522252 12599847
0.54784894 0.41323295 1.3086051 12468519
0.54319036 0.40031943 1.2677112 12337703
0.53881401 0.38818851 1.2292956 12402467
0.56811363 0.40031943 1.2677112 12271397
0.58057529 0.40031943 1.2677112 12140326
0.61216718 0.41323295 1.3086051 12074533
0.6458652 0.42700735 1.3522252 12074788
0.65915763 0.42700735 1.3522252 12140325
0.67245007 0.42700735 1.3522252 12008740
0.6857425 0.42700735 1.3522252 12009511
0.69903493 0.42700735 1.3522252 11811878
0.68934906 0.41323295 1.3086051 11681063
0.72561979 0.42700735 1.3522252 11681319
0.71507639 0.41323295 1.3086051 11418916
0.75220466 0.42700735 1.3522252 11943720
0.76549709 0.42700735 1.3522252 11812134
0.80564433 0.44173175 1.3988537 11615269
0.81939512 0.44173175 1.3988537 11484711
0.83314592 0.44173175 1.3988537 11485226
0.84689671 0.44173175 1.3988537 11549477
0.8606475 0.44173175 1.3988537 11746343
0.87439829 0.44173175 1.3988537 11550247
0.88814908 0.44173175 1.3988537 11353382
0.90189987 0.44173175 1.3988537 11352867
0.9834767 0.47445264 1.5024725 11156259
0.99824607 0.47445264 1.5024725 11418916
1.0130155 0.47445264 1.5024725 11418918
1.0277848 0.47445264 1.5024725 11222052
1.0425543 0.47445264 1.5024725 11287332
1.019562 0.45750788 1.4488127 11155748
0.99815547 0.44173175 1.3988537 11287334
1.0119063 0.44173175 1.3988537 11025445
1.0622877 0.45750788 1.4488127 11090468
1.0765295 0.45750788 1.4488127 11221797
1.0531586 0.44173175 1.3988537 10761761
1.0669094 0.44173175 1.3988537 10696480
1.0806602 0.44173175 1.3988537 11221797
1.094411 0.44173175 1.3988537 11090211
1.1081618 0.44173175 1.3988537 11024418
1.1219126 0.44173175 1.3988537 11024675
1.1356634 0.44173175 1.3988537 10696739
1.1904647 0.45750788 1.4488127 10499618
1.2047065 0.45750788 1.4488127 10434081
1.2640948 0.47445264 1.5024725 10893859
1.2331904 0.45750788 1.4488127 11024678
1.2044173 0.44173175 1.3988537 10630948
1.2181681 0.44173175 1.3988537 10433824
1.2759161 0.45750788 1.4488127 10762533
1.2901579 0.45750788 1.4488127 10828066
1.3043998 0.45750788 1.4488127 10827042
1.3674804 0.47445264 1.5024725 10828326
1.3822497 0.47445264 1.5024725 10368803
1.3970191 0.47445264 1.5024725 10368549
1.3144237 0.44173175 1.3988537 10499363
1.283902 0.42700735 1.3522252 10499363
1.3419253 0.44173175 1.3988537 10303782
1.4040931 0.45750788 1.4488127 10304298
1.470866 0.47445264 1.5024725 9844776
1.4325769 0.45750788 1.4488127 9911850
1.4468188 0.45750788 1.4488127 9977643
1.4610606 0.45750788 1.4488127 10241329
1.5887874 0.49270082 1.5602599 10108972
1.6682899 0.51240885 1.6226703 10174506
1.6842408 0.51240885 1.6226703 10043177
1.7001917 0.51240885 1.6226703 10043693
1.7161427 0.51240885 1.6226703 9846571
1.7320936 0.51240885 1.6226703 10109231
1.680812 0.49270082 1.5602599 10108974
1.3781214 0.40031943 1.2677112 10173994
1.390583 0.40031943 1.2677112 9977643
1.4030447 0.40031943 1.2677112 9779753
1.3726121 0.38818851 1.2292956 9976362
1.427968 0.40031943 1.2677112 9779753
1.5894396 0.44173175 1.3988537 9517094
1.6031904 0.44173175 1.3988537 9320231
1.953804 0.53375918 1.6902815 9255208
5.2544522 1.423358 4.5074177 9582887
0 0 0 9910311
0 0 0 9714216
0 0 0 9648937
6.1106453 1.6012777 5.0708447 9648678
5.4759932 1.423358 4.5074177 9649448
6.2103386 1.6012777 5.0708447 9715243
10.016296 2.5620444 8.1133518 9715243
0 0 0 9846827
0 0 0 9650219
0 0 0 9848369
0 0 0 9848115
0 0 0 10175792
0 0 0 9585200
0 0 0 3680044
0 0 0 3351592
-1.3085259 0.35699984 1.0963988 3680557
-1.2977483 0.35699984 1.0963988 3219490
-1.3227199 0.36691654 1.1268544 3286056
-1.3116429 0.36691654 1.1268544 3154470
-1.3770697 0.38849983 1.1931399 3088934
-1.4067149 0.40027252 1.2292956 2826532
-1.4846072 0.42609659 1.3086051 2759969
-1.573243 0.45548254 1.3988537 2234140
-1.5594922 0.45548254 1.3988537 2102813
-1.4942168 0.44029978 1.3522252 1774363
-1.4809244 0.44029978 1.3522252 1643032
-1.5724628 0.47174978 1.4488127 1577749
-1.5582209 0.47174978 1.4488127 1577236
-1.0544246 0.32217059 0.98943311 1576465
-0.89234662 0.27518737 0.84514076 3021598
-0.86599725 0.2695713 0.82789302 4400932
-0.85785908 0.2695713 0.82789302 4400926
-0.84972084 0.2695713 0.82789302 4597530
-0.85911554 0.27518737 0.84514076 5583908
-0.88779938 0.28715205 0.88188601 5582879
-0.87913042 0.28715205 0.88188601 6043176
-0.85194099 0.28104243 0.86312246 4401440
-0.8090297 0.2695713 0.82789302 1772814
-0.81757671 0.27518737 0.84514076 1706767
-0.82648736 0.28104243 0.86312246 1772817
-0.80096114 0.27518737 0.84514076 1838353
-0.79265338 0.27518737 0.84514076 1771789
-0.78434557 0.27518737 0.84514076 2889495
-0.77603781 0.27518737 0.84514076 2693399
-0.78406471 0.28104243 0.86312246 1970194
-0.77558017 0.28104243 0.86312246 1838349
-0.75111449 0.27518737 0.84514076 1903888
-0.74280673 0.27518737 0.84514076 1969424
-0.70511901 0.26417989 0.81133515 1838609
-0.69714355 0.26417989 0.81133515 1904658
-0.6891681 0.26417989 0.81133515 1641488
-0.69509453 0.2695713 0.82789302 655879
-0.68695635 0.2695713 0.82789302 327684
-0.67881811 0.2695713 0.82789302 524292
-0.67067987 0.2695713 0.82789302 393222
-0.66254163 0.2695713 0.82789302 589831
-0.65440339 0.2695713 0.82789302 720904
-0.64626521 0.2695713 0.82789302 1049609
-0.63812697 0.2695713 0.82789302 1509646
-0.62998873 0.2695713 0.82789302 1114890
-0.62185049 0.2695713 0.82789302 720901
-0.61371231 0.2695713 0.82789302 786440
-0.60557407 0.2695713 0.82789302 786696
-0.59743583 0.2695713 0.82789302 852743
-0.58929759 0.2695713 0.82789302 852489
-0.59326684 0.27518737 0.84514076 721675
-0.58495909 0.27518737 0.84514076 1182225
-0.57665133 0.27518737 0.84514076 2627613
-0.56834352 0.27518737 0.84514076 3810084
-0.56003577 0.27518737 0.84514076 4334884
-0.55172801 0.27518737 0.84514076 4990758
-0.53233004 0.2695713 0.82789302 4922653
-0.5241918 0.2695713 0.82789302 2823961
-0.52680469 0.27518737 0.84514076 4861999
-0.55306339 0.29353321 0.90148348 5119771
-0.55656999 0.3002044 0.92197174 4727071
-0.54750693 0.3002044 0.92197174 5518887
-0.5150333 0.28715205 0.88188601 6174763
-0.50636435 0.28715205 0.88188601 7223853
-0.49769536 0.28715205 0.88188601 8731948
-0.49989364 0.29353321 0.90148348 10699052
-0.491032 0.29353321 0.90148348 11419691
-0.49312881 0.3002044 0.92197174 11747113
-0.50711656 0.31449986 0.96587515 12075308
0 0 0 11812904
0 0 0 11878697
0 0 0 12009257
0 0 0 12075049
0 0 0 11943207
0 0 0 12074274
0 0 0 11680287
0 0 0 11812134
0 0 0 11877414
-1.442597 1.1007495 3.380563 12206375
-1.1274927 0.88059956 2.7044504 12206119
-1.1009078 0.88059956 2.7044504 12205863
-1.0743229 0.88059956 2.7044504 12205095
-1.2089287 1.0160766 3.1205199 12337190
-1.1782538 1.0160766 3.1205199 12140840
-0.93240786 0.82556212 2.5354223 11747878
-0.65998876 0.60040879 1.8439435 12008996
-0.61395562 0.5743041 1.763772 12074534
-0.57175863 0.55037475 1.6902815 12008997
-0.53293735 0.52835977 1.6226703 11942693
-0.43082201 0.44029978 1.3522252 11680035
-0.31314722 0.33022487 1.014169 11746338
-0.28874081 0.31449986 0.96587515 11942947
-0.2606298 0.29353321 0.90148348 11877924
-0.23603266 0.27518737 0.84514076 11942947
-0.22772489 0.27518737 0.84514076 11942948
-0.21941712 0.27518737 0.84514076 12074790
-0.21110936 0.27518737 0.84514076 11745825
-0.17699048 0.24016352 0.73757738 11352609
-0.16670898 0.23587489 0.72440636 11680549
-0.15958804 0.23587489 0.72440636 11286562
-0.15246709 0.23587489 0.72440636 11680036
-0.14534613 0.23587489 0.72440636 11811618
-0.13345881 0.22774127 0.69942683 11745828
-0.12658341 0.22774127 0.69942683 12204834
-0.12180816 0.23173675 0.71169752 12269859
-0.11283262 0.22774127 0.69942683 11811359
-0.099121273 0.21304829 0.65430254 11811875
-0.089792907 0.20639053 0.63385558 11811361
-0.073259905 0.18094513 0.555709 11876900
-0.067797258 0.18094513 0.555709 11613982
-0.062334612 0.18094513 0.555709 11548447
-0.056871969 0.18094513 0.555709 11745308
-0.051409323 0.18094513 0.555709 11811103
-0.04594668 0.18094513 0.555709 11745057
-0.039936952 0.17849992 0.54819942 12007457
-0.03454813 0.17849992 0.54819942 11942434
-0.029159304 0.17849992 0.54819942 12138529
-0.02314494 0.17380255 0.53377312 12073250
-0.017897926 0.17380255 0.53377312 11876642
-0.012650913 0.17380255 0.53377312 11679778
-0.0074038985 0.17380255 0.53377312 11876385
-0.0022151789 0.17849992 0.54819942 11810850
0.003261803 0.18345827 0.56342721 11745313
0 0 0 11811104
0 0 0 12008483
0 0 0 11811104
0 0 0 12008482
0 0 0 12336163
0 0 0 12139042
0 0 0 12466719
0 0 0 12270114
0 0 0 12401700
0 0 0 12401955
0 0 0 12204579
0 0 0 12336419
0 0 0 12466977
0 0 0 12205604
0.36567327 0.77699965 2.3862798 12271399
0.3891305 0.77699965 2.3862798 12074787
0.41258773 0.77699965 2.3862798 12008740
0.41182026 0.73383307 2.2537088 12205604
0.43397433 0.73383307 2.2537088 11943202
0.45612839 0.73383307 2.2537088 12074274
0.47828245 0.73383307 2.2537088 12337191
0.50043648 0.73383307 2.2537088 12533284
0.55333114 0.77699965 2.3862798 12402215
0.70038593 0.94349957 2.8976254 12599334
0 0 0 12729635
0.42411795 0.52835977 1.6226703 12599590
0.40747118 0.48922202 1.5024725 12402213
0.43848059 0.50803828 1.5602599 12205604
0.45381802 0.50803828 1.5602599 12206119
0.45177931 0.48922202 1.5024725 12271139
0.4343729 0.45548254 1.3988537 12468260
0.44812369 0.45548254 1.3988537 12206117
0.46187449 0.45548254 1.3988537 12337192
0.53050512 0.50803828 1.5602599 12206117
0.56767625 0.52835977 1.6226703 12205604
0.58362716 0.52835977 1.6226703 12337191
0.59957808 0.52835977 1.6226703 12140065
0.615529 0.52835977 1.6226703 12533029
0.56382138 0.47174978 1.4488127 12205604
0.53952569 0.44029978 1.3522252 12402985
0.55281812 0.44029978 1.3522252 12271656
0.54784894 0.42609659 1.3086051 12534313
0.52673 0.40027252 1.2292956 12140324
0.53881401 0.40027252 1.2292956 11943716
0.55089808 0.40027252 1.2292956 12140069
0.58057529 0.41278106 1.2677112 11943207
0.61216718 0.42609659 1.3086051 12074533
0.6458652 0.44029978 1.3522252 12074535
0.65915763 0.44029978 1.3522252 12008740
0.67245007 0.44029978 1.3522252 11943205
0.6857425 0.44029978 1.3522252 12008998
0.69903493 0.44029978 1.3522252 12074793
0.68934906 0.42609659 1.3086051 12008740
0.70221269 0.42609659 1.3086051 12140326
0.69273025 0.41278106 1.2677112 11943974
0.70519191 0.41278106 1.2677112 11681319
0.74080366 0.42609659 1.3086051 11812136
0.77878952 0.44029978 1.3522252 11353383
0.79208195 0.44029978 1.3522252 11419429
0.80537438 0.44029978 1.3522252 11943720
0.84689671 0.45548254 1.3988537 11484709
0.8606475 0.45548254 1.3988537 11681322
0.87439829 0.45548254 1.3988537 11353126
0.88814908 0.45548254 1.3988537 11024675
0.90189987 0.45548254 1.3988537 11484713
0.94835252 0.47174978 1.4488127 11681318
0.99824607 0.48922202 1.5024725 11221541
1.0130155 0.48922202 1.5024725 11548964
1.0277848 0.48922202 1.5024725 11417889
1.0053201 0.47174978 1.4488127 11155490
0.98440468 0.45548254 1.3988537 11156007
0.99815547 0.45548254 1.3988537 11221541
1.0480458 0.47174978 1.4488127 11024677
1.0622877 0.47174978 1.4488127 11155747
1.0765295 0.47174978 1.4488127 11090468
1.0531586 0.45548254 1.3988537 11155747
1.0669094 0.45548254 1.3988537 10762533
1.0806602 0.45548254 1.3988537 11287334
1.094411 0.45548254 1.3988537 11417892
1.1081618 0.45548254 1.3988537 11155490
1.1219126 0.45548254 1.3988537 11024675
1.1356634 0.45548254 1.3988537 11221541
1.1904647 0.47174978 1.4488127 10958883
1.2047065 0.47174978 1.4488127 11090471
1.2640948 0.48922202 1.5024725 10761760
1.2788641 0.48922202 1.5024725 10827042
1.2474322 0.47174978 1.4488127 10762021
1.2181681 0.45548254 1.3988537 10629663
1.2319189 0.45548254 1.3988537 10696740
1.2456697 0.45548254 1.3988537 10499619
1.2594205 0.45548254 1.3988537 10761249
1.3186418 0.47174978 1.4488127 10564642
1.3822497 0.48922202 1.5024725 10762278
1.3471255 0.47174978 1.4488127 10565413
1.3144237 0.45548254 1.3988537 10630694
1.3281745 0.45548254 1.3988537 10630434
1.4413272 0.48922202 1.5024725 10173480
1.4560966 0.48922202 1.5024725 10173993
1.470866 0.48922202 1.5024725 10306095
1.4325769 0.47174978 1.4488127 10108716
1.4468188 0.47174978 1.4488127 10239787
1.5734501 0.50803828 1.5602599 9977132
1.652339 0.52835977 1.6226703 10108718
1.6682899 0.52835977 1.6226703 9977130
1.6842408 0.52835977 1.6226703 9977643
1.7001917 0.52835977 1.6226703 9715499
1.7161427 0.52835977 1.6226703 9583914
1.7320936 0.52835977 1.6226703 10042153
1.680812 0.50803828 1.5602599 9911852
1.4225769 0.42609659 1.3086051 9845546
1.4354405 0.42609659 1.3086051 10239532
1.496581 0.44029978 1.3522252 10108974
1.5098734 0.44029978 1.3522252 9976360
0 0 0 9846059
0 0 0 9911598
0 0 0 9780782
0 0 0 9715242
6.755724 1.8869991 5.7952509 9648938
6.8126917 1.8869991 5.7952509 9779242
6.010952 1.6511242 5.0708447 9845035
9.697278 2.641799 8.1133518 9779240
9.7770329 2.641799 8.1133518 9451817
0 0 0 9255205
0 0 0 9386793
0 0 0 9778981
0 0 0 9518120
0 0 0 9386791
0 0 0 9847085
0 0 0 9913644
0 0 0 9978925
0 0 0 9913649
0 0 0 3416870
0 0 0 3351846
-1.3085259 0.3677775 1.0963988 3022883
-1.2977483 0.3677775 1.0963988 3220520
-1.2869707 0.3677775 1.0963988 3088421
-1.3887984 0.40022844 1.1931399 3153701
-1.418799 0.41235656 1.2292956 2825763
-1.4067149 0.41235656 1.2292956 2759971
-1.4846072 0.43896022 1.3086051 2497313
-1.5208017 0.45359221 1.3522252 2233374
-1.5075092 0.45359221 1.3522252 1905949
-1.5457414 0.46923333 1.3988537 1774615
-1.5867046 0.48599169 1.4488127 1774873
-1.5724628 0.48599169 1.4488127 1708824
-1.5582209 0.48599169 1.4488127 1708823
-1.4907383 0.46923333 1.3988537 1642516
-0.95183641 0.30239484 0.90148348 1772559
-0.86599725 0.27770954 0.82789302 4006691
-0.85785908 0.27770954 0.82789302 5188647
-0.84972084 0.27770954 0.82789302 5846056
-0.8415826 0.27770954 0.82789302 5912105
-0.85080779 0.28349516 0.84514076 5781291
-0.82530618 0.27770954 0.82789302 3283990
-0.80082458 0.27215534 0.81133515 1838351
-0.79284912 0.27215534 0.81133515 1641231
-0.80089146 0.27770954 0.82789302 1772817
-0.79275328 0.27770954 0.82789302 1509645
-0.80096114 0.28349516 0.84514076 1575695
-0.79265338 0.28349516 0.84514076 1575436
-0.78434557 0.28349516 0.84514076 1706766
-0.77603781 0.28349516 0.84514076 1838097
-0.76773006 0.28349516 0.84514076 1773074
-0.7594223 0.28349516 0.84514076 1772814
-0.75111449 0.28349516 0.84514076 1706251
-0.72764742 0.27770954 0.82789302 1509132
-0.70511901 0.27215534 0.81133515 1378060
-0.68347406 0.26681897 0.79542661 984075
-0.6891681 0.27215534 0.81133515 918282
-0.69509453 0.27770954 0.82789302 852491
-0.68695635 0.27770954 0.82789302 655624
-0.67881811 0.27770954 0.82789302 590087
-0.67067987 0.27770954 0.82789302 655882
-0.66254163 0.27770954 0.82789302 655628
-0.65440339 0.27770954 0.82789302 655881
-0.64626521 0.27770954 0.82789302 721159
-0.63812697 0.27770954 0.82789302 1246988
-0.62998873 0.27770954 0.82789302 1180938
-0.62185049 0.27770954 0.82789302 1576724
-0.61371231 0.27770954 0.82789302 2102810
-0.60557407 0.27770954 0.82789302 2563360
-0.59743583 0.27770954 0.82789302 2758682
-0.58929759 0.27770954 0.82789302 3020823
-0.59326684 0.28349516 0.84514076 3415065
-0.57302117 0.27770954 0.82789302 3677980
-0.56488293 0.27770954 0.82789302 3875618
-0.55674469 0.27770954 0.82789302 5321258
-0.54860646 0.27770954 0.82789302 2756112
-0.55172801 0.28349516 0.84514076 3086103
-0.53233004 0.27770954 0.82789302 4071705
-0.53511244 0.28349516 0.84514076 5517354
-0.5497092 0.29582101 0.88188601 7026737
-0.54104024 0.29582101 0.88188601 9389109
-0.55656999 0.30926743 0.92197174 10567468
-0.54750693 0.30926743 0.92197174 11419434
-0.53844392 0.30926743 0.92197174 11287845
-0.51761687 0.30239484 0.90148348 11485222
-0.50875527 0.30239484 0.90148348 11615012
-0.49989364 0.30239484 0.90148348 11878439
-0.491032 0.30239484 0.90148348 12009254
-0.48217037 0.30239484 0.90148348 12140072
-0.49532312 0.31645972 0.94341296 12075047
0 0 0 12271912
0 0 0 12206117
0 0 0 11877928
0 0 0 11550246
0 0 0 11550247
0 0 0 12075048
0 0 0 12074533
0 0 0 12075299
0 0 0 12140581
-1.9234627 1.5119742 4.5074177 12140324
-1.3009531 1.0467514 3.1205199 12074789
-0.97138929 0.80045688 2.3862798 12336676
-1.2396035 1.0467514 3.1205199 12206376
-1.2089287 1.0467514 3.1205199 12074789
-1.1782538 1.0467514 3.1205199 11877668
-0.87756032 0.80045688 2.3862798 11615779
-0.80665296 0.75598711 2.2537088 12140327
-0.67242759 0.64798892 1.9317503 11877668
-0.57175863 0.56699032 1.6902815 11877410
-0.53293735 0.54431069 1.6226703 12140326
-0.41692454 0.43896022 1.3086051 12140070
-0.30550945 0.33189675 0.98943311 12074531
-0.28874081 0.32399446 0.96587515 11877924
-0.2606298 0.30239484 0.90148348 11877924
-0.23603266 0.28349516 0.84514076 11746082
-0.22772489 0.28349516 0.84514076 11745828
-0.21941712 0.28349516 0.84514076 12008738
-0.20680101 0.27770954 0.82789302 11548449
-0.17382993 0.24299584 0.72440636 11811618
-0.16378428 0.23873277 0.71169752 11680035
-0.15678826 0.23873277 0.71169752 11549222
-0.15811403 0.25199568 0.75123626 11745570
-0.15072934 0.25199568 0.75123626 11942690
-0.13345881 0.23461667 0.69942683 11877924
-0.12658341 0.23461667 0.69942683 11614752
-0.12180816 0.23873277 0.71169752 11942693
-0.11481214 0.23873277 0.71169752 11877154
-0.10781612 0.23873277 0.71169752 11549216
-0.089792907 0.21262136 0.63385558 11680035
-0.073259905 0.18640777 0.555709 11941664
-0.067797258 0.18640777 0.555709 11745568
-0.062334612 0.18640777 0.555709 11810596
-0.056871969 0.18640777 0.555709 11286303
-0.051409323 0.18640777 0.555709 11548703
-0.04594668 0.18640777 0.555709 11482656
-0.040484034 0.18640777 0.555709 11482656
-0.03454813 0.18388875 0.54819942 11876642
-0.029159304 0.18388875 0.54819942 11942436
-0.023770478 0.18388875 0.54819942 12007456
-0.018136565 0.1814369 0.5408901 11679777
-0.012650913 0.17904957 0.53377312 11876898
-0.0074038985 0.17904957 0.53377312 12007713
-0.0022151789 0.18388875 0.54819942 11810849
0.0034036203 0.19721401 0.587924 11745569
0 0 0 12008225
0 0 0 12008483
0 0 0 12073763
0 0 0 12139812
0 0 0 11877152
0 0 0 12205094
0 0 0 11876642
0 0 0 12074275
0 0 0 12532516
0 0 0 12270114
0 0 0 12402213
0 0 0 11876641
0 0 0 12073249
0.44751328 1.0467514 3.1205199 12204321
0.47818813 1.0467514 3.1205199 12401700
0.41345116 0.85048544 2.5354223 12073506
0.43837446 0.85048544 2.5354223 11877667
0.46329778 0.85048544 2.5354223 12008996
0.48822111 0.85048544 2.5354223 12140325
0.48295945 0.80045688 2.3862798 12140325
0.50641668 0.80045688 2.3862798 12009252
0.52987391 0.80045688 2.3862798 12336420
1.1758287 1.7009709 5.0708447 11942689
0 0 0 12402214
0 0 0 12270884
0 0 0 12335904
0.40747118 0.50399137 1.5024725 12533281
0.45601982 0.54431069 1.6226703 12140324
0.47197074 0.54431069 1.6226703 12271142
0.45177931 0.50399137 1.5024725 12336161
0.4498862 0.48599169 1.4488127 12335904
0.44812369 0.46923333 1.3988537 12271651
0.47837001 0.48599169 1.4488127 12074790
0.53050512 0.52337569 1.5602599 12140581
0.56767625 0.54431069 1.6226703 12074275
0.58362716 0.54431069 1.6226703 12205604
0.59957808 0.54431069 1.6226703 12139813
0.615529 0.54431069 1.6226703 12270629
0.56382138 0.48599169 1.4488127 12468006
0.55813003 0.46923333 1.3988537 12337188
0.57188082 0.46923333 1.3988537 12336677
0.54784894 0.43896022 1.3086051 12139301
0.54319036 0.42524272 1.2677112 12008740
0.53881401 0.41235656 1.2292956 12139813
0.55089808 0.41235656 1.2292956 11942693
0.56298208 0.41235656 1.2292956 11812134
0.59303695 0.42524272 1.2677112 11943464
0.60549861 0.42524272 1.2677112 11550246
0.61796027 0.42524272 1.2677112 11615012
0.67245007 0.45359221 1.3522252 12140073
0.6428836 0.42524272 1.2677112 11943207
0.65534526 0.42524272 1.2677112 12205606
0.66780692 0.42524272 1.2677112 11877671
0.68026859 0.42524272 1.2677112 11943720
0.69273025 0.42524272 1.2677112 11811362
0.70519191 0.42524272 1.2677112 11943718
0.74080366 0.43896022 1.3086051 11614755
0.77878952 0.45359221 1.3522252 11681061
0.79208195 0.45359221 1.3522252 11746343
0.80537438 0.45359221 1.3522252 11680805
0.81866682 0.45359221 1.3522252 11616037
0.8606475 0.46923333 1.3988537 11287589
0.87439829 0.46923333 1.3988537 11221541
0.88814908 0.46923333 1.3988537 10959399
1.0059654 0.52337569 1.5602599 11156777
1.0213027 0.52337569 1.5602599 11025188
0.96259439 0.48599169 1.4488127 10959142
0.97683632 0.48599169 1.4488127 11286561
0.9910782 0.48599169 1.4488127 10959650
1.0053201 0.48599169 1.4488127 10893859
1.019562 0.48599169 1.4488127 11287334
1.0338038 0.48599169 1.4488127 11221796
1.0868623 0.50399137 1.5024725 11156261
1.1016316 0.50399137 1.5024725 10958369
1.0765295 0.48599169 1.4488127 11352355
1.0531586 0.46923333 1.3988537 10959138
1.0669094 0.46923333 1.3988537 10696739
1.0806602 0.46923333 1.3988537 10959140
1.094411 0.46923333 1.3988537 10827812
1.1081618 0.46923333 1.3988537 11221030
1.1619809 0.48599169 1.4488127 10959652
1.1356634 0.46923333 1.3988537 10564899
1.1494142 0.46923333 1.3988537 10631206
1.2047065 0.48599169 1.4488127 10696484
1.2640948 0.50399137 1.5024725 10892835
1.2788641 0.50399137 1.5024725 10827816
1.2936336 0.50399137 1.5024725 10827814
1.2181681 0.46923333 1.3988537 11155749
1.2319189 0.46923333 1.3988537 10696740
1.2456697 0.46923333 1.3988537 10630433
1.2594205 0.46923333 1.3988537 10630949
1.2731713 0.46923333 1.3988537 10696742
1.3822497 0.50399137 1.5024725 10696224
1.3970191 0.50399137 1.5024725 10564897
1.3144237 0.46923333 1.3988537 10433570
1.3281745 0.46923333 1.3988537 10499106
1.496763 0.52337569 1.5602599 10172965
1.4040931 0.48599169 1.4488127 10238502
1.418335 0.48599169 1.4488127 10108714
1.4325769 0.48599169 1.4488127 10173739
1.5004047 0.50399137 1.5024725 10239784
1.5734501 0.52337569 1.5602599 10174509
1.652339 0.54431069 1.6226703 9912105
1.6682899 0.54431069 1.6226703 10042923
1.6842408 0.54431069 1.6226703 10108971
1.7001917 0.54431069 1.6226703 9977897
1.7161427 0.54431069 1.6226703 9912104
1.7320936 0.54431069 1.6226703 10043177
1.680812 0.52337569 1.5602599 9845288
1.5206857 0.46923333 1.3988537 9778984
1.5892377 0.48599169 1.4488127 9517610
1.7268243 0.52337569 1.5602599 9648167
0 0 0 9910569
0 0 0 9648425
0 0 0 9452329
0 0 0 9583145
6.6987562 1.9439667 5.7952509 9583659
6.755724 1.9439667 5.7952509 9781293
6.8126917 1.9439667 5.7952509 9846571
6.8696589 1.9439667 5.7952509 9911852
0 0 0 9845547
0 0 0 9583657
0 0 0 9846057
0 0 0 9385506
0 0 0 9714472
0 0 0 9648424
0 0 0 9452071
0 0 0 9649450
0 0 0 9518891
0 0 0 9978667
0 0 0 9978924
0 0 0 3220518
0 0 0 2891555
-1.3085259 0.37855515 1.0963988 3023141
-1.2977483 0.37855515 1.0963988 2693922
-1.2869707 0.37855515 1.0963988 2628129
-1.3116429 0.38907057 1.1268544 2496543
-1.3770697 0.41195706 1.1931399 2496541
-1.4067149 0.42444059 1.2292956 2430751
-1.4846072 0.45182389 1.3086051 2168351
-1.5208017 0.46688467 1.3522252 2102814
-1.5075092 0.46688467 1.3522252 1840667
-1.6009465 0.50023359 1.4488127 1709081
-1.708759 0.5387131 1.5602599 1840415
-1.6934215 0.5387131 1.5602599 1708570
-1.7452074 0.56026161 1.6226703 1774363
-1.2008727 0.38907057 1.1268544 1643030
-0.97346908 0.31833047 0.92197174 1577492
-0.88403887 0.29180291 0.84514076 1575695
-0.87573111 0.29180291 0.84514076 4466722
-0.84972084 0.28584775 0.82789302 5387046
-0.82475096 0.2801308 0.81133515 4860961
-0.80076027 0.27463806 0.79542661 2231822
-0.77769232 0.26935655 0.78012997 1509645
-0.77002364 0.26935655 0.78012997 1575436
-0.79284912 0.2801308 0.81133515 1772045
-0.78487366 0.2801308 0.81133515 1509902
-0.79275328 0.28584775 0.82789302 1641488
-0.78461504 0.28584775 0.82789302 1772818
-0.79265338 0.29180291 0.84514076 1575438
-0.78434557 0.29180291 0.84514076 1444109
-0.77603781 0.29180291 0.84514076 1378316
-0.75206214 0.28584775 0.82789302 1444366
-0.7594223 0.29180291 0.84514076 1510160
-0.73578566 0.28584775 0.82789302 1575696
-0.71309447 0.2801308 0.81133515 1509903
-0.70511901 0.2801308 0.81133515 1313294
-0.69714355 0.2801308 0.81133515 1312526
-0.70323277 0.28584775 0.82789302 1180938
-0.69509453 0.28584775 0.82789302 1180937
-0.67321718 0.2801308 0.81133515 1707281
-0.66524172 0.2801308 0.81133515 2167832
-0.67067987 0.28584775 0.82789302 2300188
-0.66254163 0.28584775 0.82789302 2300187
-0.65440339 0.28584775 0.82789302 2759194
-0.64626521 0.28584775 0.82789302 2956058
-0.62536442 0.2801308 0.81133515 3284251
-0.61738896 0.2801308 0.81133515 3415324
-0.6094135 0.2801308 0.81133515 2956316
-0.61371231 0.28584775 0.82789302 3283481
-0.60557407 0.28584775 0.82789302 3415065
-0.59743583 0.28584775 0.82789302 3546653
-0.57751167 0.2801308 0.81133515 4006688
-0.58115941 0.28584775 0.82789302 4794403
-0.57302117 0.28584775 0.82789302 5909539
-0.56488293 0.28584775 0.82789302 7287333
-0.55674469 0.28584775 0.82789302 8665642
-0.54860646 0.28584775 0.82789302 8469803
-0.54046828 0.28584775 0.82789302 9650478
-0.5434202 0.29180291 0.84514076 10960939
-0.54649782 0.29801148 0.86312246 11221541
-0.53801328 0.29801148 0.86312246 11091236
-0.54104024 0.30449 0.88188601 11287843
-0.53237128 0.30449 0.88188601 11615526
-0.53534013 0.31125644 0.90148348 11287844
-0.53844392 0.31833047 0.92197174 11353638
-0.52938092 0.31833047 0.92197174 11419431
-0.50875527 0.31125644 0.90148348 11418661
-0.49989364 0.31125644 0.90148348 11615009
-0.491032 0.31125644 0.90148348 11943461
-0.48217037 0.31125644 0.90148348 12008999
-0.50711656 0.33348906 0.96587515 12139813
-0.49762192 0.33348906 0.96587515 12074276
0 0 0 11942945
0 0 0 11615525
0 0 0 11878184
0 0 0 11878694
0 0 0 12140840
0 0 0 12271911
0 0 0 11813158
0 0 0 12140326
-2.1638956 1.7508175 5.0708447 12009253
-1.8791547 1.5562823 4.5074177 12009254
-1.8348465 1.5562823 4.5074177 12205602
-1.7905384 1.5562823 4.5074177 11812131
-1.3096726 1.1672117 3.380563 11812134
-1.1782538 1.0774262 3.1205199 12074533
-0.87756032 0.82391411 2.3862798 11615779
-0.85410309 0.82391411 2.3862798 12140326
-0.78449893 0.77814114 2.2537088 11877926
-0.76234484 0.77814114 2.2537088 11877670
-0.51243979 0.5387131 1.5602599 11811878
-0.40389565 0.43770438 1.2677112 11942946
-0.30550945 0.34162295 0.98943311 11680545
