# .PCD v0.7 - Point Cloud Data file format
VERSION 0.7
FIELDS x y z rgb
SIZE 4 4 4 4
TYPE F F F U
COUNT 1 1 1 1
WIDTH 1247
HEIGHT 1
VIEWPOINT 0 0 0 1 0 0 0
POINTS 1247
DATA ascii
1.4753026 -0.083684087 1.4488127 9790022
1.3453951 -0.075585634 1.3086051 10118737
1.4035339 -0.078105144 1.3522252 9725001
1.4656825 -0.080798432 1.3988537 9725003
1.589021 -0.086783506 1.5024725 9331531
1.546512 -0.083684087 1.4488127 9659721
1.5069349 -0.080798432 1.3988537 9397065
1.5206857 -0.080798432 1.3988537 9659721
1.5344365 -0.080798432 1.3988537 9593928
1.5481873 -0.080798432 1.3988537 9593930
1.5098734 -0.078105144 1.3522252 9527883
1.5231658 -0.078105144 1.3522252 9790029
1.4404297 -0.073223576 1.2677112 9592907
1.4088643 -0.071004681 1.2292956 9265223
1.4209483 -0.071004681 1.2292956 9397322
1.4330323 -0.071004681 1.2292956 9791566
1.4902763 -0.073223576 1.2677112 9986890
1.6581936 -0.080798432 1.3988537 9659981
0 0 0 9528395
0 0 0 9331789
0 0 0 9594445
0 0 0 9594187
0 0 0 9988688
0 0 0 9594700
0 0 0 9791565
0 0 0 9791053
0 0 0 9726287
0 0 0 9792080
0 0 0 9923153
0 0 0 9199429
0 0 0 9462859
-4.8415465 -0.19443816 4.0566759 9988687
-5.3351879 -0.2160424 4.5074177 10777945
-5.2908797 -0.2160424 4.5074177 10975065
-5.2465715 -0.2160424 4.5074177 11434330
-4.6820374 -0.19443816 4.0566759 11631192
-3.8684664 -0.16203178 3.380563 11368536
-3.5402174 -0.14956781 3.1205199 11303767
-3.2588606 -0.1388844 2.8976254 11368535
-3.4788675 -0.14956781 3.1205199 11631449
-3.2018931 -0.1388844 2.8976254 11631707
-3.4175179 -0.14956781 3.1205199 11631451
-3.1449256 -0.1388844 2.8976254 11565914
-3.1164417 -0.1388844 2.8976254 11828570
-3.0879579 -0.1388844 2.8976254 11959385
-3.2948184 -0.14956781 3.1205199 12090971
-3.2641437 -0.14956781 3.1205199 11959644
-3.2334688 -0.14956781 3.1205199 11893846
-3.4696932 -0.16203178 3.380563 11302219
-3.7488678 -0.17676196 3.687887 9132595
-4.0838776 -0.19443816 4.0566759 7160102
-4.0440001 -0.19443816 4.0566759 3676170
-4.4490256 -0.2160424 4.5074177 3875615
-4.4047174 -0.2160424 4.5074177 2297097
-4.3604093 -0.2160424 4.5074177 2823960
-4.3161011 -0.2160424 4.5074177 3086357
-4.2717929 -0.2160424 4.5074177 3151892
-4.2274847 -0.2160424 4.5074177 3217683
-4.7060738 -0.24304768 5.0708447 3414805
-4.6562271 -0.24304768 5.0708447 3217171
-4.6063805 -0.24304768 5.0708447 3414291
-4.5565338 -0.24304768 5.0708447 3611156
-4.5066872 -0.24304768 5.0708447 3480083
-4.4568405 -0.24304768 5.0708447 3349269
-4.4069939 -0.24304768 5.0708447 3742741
-4.3571472 -0.24304768 5.0708447 4005143
-4.9226294 -0.27776879 5.7952509 3808022
-4.2574539 -0.24304768 5.0708447 3216659
-3.7400956 -0.2160424 4.5074177 4996152
-3.6957874 -0.2160424 4.5074177 9133381
-3.6514795 -0.2160424 4.5074177 9395775
-3.2464542 -0.19443816 4.0566759 9790276
-3.2065768 -0.19443816 4.0566759 10118210
-3.9583743 -0.24304768 5.0708447 10185286
-3.9085276 -0.24304768 5.0708447 10185285
-3.858681 -0.24304768 5.0708447 10381641
-3.8088343 -0.24304768 5.0708447 10513738
-3.3413227 -0.2160424 4.5074177 10579530
-3.709141 -0.24304768 5.0708447 10841161
-3.6592944 -0.24304768 5.0708447 10645837
-3.6094477 -0.24304768 5.0708447 11104846
-4.7461348 -0.32406357 6.761126 11104331
-4.6796727 -0.32406357 6.761126 11103818
-4.6132107 -0.32406357 6.761126 10974798
-4.5467482 -0.32406357 6.761126 11236941
-3.8402452 -0.27776879 5.7952509 11104846
-4.4138241 -0.32406357 6.761126 11499093
-3.2605214 -0.24304768 5.0708447 11564882
-3.2106748 -0.24304768 5.0708447 11762515
-2.8096251 -0.2160424 4.5074177 11959125
-2.4887853 -0.19443816 4.0566759 12090451
-2.4489081 -0.19443816 4.0566759 12221522
-2.4090307 -0.19443816 4.0566759 12221524
-2.6323926 -0.2160424 4.5074177 12287571
-2.5880845 -0.2160424 4.5074177 12090964
-2.5437765 -0.2160424 4.5074177 12483925
-2.2495215 -0.19443816 4.0566759 12353621
-2.4551601 -0.2160424 4.5074177 12746326
-2.4108522 -0.2160424 4.5074177 12747350
-2.366544 -0.2160424 4.5074177 12812371
-2.6125152 -0.24304768 5.0708447 12681559
-2.5626686 -0.24304768 5.0708447 12681557
-2.5128219 -0.24304768 5.0708447 12879188
-2.1893115 -0.2160424 4.5074177 13207130
-2.1450033 -0.2160424 4.5074177 12879190
-2.363282 -0.24304768 5.0708447 13076826
-3.7014968 -0.38887632 8.1133518 13142619
-3.6217422 -0.38887632 8.1133518 13338968
-3.5419877 -0.38887632 8.1133518 13077078
-3.4622331 -0.38887632 8.1133518 13339739
-4.2280979 -0.48609537 10.141689 13535320
-3.3027239 -0.38887632 8.1133518 13864284
-3.2229691 -0.38887632 8.1133518 13930075
-3.1432145 -0.38887632 8.1133518 13798491
-3.0634599 -0.38887632 8.1133518 13995098
-2.4864209 -0.32406357 6.761126 13733469
-2.0742505 -0.27776879 5.7952509 13601624
-1.7651225 -0.24304768 5.0708447 13864282
-1.7152759 -0.24304768 5.0708447 13732700
-1.9033476 -0.27776879 5.7952509 13799518
0 0 0 14193249
0 0 0 14126938
0 0 0 13799261
0 0 0 13601625
0 0 0 13798746
0 0 0 13338712
0 0 0 11696719
0 0 0 9396299
-0.14749205 -0.029460324 0.61464781 8997170
-0.1333672 -0.027776878 0.57952511 7224886
-0.11915907 -0.025925087 0.5408901 7885635
-0.11384209 -0.025925087 0.5408901 8276282
-0.10709716 -0.025583968 0.53377312 8603446
-0.10185014 -0.025583968 0.53377312 7682088
-0.096603133 -0.025583968 0.53377312 7289387
-0.091356121 -0.025583968 0.53377312 7748658
-0.086109102 -0.025583968 0.53377312 7683116
-0.08086209 -0.025583968 0.53377312 7550503
-0.076623276 -0.025925087 0.5408901 6498847
-0.072269902 -0.026275424 0.54819942 6959397
-0.068738893 -0.0270053 0.56342721 4989977
-0.065948211 -0.028179441 0.587924 1311752
-0.060168892 -0.028179441 0.587924 1115144
-0.056013145 -0.029020619 0.605474 1509389
-0.051601656 -0.029913561 0.62410396 1968911
-0.046177104 -0.030380961 0.63385558 2362127
-0.039946273 -0.030380961 0.63385558 2821904
-0.03480304 -0.031360991 0.65430254 3019280
-0.028836319 -0.031875107 0.66502881 3150098
-0.022299055 -0.031875107 0.66502881 3281169
-0.016296091 -0.03295562 0.68757218 3347216
-0.0097016599 -0.033523817 0.69942683 3676180
-0.0028758463 -0.034111958 0.71169752 3872018
0.0041937465 -0.034721099 0.72440636 4069911
0.011520416 -0.03535239 0.73757738 4266773
0.019118443 -0.036007065 0.75123626 4266771
0.027003186 -0.036686443 0.76541048 4463895
0.034527205 -0.036686443 0.76541048 4528660
0.042051226 -0.036686443 0.76541048 4988950
0.051519375 -0.038125128 0.79542661 5056282
0 0 0 1968912
0 0 0 655366
0 0 0 3479828
0 0 0 5582110
0 0 0 5910819
0 0 0 5910045
0 0 0 4793627
0 0 0 5648162
0 0 0 5581596
1.1025364 -0.32406357 6.761126 5122332
1.0019988 -0.27776879 5.7952509 5712925
1.0589664 -0.27776879 5.7952509 3873810
1.1159339 -0.27776879 5.7952509 1246987
1.1729015 -0.27776879 5.7952509 1180681
1.2298691 -0.27776879 5.7952509 1115658
1.125982 -0.24304768 5.0708447 1115918
1.0451812 -0.2160424 4.5074177 3943207
1.0894892 -0.2160424 4.5074177 8344639
1.275522 -0.24304768 5.0708447 8870211
1.3253686 -0.24304768 5.0708447 9527879
1.3752153 -0.24304768 5.0708447 10185804
1.4250619 -0.24304768 5.0708447 10579274
1.4749085 -0.24304768 5.0708447 10907215
1.5247551 -0.24304768 5.0708447 11170898
1.5746018 -0.24304768 5.0708447 12288602
1.6244484 -0.24304768 5.0708447 12682076
1.6742951 -0.24304768 5.0708447 13141597
1.5325705 -0.2160424 4.5074177 12945245
1.5768785 -0.2160424 4.5074177 13273694
1.6211867 -0.2160424 4.5074177 13535584
1.6654948 -0.2160424 4.5074177 13536866
1.7098029 -0.2160424 4.5074177 13601887
1.7541111 -0.2160424 4.5074177 13339743
1.7984191 -0.2160424 4.5074177 13668195
1.8427273 -0.2160424 4.5074177 13602404
1.8870354 -0.2160424 4.5074177 13207903
1.9313436 -0.2160424 4.5074177 13012318
1.7780864 -0.19443816 4.0566759 13733221
1.5149697 -0.16203178 3.380563 13470306
1.5482008 -0.16203178 3.380563 13667682
1.7251984 -0.17676196 3.687887 13536094
1.9375957 -0.19443816 4.0566759 13207901
1.977473 -0.19443816 4.0566759 13338973
1.5518079 -0.14956781 3.1205199 13338969
1.2857672 -0.12152384 2.5354223 13075543
1.3106905 -0.12152384 2.5354223 13076316
1.4246547 -0.12962542 2.7044504 12748383
1.4512396 -0.12962542 2.7044504 12748379
1.4778244 -0.12962542 2.7044504 4595221
1.5044093 -0.12962542 2.7044504 1575438
1.5309942 -0.12962542 2.7044504 1444110
1.4602304 -0.12152384 2.5354223 1509903
1.3977917 -0.11437538 2.3862798 1575436
1.3422908 -0.1080212 2.2537088 1378574
1.2926319 -0.10233587 2.1350925 1181708
1.31362 -0.10233587 2.1350925 1313037
1.334608 -0.10233587 2.1350925 721675
1.3555961 -0.10233587 2.1350925 786695
1.3765841 -0.10233587 2.1350925 918282
1.3276936 -0.09721908 2.028338 853261
1.3476323 -0.09721908 2.028338 853005
1.3024484 -0.092589594 1.9317503 721934
1.3214376 -0.092589594 1.9317503 721674
1.3404268 -0.092589594 1.9317503 524809
1.359416 -0.092589594 1.9317503 590346
1.3784052 -0.092589594 1.9317503 656138
1.4672642 -0.09721908 2.028338 655627
1.7496502 -0.11437538 2.3862798 524810
1.7731075 -0.11437538 2.3862798 656138
2.0361066 -0.12962542 2.7044504 655880
2.380029 -0.14956781 3.1205199 786695
2.4107037 -0.14956781 3.1205199 655882
2.4413786 -0.14956781 3.1205199 852746
0 0 0 655882
2.5027282 -0.14956781 3.1205199 590602
2.3524456 -0.1388844 2.8976254 656395
2.3809295 -0.1388844 2.8976254 721418
2.4094131 -0.1388844 2.8976254 655628
2.6254277 -0.14956781 3.1205199 655882
2.0311372 -0.11437538 2.3862798 655882
1.9404503 -0.1080212 2.2537088 590089
1.766344 -0.09721908 2.028338 590600
1.7862827 -0.09721908 2.028338 721157
1.8062212 -0.09721908 2.028338 786698
1.7391998 -0.092589594 1.9317503 655880
1.758189 -0.092589594 1.9317503 721673
1.7771782 -0.092589594 1.9317503 721416
1.7961674 -0.092589594 1.9317503 786696
1.5247315 -0.077775262 1.6226703 721674
1.4265579 -0.072014131 1.5024725 721161
1.5566334 -0.077775262 1.6226703 1049100
1.5725844 -0.077775262 1.6226703 1115661
1.5885353 -0.077775262 1.6226703 1510407
1.6044862 -0.077775262 1.6226703 8542267
1.5004047 -0.072014131 1.5024725 9069637
1.4610606 -0.069442198 1.4488127 9397063
1.4753026 -0.069442198 1.4488127 9791309
1.3902415 -0.064812712 1.3522252 9725004
1.4035339 -0.064812712 1.3522252 9593674
1.4168264 -0.064812712 1.3522252 9396809
1.4794333 -0.067047633 1.3988537 9462347
1.546512 -0.069442198 1.4488127 9528139
1.5607539 -0.069442198 1.4488127 9331274
1.5749959 -0.069442198 1.4488127 9528139
1.5892377 -0.069442198 1.4488127 9593928
1.6034796 -0.069442198 1.4488127 9593672
1.561938 -0.067047633 1.3988537 9331018
1.4740316 -0.062721983 1.3086051 9462344
1.3967803 -0.058920648 1.2292956 9397068
1.3674271 -0.057187691 1.1931399 9397069
1.2673323 -0.052550849 1.0963988 9593933
1.4778147 -0.060761921 1.2677112 9659213
1.4902763 -0.060761921 1.2677112 9594190
1.502738 -0.060761921 1.2677112 9528397
0 0 0 9462604
0 0 0 9659985
0 0 0 9594190
0 0 0 9594445
0 0 0 9660237
0 0 0 9660237
0 0 0 9594442
0 0 0 9594190
0 0 0 9725514
0 0 0 9528905
0 0 0 9397576
0 0 0 8740418
0 0 0 8936518
-4.8415465 -0.15456085 4.0566759 9791053
-5.3351879 -0.17173427 4.5074177 10909018
-5.2908797 -0.17173427 4.5074177 11105881
-5.2465715 -0.17173427 4.5074177 11564886
-5.2022634 -0.17173427 4.5074177 11630677
-3.8684664 -0.12880071 3.380563 11631449
-3.5402174 -0.11889296 3.1205199 11041111
-3.2588606 -0.1104006 2.8976254 11763548
-3.4788675 -0.11889296 3.1205199 11828056
-3.4481928 -0.11889296 3.1205199 11631448
-3.4175179 -0.11889296 3.1205199 11631451
-3.1449256 -0.1104006 2.8976254 11631195
-3.3561683 -0.11889296 3.1205199 11762524
-3.3254933 -0.11889296 3.1205199 12157022
-3.2948184 -0.11889296 3.1205199 12024923
-3.2641437 -0.11889296 3.1205199 12222300
-3.2334688 -0.11889296 3.1205199 11697753
-3.2027938 -0.11889296 3.1205199 11301707
-4.123755 -0.15456085 4.0566759 8738354
-4.0838776 -0.15456085 4.0566759 7094055
-4.0440001 -0.15456085 4.0566759 3019014
-4.4490256 -0.17173427 4.5074177 2298386
-4.4047174 -0.17173427 4.5074177 2100238
-4.3604093 -0.17173427 4.5074177 2955032
-4.3161011 -0.17173427 4.5074177 3348503
-4.2717929 -0.17173427 4.5074177 3480086
-4.7559204 -0.19320105 5.0708447 3545878
-4.7060738 -0.19320105 5.0708447 3480085
-4.6562271 -0.19320105 5.0708447 3151375
-4.6063805 -0.19320105 5.0708447 3085843
-4.5565338 -0.19320105 5.0708447 3152917
-4.5066872 -0.19320105 5.0708447 3611671
-4.4568405 -0.19320105 5.0708447 3415062
-4.4069939 -0.19320105 5.0708447 3808280
-4.3571472 -0.19320105 5.0708447 3741973
-4.9226294 -0.2208012 5.7952509 3808535
-4.8656616 -0.2208012 5.7952509 3611671
-3.7400956 -0.17173427 4.5074177 3878443
-3.6957874 -0.17173427 4.5074177 7687744
-3.6514795 -0.17173427 4.5074177 9197887
-3.6071713 -0.17173427 4.5074177 9527104
-3.5628631 -0.17173427 4.5074177 9724229
-3.9583743 -0.19320105 5.0708447 10052680
-3.9085276 -0.19320105 5.0708447 9658949
-3.858681 -0.19320105 5.0708447 10053446
-3.8088343 -0.19320105 5.0708447 10118210
-3.7589877 -0.19320105 5.0708447 10578758
-3.709141 -0.19320105 5.0708447 10775620
-3.6592944 -0.19320105 5.0708447 10907724
-4.8125968 -0.25760141 6.761126 10382408
-5.6953621 -0.3091217 8.1133518 10842186
-5.6156077 -0.3091217 8.1133518 11104330
-4.6132107 -0.25760141 6.761126 10776650
-4.5467482 -0.25760141 6.761126 10974028
-4.4802861 -0.25760141 6.761126 11301711
-4.4138241 -0.25760141 6.761126 11235920
-3.2605214 -0.19320105 5.0708447 11301711
-2.8539333 -0.17173427 4.5074177 11368016
-2.8096251 -0.17173427 4.5074177 11696723
-2.765317 -0.17173427 4.5074177 11565138
-2.721009 -0.17173427 4.5074177 11631186
-2.6767008 -0.17173427 4.5074177 11827538
-2.6323926 -0.17173427 4.5074177 11959378
-2.9115949 -0.19320105 5.0708447 11959894
-2.5437765 -0.17173427 4.5074177 12286287
-2.4994683 -0.17173427 4.5074177 12222289
-2.4551601 -0.17173427 4.5074177 11893840
-2.7122085 -0.19320105 5.0708447 12549972
-2.366544 -0.17173427 4.5074177 12681557
-2.9857316 -0.2208012 5.7952509 12877909
-2.5626686 -0.19320105 5.0708447 12747863
-2.8717964 -0.2208012 5.7952509 12879447
-2.4629753 -0.19320105 5.0708447 12879448
-2.4131286 -0.19320105 5.0708447 12813656
-3.1510427 -0.25760141 6.761126 12813654
-3.7014968 -0.3091217 8.1133518 12944983
-3.6217422 -0.3091217 8.1133518 13273435
-3.5419877 -0.3091217 8.1133518 13208412
-3.4622331 -0.3091217 8.1133518 13207122
-4.2280979 -0.3864021 10.141689 13732698
-3.3027239 -0.3091217 8.1133518 14324321
-3.2229691 -0.3091217 8.1133518 13865052
-3.1432145 -0.3091217 8.1133518 13601882
-3.0634599 -0.3091217 8.1133518 13404508
-2.9837053 -0.3091217 8.1133518 13470298
-2.4199588 -0.25760141 6.761126 13339226
-1.7651225 -0.19320105 5.0708447 13536087
-1.7152759 -0.19320105 5.0708447 13995868
-1.6654292 -0.19320105 5.0708447 13404762
-1.4360734 -0.17173427 4.5074177 13733468
-1.5657359 -0.19320105 5.0708447 13929563
-1.5158893 -0.19320105 5.0708447 13273691
-2.3456683 -0.3091217 8.1133518 13602396
0 0 0 13535577
0 0 0 13338709
0 0 0 11695692
0 0 0 8931894
0 0 0 8998200
-0.12615815 -0.0208866 0.54819942 7879209
-0.11915907 -0.020608112 0.5408901 5580841
-0.11234418 -0.020336954 0.53377312 8015421
-0.10709716 -0.020336954 0.53377312 8866619
-0.10185014 -0.020336954 0.53377312 8337704
-0.096603133 -0.020336954 0.53377312 7682087
-0.091356121 -0.020336954 0.53377312 7090978
-0.086109102 -0.020336954 0.53377312 6762791
-0.08086209 -0.020336954 0.53377312 6565413
-0.075615078 -0.020336954 0.53377312 5185045
-0.071306303 -0.020608112 0.5408901 5250840
-0.066881076 -0.0208866 0.54819942 5711899
-0.062334612 -0.021172719 0.555709 2230539
-0.059309341 -0.022080122 0.57952511 1641231
-0.056861825 -0.023418309 0.61464781 2166290
-0.051601656 -0.023778591 0.62410396 2297104
-0.046177104 -0.024150131 0.63385558 2493713
-0.041910846 -0.025337843 0.66502881 2822419
-0.035373583 -0.025337843 0.66502881 3150099
-0.028836319 -0.025337843 0.66502881 3150611
-0.022299055 -0.025337843 0.66502881 3281427
-0.016296091 -0.026196754 0.68757218 3412754
-0.0098718647 -0.027115939 0.71169752 3544083
-0.0028758463 -0.027115939 0.71169752 3609876
0.0041937465 -0.027600151 0.72440636 4003861
0.011520416 -0.028101971 0.73757738 3872276
0.019118443 -0.02862238 0.75123626 4266519
0.026503129 -0.02862238 0.75123626 4332310
0.033887815 -0.02862238 0.75123626 4266775
0.042051226 -0.029162422 0.76541048 4332312
0 0 0 4398101
0 0 0 4726296
0 0 0 2428175
0 0 0 1050121
0 0 0 1968908
0 0 0 5780516
0 0 0 5581338
0 0 0 4793370
0 0 0 5582110
0 0 0 5516060
0.60138351 -0.14050986 3.687887 5385245
0.63763559 -0.14050986 3.687887 5976096
0.67388767 -0.14050986 3.687887 4267540
0.7811538 -0.15456085 4.0566759 1378317
0.91225678 -0.17173427 4.5074177 1181195
1.0761355 -0.19320105 5.0708447 1180941
1.000873 -0.17173427 4.5074177 1115916
1.1758287 -0.19320105 5.0708447 3416866
1.0894892 -0.17173427 4.5074177 8280386
1.275522 -0.19320105 5.0708447 8673606
1.3253686 -0.19320105 5.0708447 9593157
1.5716746 -0.2208012 5.7952509 9922120
1.2667217 -0.17173427 4.5074177 9988685
1.3110299 -0.17173427 4.5074177 10644814
1.355338 -0.17173427 4.5074177 10974033
1.399646 -0.17173427 4.5074177 11368274
1.6244484 -0.19320105 5.0708447 12419929
1.6742951 -0.19320105 5.0708447 12944732
1.7241417 -0.19320105 5.0708447 13141853
1.7739882 -0.19320105 5.0708447 12814686
1.6211867 -0.17173427 4.5074177 13470047
1.6654948 -0.17173427 4.5074177 13274208
1.7098029 -0.17173427 4.5074177 13273694
1.7541111 -0.17173427 4.5074177 13471072
1.7984191 -0.17173427 4.5074177 13273955
1.8427273 -0.17173427 4.5074177 13602405
1.8870354 -0.17173427 4.5074177 13601117
1.9313436 -0.17173427 4.5074177 13076831
1.9756516 -0.17173427 4.5074177 13601887
2.0199597 -0.17173427 4.5074177 13470561
1.6889464 -0.14050986 3.687887 13601889
1.8977184 -0.15456085 4.0566759 13273694
1.9375957 -0.15456085 4.0566759 13272670
2.1971922 -0.17173427 4.5074177 12945757
2.0173502 -0.15456085 4.0566759 13142108
1.371485 -0.10304056 2.7044504 12814424
1.3106905 -0.096600525 2.5354223 12944984
1.4246547 -0.10304056 2.7044504 12814172
1.4512396 -0.10304056 2.7044504 12616023
1.4778244 -0.10304056 2.7044504 4200469
1.5044093 -0.10304056 2.7044504 1313294
1.5309942 -0.10304056 2.7044504 1444109
1.3743345 -0.090918146 2.3862798 1247501
1.3201367 -0.085867137 2.2537088 1509902
1.3422908 -0.085867137 2.2537088 1444110
1.3644449 -0.085867137 2.2537088 1444109
1.31362 -0.081347816 2.1350925 1378316
1.334608 -0.081347816 2.1350925 655880
1.3555961 -0.081347816 2.1350925 656395
1.3765841 -0.081347816 2.1350925 787468
1.3276936 -0.077280425 2.028338 656137
1.3476323 -0.077280425 2.028338 655882
1.3675709 -0.077280425 2.028338 656138
1.3875096 -0.077280425 2.028338 655882
1.4074482 -0.077280425 2.028338 656395
1.4273869 -0.077280425 2.028338 524810
1.4473255 -0.077280425 2.028338 590602
1.7261931 -0.090918146 2.3862798 590347
1.7496502 -0.090918146 2.3862798 656395
1.7731075 -0.090918146 2.3862798 721930
2.0361066 -0.10304056 2.7044504 590601
2.380029 -0.11889296 3.1205199 590089
2.4107037 -0.11889296 3.1205199 590090
2.6448267 -0.12880071 3.380563 721418
0 0 0 656139
2.7112887 -0.12880071 3.380563 655624
2.5334032 -0.11889296 3.1205199 590859
2.5640779 -0.11889296 3.1205199 590602
3.7479763 -0.17173427 4.5074177 786956
0 0 0 721417
2.0311372 -0.090918146 2.3862798 524808
1.7464054 -0.077280425 2.028338 786696
1.766344 -0.077280425 2.028338 918025
1.7862827 -0.077280425 2.028338 720903
1.8062212 -0.077280425 2.028338 590602
1.7391998 -0.073600397 1.9317503 655882
1.758189 -0.073600397 1.9317503 918284
1.4354132 -0.05944648 1.5602599 655882
1.4507507 -0.05944648 1.5602599 721673
1.4660881 -0.05944648 1.5602599 590345
1.4265579 -0.057244759 1.5024725 655882
1.5566334 -0.061824337 1.6226703 983305
1.5725844 -0.061824337 1.6226703 918282
1.5885353 -0.061824337 1.6226703 1575945
1.6044862 -0.061824337 1.6226703 8607547
1.5004047 -0.057244759 1.5024725 9265475
1.4610606 -0.055200301 1.4488127 9265479
1.4753026 -0.055200301 1.4488127 9527624
1.4381809 -0.053296842 1.3988537 9658956
1.4519317 -0.053296842 1.3988537 9397065
1.4168264 -0.051520281 1.3522252 9397578
1.4301188 -0.051520281 1.3522252 9396297
1.546512 -0.055200301 1.4488127 9528137
1.5607539 -0.055200301 1.4488127 9199432
1.6333292 -0.057244759 1.5024725 9134152
1.6480985 -0.057244759 1.5024725 9331783
1.6628679 -0.057244759 1.5024725 9593415
1.6177216 -0.055200301 1.4488127 9396297
1.5756888 -0.053296842 1.3988537 9396811
1.4404297 -0.048300263 1.2677112 9397067
1.4528913 -0.048300263 1.2677112 9397067
1.465353 -0.048300263 1.2677112 9462346
1.5763355 -0.051520281 1.3522252 9593930
1.4902763 -0.048300263 1.2677112 9396808
1.6581936 -0.053296842 1.3988537 9463114
0 0 0 9594188
0 0 0 9593677
0 0 0 10053456
0 0 0 9659725
0 0 0 9660238
0 0 0 9791824
0 0 0 9725772
0 0 0 9988172
0 0 0 9922637
0 0 0 10053708
0 0 0 9987915
0 0 0 8543044
0 0 0 8871239
-4.8415465 -0.11468355 4.0566759 9462602
-5.3351879 -0.12742616 4.5074177 10909274
-5.2908797 -0.12742616 4.5074177 10975062
-5.2465715 -0.12742616 4.5074177 11106134
-5.2022634 -0.12742616 4.5074177 11368790
-3.8684664 -0.095569611 3.380563 11434582
-3.8352351 -0.095569611 3.380563 11369050
-3.5095425 -0.088218108 3.1205199 11368790
-3.4788675 -0.088218108 3.1205199 11631447
-3.4481928 -0.088218108 3.1205199 11697497
-3.4175179 -0.088218108 3.1205199 11565914
-3.1449256 -0.081916809 2.8976254 11762780
-3.3561683 -0.088218108 3.1205199 11828315
-3.3254933 -0.088218108 3.1205199 11828574
-3.5693865 -0.095569611 3.380563 11697498
-3.2641437 -0.088218108 3.1205199 12025435
-3.2334688 -0.088218108 3.1205199 11763035
-3.2027938 -0.088218108 3.1205199 11104585
-4.123755 -0.11468355 4.0566759 8803379
-4.0838776 -0.11468355 4.0566759 6832421
-3.6763637 -0.10425776 3.687887 2821377
-3.6401114 -0.10425776 3.687887 1838609
-3.9642456 -0.11468355 4.0566759 1903374
-4.3604093 -0.12742616 4.5074177 3086361
-4.3161011 -0.12742616 4.5074177 3479828
-4.2717929 -0.12742616 4.5074177 3545621
-4.7559204 -0.14335443 5.0708447 3545622
-4.7060738 -0.14335443 5.0708447 3480085
-4.6562271 -0.14335443 5.0708447 3610388
-4.6063805 -0.14335443 5.0708447 3480085
-4.5565338 -0.14335443 5.0708447 3610904
-4.5066872 -0.14335443 5.0708447 3545876
-4.4568405 -0.14335443 5.0708447 3349269
-4.4069939 -0.14335443 5.0708447 3545622
-4.3571472 -0.14335443 5.0708447 3676437
-4.9226294 -0.16383362 5.7952509 3545876
-4.2574539 -0.14335443 5.0708447 3347986
-3.7400956 -0.12742616 4.5074177 3549735
-3.6957874 -0.12742616 4.5074177 6373685
-3.6514795 -0.12742616 4.5074177 8147773
-3.6071713 -0.12742616 4.5074177 8476476
-4.0082207 -0.14335443 5.0708447 9067837
-3.9583743 -0.14335443 5.0708447 8475700
-3.9085276 -0.14335443 5.0708447 6634791
-3.858681 -0.14335443 5.0708447 6635310
-3.8088343 -0.14335443 5.0708447 6832171
-3.7589877 -0.14335443 5.0708447 7358001
-3.709141 -0.14335443 5.0708447 8146231
-3.6592944 -0.14335443 5.0708447 10053701
-4.8125968 -0.19113922 6.761126 10316104
-5.6953621 -0.22936709 8.1133518 10381895
-5.6156077 -0.22936709 8.1133518 10381893
-3.9541805 -0.16383362 5.7952509 10381894
-3.8972127 -0.16383362 5.7952509 10776394
-4.4802861 -0.19113922 6.761126 11038540
-4.4138241 -0.19113922 6.761126 11038798
-3.2605214 -0.14335443 5.0708447 10907725
-3.2106748 -0.14335443 5.0708447 11038795
-3.1608281 -0.14335443 5.0708447 11498578
-3.1109815 -0.14335443 5.0708447 11629648
-3.0611348 -0.14335443 5.0708447 11630159
-2.6767008 -0.12742616 4.5074177 11958095
-2.6323926 -0.12742616 4.5074177 11695951
-2.9115949 -0.14335443 5.0708447 11631445
-2.8617485 -0.14335443 5.0708447 12024917
-2.4994683 -0.12742616 4.5074177 11828049
-2.4551601 -0.12742616 4.5074177 12156244
-2.7122085 -0.14335443 5.0708447 12352851
-2.6623619 -0.14335443 5.0708447 12222035
-2.9857316 -0.16383362 5.7952509 12747093
-2.5626686 -0.14335443 5.0708447 12746326
-2.8717964 -0.16383362 5.7952509 12288852
-2.4629753 -0.14335443 5.0708447 12550999
-2.7578614 -0.16383362 5.7952509 12814424
-3.7812514 -0.22936709 8.1133518 13075543
-3.7014968 -0.22936709 8.1133518 12813398
-3.6217422 -0.22936709 8.1133518 13141592
-3.5419877 -0.22936709 8.1133518 13272665
-3.4622331 -0.22936709 8.1133518 13207379
-3.3824785 -0.22936709 8.1133518 12878933
-3.3027239 -0.22936709 8.1133518 10314560
-3.2229691 -0.22936709 8.1133518 11827797
-3.1432145 -0.22936709 8.1133518 13536089
-3.0634599 -0.22936709 8.1133518 13601114
-2.9837053 -0.22936709 8.1133518 13733468
-2.4199588 -0.19113922 6.761126 13536089
-2.3534966 -0.19113922 6.761126 13470553
-1.9603152 -0.16383362 5.7952509 13865052
-1.9033476 -0.16383362 5.7952509 13667934
-1.84638 -0.16383362 5.7952509 13536091
-1.5657359 -0.14335443 5.0708447 13666905
-1.5158893 -0.14335443 5.0708447 13338454
-1.6754773 -0.16383362 5.7952509 13207640
-2.2659137 -0.22936709 8.1133518 13404505
-2.7326989 -0.28670886 10.141689 13338455
0 0 0 11302219
0 0 0 8145727
0 0 0 8997945
-0.12615815 -0.015497776 0.54819942 8208429
-0.11915907 -0.015291139 0.5408901 6828836
-0.11234418 -0.015089939 0.53377312 5778729
-0.10709716 -0.015089939 0.53377312 8604216
-0.10185014 -0.015089939 0.53377312 8734261
-0.095348544 -0.014893966 0.52684098 6696227
-0.090169676 -0.014893966 0.52684098 6433055
-0.086109102 -0.015089939 0.53377312 5711389
-0.08086209 -0.015089939 0.53377312 5580319
-0.075615078 -0.015089939 0.53377312 5184791
-0.070368066 -0.015089939 0.53377312 4659481
-0.066881076 -0.015497776 0.54819942 5185817
-0.061492253 -0.015497776 0.54819942 5514268
-0.056871969 -0.015710074 0.555709 2297619
-0.056861825 -0.017376292 0.61464781 2231825
0 0 0 2296591
0 0 0 2362640
0 0 0 2757139
-0.035373583 -0.018800581 0.66502881 2953748
-0.028836319 -0.018800581 0.66502881 3085075
-0.022670705 -0.019113922 0.67611259 3019282
-0.016577058 -0.019773023 0.69942683 3019023
-0.0098718647 -0.02011992 0.71169752 3413012
-0.0028758463 -0.02011992 0.71169752 3479319
0.0041937465 -0.020479202 0.72440636 3478805
0.011314694 -0.020479202 0.72440636 3938069
0.019118443 -0.021237694 0.75123626 4332053
0.026503129 -0.021237694 0.75123626 4135447
0.033887815 -0.021237694 0.75123626 4463381
0.041272502 -0.021237694 0.75123626 4463126
0 0 0 4201753
0 0 0 4201750
0 0 0 3150095
0 0 0 721160
0 0 0 786952
0 0 0 1903629
0 0 0 5384990
0 0 0 4727579
0 0 0 5516063
0 0 0 5778719
0.60138351 -0.10425776 3.687887 5450781
0.63763559 -0.10425776 3.687887 5581854
0.67388767 -0.10425776 3.687887 3939603
0.65096146 -0.095569611 3.380563 1247243
0.82103109 -0.11468355 4.0566759 1115657
0.86090839 -0.11468355 4.0566759 1181965
1.000873 -0.12742616 4.5074177 1049609
1.0451812 -0.12742616 4.5074177 3285280
1.0894892 -0.12742616 4.5074177 7951678
1.275522 -0.14335443 5.0708447 8083008
1.3253686 -0.14335443 5.0708447 8805189
1.3752153 -0.14335443 5.0708447 9528136
1.2667217 -0.12742616 4.5074177 9659979
1.3110299 -0.12742616 4.5074177 10315854
1.355338 -0.12742616 4.5074177 10841165
1.399646 -0.12742616 4.5074177 10974290
1.6244484 -0.14335443 5.0708447 11893079
1.6742951 -0.14335443 5.0708447 12616284
1.7241417 -0.14335443 5.0708447 12944474
1.7739882 -0.14335443 5.0708447 13011039
1.6211867 -0.12742616 4.5074177 13142624
1.6654948 -0.12742616 4.5074177 13076317
1.7098029 -0.12742616 4.5074177 13470559
1.7541111 -0.12742616 4.5074177 13601636
1.7984191 -0.12742616 4.5074177 13339748
1.8427273 -0.12742616 4.5074177 13338978
1.8870354 -0.12742616 4.5074177 13601889
1.9313436 -0.12742616 4.5074177 13340000
1.9756516 -0.12742616 4.5074177 13077087
2.0199597 -0.12742616 4.5074177 13208415
2.0642679 -0.12742616 4.5074177 13012318
1.8977184 -0.11468355 4.0566759 13338976
1.9375957 -0.11468355 4.0566759 13272666
1.977473 -0.11468355 4.0566759 13011295
1.4409643 -0.081916809 2.8976254 12551772
1.371485 -0.07645569 2.7044504 12813656
1.3106905 -0.071677215 2.5354223 12945244
1.4246547 -0.07645569 2.7044504 12288602
1.4512396 -0.07645569 2.7044504 11961693
1.4778244 -0.07645569 2.7044504 4266775
1.6118671 -0.081916809 2.8976254 1509902
1.5309942 -0.07645569 2.7044504 1312524
1.3743345 -0.067460902 2.3862798 1378317
1.3201367 -0.063713081 2.2537088 1378317
1.3422908 -0.063713081 2.2537088 1246987
1.3644449 -0.063713081 2.2537088 1443850
1.31362 -0.060359757 2.1350925 1312780
1.334608 -0.060359757 2.1350925 786950
1.2878163 -0.057341773 2.028338 655367
1.2454808 -0.054611206 1.9317503 656647
1.26447 -0.054611206 1.9317503 655881
1.3476323 -0.057341773 2.028338 721675
1.3675709 -0.057341773 2.028338 721416
1.5416772 -0.063713081 2.2537088 786696
1.5638313 -0.063713081 2.2537088 458757
1.5859854 -0.063713081 2.2537088 590089
1.8091568 -0.071677215 2.5354223 590602
1.8340801 -0.071677215 2.5354223 655880
1.8590034 -0.071677215 2.5354223 590602
1.8839267 -0.071677215 2.5354223 655882
2.0361066 -0.07645569 2.7044504 655882
2.380029 -0.088218108 3.1205199 655882
2.4107037 -0.088218108 3.1205199 590602
2.4413786 -0.088218108 3.1205199 656137
2.4720535 -0.088218108 3.1205199 655882
2.5027282 -0.088218108 3.1205199 590087
2.5334032 -0.088218108 3.1205199 590602
2.3809295 -0.081916809 2.8976254 655625
3.7479763 -0.12742616 4.5074177 590602
2.6254277 -0.088218108 3.1205199 656138
2.6561024 -0.088218108 3.1205199 590345
1.9404503 -0.063713081 2.2537088 655625
1.9626044 -0.063713081 2.2537088 786954
1.7862827 -0.057341773 2.028338 721416
1.8062212 -0.057341773 2.028338 655880
1.7391998 -0.054611206 1.9317503 852490
1.4768788 -0.045873415 1.6226703 852489
1.3822497 -0.042475387 1.5024725 656135
1.3970191 -0.042475387 1.5024725 721672
1.4117885 -0.042475387 1.5024725 721673
1.4814255 -0.044109054 1.5602599 721416
1.5566334 -0.045873415 1.6226703 852489
1.5725844 -0.045873415 1.6226703 655880
1.5885353 -0.045873415 1.6226703 1838859
1.6044862 -0.045873415 1.6226703 8607549
1.5581126 -0.044109054 1.5602599 8871747
1.5151742 -0.042475387 1.5024725 9396807
1.4753026 -0.040958405 1.4488127 9528136
1.4895445 -0.040958405 1.4488127 9331784
1.5037863 -0.040958405 1.4488127 9462341
1.4656825 -0.039546046 1.3988537 9461829
1.4301188 -0.038227845 1.3522252 9527624
1.4434112 -0.038227845 1.3522252 9528399
1.5607539 -0.040958405 1.4488127 9461577
1.6333292 -0.042475387 1.5024725 9395784
1.6480985 -0.042475387 1.5024725 9462090
1.6628679 -0.042475387 1.5024725 9331531
1.6177216 -0.040958405 1.4488127 9331785
1.6319634 -0.040958405 1.4488127 9527624
1.3967803 -0.034752585 1.2292956 9330758
1.4528913 -0.035838608 1.2677112 9462603
1.465353 -0.035838608 1.2677112 9593675
1.630692 -0.039546046 1.3988537 9658954
1.6444428 -0.039546046 1.3988537 9528651
1.6581936 -0.039546046 1.3988537 9528910
0 0 0 9462604
0 0 0 9921610
0 0 0 9462090
0 0 0 9856331
0 0 0 9790538
0 0 0 9791309
0 0 0 9529164
0 0 0 9463887
0 0 0 9594957
0 0 0 9528393
0 0 0 9594185
0 0 0 8936260
0 0 0 9199432
-4.8415465 -0.074806236 4.0566759 9725516
-4.8016691 -0.074806236 4.0566759 10909272
-5.2908797 -0.083118044 4.5074177 11302484
-4.7219143 -0.074806236 4.0566759 11236689
-5.2022634 -0.083118044 4.5074177 11302997
-4.6421599 -0.074806236 4.0566759 10975572
-3.8352351 -0.062338527 3.380563 11565654
-3.8020041 -0.062338527 3.380563 11040595
-3.4788675 -0.057543259 3.1205199 11302996
-3.4481928 -0.057543259 3.1205199 11500374
-3.4175179 -0.057543259 3.1205199 11762778
-4.0026326 -0.068005666 3.687887 11565144
-3.6358488 -0.062338527 3.380563 11828828
-3.6026175 -0.062338527 3.380563 11565656
-3.5693865 -0.062338527 3.380563 11894621
-3.2641437 -0.057543259 3.1205199 11697240
-3.2334688 -0.057543259 3.1205199 11829339
-3.4696932 -0.062338527 3.380563 11235910
-4.123755 -0.074806236 4.0566759 8540461
-4.0838776 -0.074806236 4.0566759 7028515
-3.6763637 -0.068005666 3.687887 2689536
-3.6401114 -0.068005666 3.687887 1773072
-3.9642456 -0.074806236 4.0566759 1640972
-3.9243684 -0.074806236 4.0566759 3218201
-4.3161011 -0.083118044 4.5074177 4136471
-4.2717929 -0.083118044 4.5074177 3939350
-4.7559204 -0.093507797 5.0708447 3874071
-4.7060738 -0.093507797 5.0708447 3874070
-4.6562271 -0.093507797 5.0708447 4070677
-4.6063805 -0.093507797 5.0708447 4070420
-4.5565338 -0.093507797 5.0708447 4071192
-4.5066872 -0.093507797 5.0708447 4202264
-4.4568405 -0.093507797 5.0708447 3939862
-4.4069939 -0.093507797 5.0708447 3940120
-4.3571472 -0.093507797 5.0708447 3939862
-4.3073006 -0.093507797 5.0708447 4005139
-4.2574539 -0.093507797 5.0708447 4004886
-3.7400956 -0.083118044 4.5074177 3351841
-3.6957874 -0.083118044 4.5074177 5847344
-3.6514795 -0.083118044 4.5074177 6372651
-4.0580673 -0.093507797 5.0708447 7950134
-4.0082207 -0.093507797 5.0708447 8147253
-3.9583743 -0.093507797 5.0708447 5713685
-3.9085276 -0.093507797 5.0708447 1376774
-3.858681 -0.093507797 5.0708447 918536
-3.8088343 -0.093507797 5.0708447 984329
-3.7589877 -0.093507797 5.0708447 1181196
-3.709141 -0.093507797 5.0708447 2625818
-3.6592944 -0.093507797 5.0708447 9199952
-3.6094477 -0.093507797 5.0708447 9658176
-5.6953621 -0.14961247 8.1133518 9527874
-5.6156077 -0.14961247 8.1133518 9921859
-3.9541805 -0.10686605 5.7952509 10381893
-3.8972127 -0.10686605 5.7952509 10446403
-4.4802861 -0.12467705 6.761126 9987395
-3.7832778 -0.10686605 5.7952509 10185802
-3.2605214 -0.093507797 5.0708447 10382412
-3.2106748 -0.093507797 5.0708447 10644813
-3.1608281 -0.093507797 5.0708447 10907211
-3.1109815 -0.093507797 5.0708447 11039312
-3.0611348 -0.093507797 5.0708447 11170895
-3.0112882 -0.093507797 5.0708447 11499089
-2.9614415 -0.093507797 5.0708447 11826510
-2.9115949 -0.093507797 5.0708447 11563855
-2.5437765 -0.083118044 4.5074177 11826512
-2.4994683 -0.083118044 4.5074177 11827027
-2.7620552 -0.093507797 5.0708447 12155476
-2.7122085 -0.093507797 5.0708447 12090451
-2.6623619 -0.093507797 5.0708447 12090703
-2.9857316 -0.10686605 5.7952509 12155987
-2.5626686 -0.093507797 5.0708447 12090453
-2.5128219 -0.093507797 5.0708447 11894869
-2.4629753 -0.093507797 5.0708447 12418904
-3.2175047 -0.12467705 6.761126 12615510
-3.7812514 -0.14961247 8.1133518 12419668
-3.7014968 -0.14961247 8.1133518 12747605
-3.6217422 -0.14961247 8.1133518 12813143
-3.5419877 -0.14961247 8.1133518 12747350
-3.4622331 -0.14961247 8.1133518 12812373
-3.3824785 -0.14961247 8.1133518 12615506
-3.3027239 -0.14961247 8.1133518 8672824
-2.6858075 -0.12467705 6.761126 10842962
-2.6193452 -0.12467705 6.761126 12943959
-2.5528831 -0.12467705 6.761126 13272922
-2.4864209 -0.12467705 6.761126 13272921
-2.4199588 -0.12467705 6.761126 12352080
-2.3534966 -0.12467705 6.761126 12221265
-1.9603152 -0.10686605 5.7952509 12287828
-1.9033476 -0.10686605 5.7952509 12550230
-1.84638 -0.10686605 5.7952509 11630669
-1.7894125 -0.10686605 5.7952509 13207129
-1.7324449 -0.10686605 5.7952509 11827534
-1.9547236 -0.12467705 6.761126 10973772
-2.2659137 -0.14961247 8.1133518 13009493
-2.1861591 -0.14961247 8.1133518 13009493
-2.6330056 -0.18701559 10.141689 11564107
0 0 0 7226934
0 0 0 8013111
-0.12615815 -0.010108951 0.54819942 8077620
-0.11759119 -0.0098429257 0.53377312 7551532
-0.11234418 -0.0098429257 0.53377312 8670269
-0.10709716 -0.0098429257 0.53377312 7749170
-0.099238604 -0.0095905429 0.52008665 6696740
-0.095348544 -0.0097150952 0.52684098 4987671
-0.090169676 -0.0097150952 0.52684098 4857111
-0.084990799 -0.0097150952 0.52684098 5054234
-0.08086209 -0.0098429257 0.53377312 5120025
-0.075615078 -0.0098429257 0.53377312 4792345
-0.070368066 -0.0098429257 0.53377312 4791320
-0.06598933 -0.0099741649 0.5408901 4595225
-0.061492253 -0.010108951 0.54819942 5382680
-0.056103427 -0.010108951 0.54819942 2887694
-0.051409323 -0.01024743 0.555709 2034961
0 0 0 2362898
0 0 0 2559762
0 0 0 2822932
0 0 0 2888212
-0.029316923 -0.012467706 0.67611259 2822162
-0.023054956 -0.012679024 0.68757218 2690578
-0.016577058 -0.012897626 0.69942683 3019025
-0.0098718647 -0.013123902 0.71169752 3413269
-0.0028758463 -0.013123902 0.71169752 3806998
0.0041937465 -0.013358256 0.72440636 3545108
0.011314694 -0.013358256 0.72440636 3872789
0.018770834 -0.013601133 0.73757738 4003605
0.026503129 -0.013853007 0.75123626 4069913
0.033887815 -0.013853007 0.75123626 4267032
0.041272502 -0.013853007 0.75123626 4398361
0 0 0 4070939
0 0 0 4004632
0 0 0 1048837
0 0 0 721416
0 0 0 655880
0 0 0 786699
0 0 0 1509646
0 0 0 2888465
0 0 0 5253920
0 0 0 5646620
0.82690233 -0.093507797 5.0708447 5253403
0.70139921 -0.074806236 4.0566759 5450527
0.67388767 -0.068005666 3.687887 3939860
0.65096146 -0.062338527 3.380563 984073
0.74639189 -0.068005666 3.687887 1181194
0.86090839 -0.074806236 4.0566759 1049865
0.90078574 -0.074806236 4.0566759 1181195
0.94066304 -0.074806236 4.0566759 3153436
1.0894892 -0.083118044 4.5074177 7688509
1.1337974 -0.083118044 4.5074177 8016447
1.1781055 -0.083118044 4.5074177 9002311
1.2224137 -0.083118044 4.5074177 8871750
1.2667217 -0.083118044 4.5074177 9331527
1.3110299 -0.083118044 4.5074177 9857100
1.355338 -0.083118044 4.5074177 10054221
1.399646 -0.083118044 4.5074177 10711118
1.4439542 -0.083118044 4.5074177 11237975
1.6742951 -0.093507797 5.0708447 12091737
1.7241417 -0.093507797 5.0708447 12748124
1.7739882 -0.093507797 5.0708447 12879967
1.8238349 -0.093507797 5.0708447 13142626
1.6654948 -0.083118044 4.5074177 13208160
1.7098029 -0.083118044 4.5074177 13207647
1.7541111 -0.083118044 4.5074177 13208162
1.7984191 -0.083118044 4.5074177 13142626
1.8427273 -0.083118044 4.5074177 13405026
2.1229148 -0.093507797 5.0708447 13142366
2.1727614 -0.093507797 5.0708447 13207389
1.9756516 -0.083118044 4.5074177 13535071
2.0199597 -0.083118044 4.5074177 13273438
2.0642679 -0.083118044 4.5074177 13207649
2.1085761 -0.083118044 4.5074177 12683358
1.9375957 -0.074806236 4.0566759 12945498
1.5211331 -0.057543259 3.1205199 12879194
1.4409643 -0.053433023 2.8976254 12617306
1.371485 -0.049870823 2.7044504 12616538
1.3980699 -0.049870823 2.7044504 12813404
1.4246547 -0.049870823 2.7044504 12616023
1.4512396 -0.049870823 2.7044504 12615766
1.4778244 -0.049870823 2.7044504 4003860
1.4103838 -0.046753898 2.5354223 1378317
1.3508773 -0.044003665 2.3862798 1313036
1.3743345 -0.044003665 2.3862798 1378059
1.3201367 -0.041559022 2.2537088 1312523
1.3422908 -0.041559022 2.2537088 1247244
1.2926319 -0.039371703 2.1350925 1313294
1.31362 -0.039371703 2.1350925 1443852
1.334608 -0.039371703 2.1350925 655368
1.2878163 -0.037403118 2.028338 720904
1.307755 -0.037403118 2.028338 852489
1.3276936 -0.037403118 2.028338 787209
1.3476323 -0.037403118 2.028338 590600
1.6089069 -0.044003665 2.3862798 787210
1.6323642 -0.044003665 2.3862798 852491
1.7593102 -0.046753898 2.5354223 590087
1.7842335 -0.046753898 2.5354223 590602
1.8091568 -0.046753898 2.5354223 590089
1.8340801 -0.046753898 2.5354223 655881
1.8590034 -0.046753898 2.5354223 655880
2.0095217 -0.049870823 2.7044504 590087
2.0361066 -0.049870823 2.7044504 524809
2.2100267 -0.053433023 2.8976254 590602
2.2385104 -0.053433023 2.8976254 590602
2.2669942 -0.053433023 2.8976254 590089
2.2954781 -0.053433023 2.8976254 590600
2.1690309 -0.049870823 2.7044504 590087
2.3524456 -0.053433023 2.8976254 590089
2.3809295 -0.053433023 2.8976254 459530
2.4094131 -0.053433023 2.8976254 524809
2.437897 -0.053433023 2.8976254 721673
2.6561024 -0.057543259 3.1205199 459016
2.6867774 -0.057543259 3.1205199 721673
2.0780516 -0.044003665 2.3862798 721160
1.8802974 -0.039371703 2.1350925 524807
1.8062212 -0.037403118 2.028338 590600
1.4047384 -0.02877163 1.5602599 720903
1.3674804 -0.027706014 1.5024725 721673
1.3822497 -0.027706014 1.5024725 590089
1.3970191 -0.027706014 1.5024725 590088
1.4660881 -0.02877163 1.5602599 590089
1.6048776 -0.031169264 1.6902815 786696
1.6214931 -0.031169264 1.6902815 852489
1.7093308 -0.032524448 1.763772 656134
1.5885353 -0.029922495 1.6226703 1707274
1.6044862 -0.029922495 1.6226703 8344125
1.5581126 -0.02877163 1.5602599 9133375
1.5151742 -0.027706014 1.5024725 9068100
1.5299435 -0.027706014 1.5024725 9264963
1.4895445 -0.026716512 1.4488127 9067844
1.5037863 -0.026716512 1.4488127 9068101
1.5180283 -0.026716512 1.4488127 9265477
1.4794333 -0.025795253 1.3988537 9067846
1.4434112 -0.024935411 1.3522252 9133639
1.4567037 -0.024935411 1.3522252 9134667
1.5749959 -0.026716512 1.4488127 9265483
1.6480985 -0.027706014 1.5024725 9068360
1.6034796 -0.026716512 1.4488127 9133639
1.6177216 -0.026716512 1.4488127 9133893
1.6319634 -0.026716512 1.4488127 9462344
1.4868952 -0.024131043 1.3086051 9528138
1.4528913 -0.023376949 1.2677112 9527883
1.5126225 -0.024131043 1.3086051 9396296
1.5763355 -0.024935411 1.3522252 9659211
1.6444428 -0.025795253 1.3988537 9922385
1.6581936 -0.025795253 1.3988537 9527628
1.9394555 -0.029922495 1.6226703 9593933
0 0 0 9594187
0 0 0 9658949
0 0 0 9725774
0 0 0 9528396
0 0 0 9593932
0 0 0 9725261
0 0 0 9790796
0 0 0 9594701
0 0 0 9397321
0 0 0 9660492
0 0 0 8607805
0 0 0 8870978
-4.4014053 -0.031753574 3.687887 9199943
-4.3651533 -0.031753574 3.687887 10515287
-4.3289013 -0.031753574 3.687887 11039571
-4.2926493 -0.031753574 3.687887 11171927
-3.9016974 -0.02910744 3.380563 11105877
-7.7369328 -0.058214881 6.761126 11040342
-4.1838932 -0.031753574 3.687887 11105618
-4.1476407 -0.031753574 3.687887 11105878
-4.1113887 -0.031753574 3.687887 11237720
-4.0751367 -0.031753574 3.687887 11368792
-4.0388846 -0.031753574 3.687887 11368536
-4.0026326 -0.031753574 3.687887 11434586
-3.9663804 -0.031753574 3.687887 11828572
-3.3254933 -0.026868409 3.1205199 11893849
-3.2948184 -0.026868409 3.1205199 11697239
-3.5361555 -0.02910744 3.380563 11763290
-3.5029244 -0.02910744 3.380563 11565395
-3.4696932 -0.02910744 3.380563 11368526
-4.123755 -0.034928933 4.0566759 8934445
-4.0838776 -0.034928933 4.0566759 7028001
-4.0440001 -0.034928933 4.0566759 2624000
-4.0041227 -0.034928933 4.0566759 1707023
-3.9642456 -0.034928933 4.0566759 1575438
-3.9243684 -0.034928933 4.0566759 3087128
-4.3161011 -0.038809925 4.5074177 3808275
-4.2717929 -0.038809925 4.5074177 3939860
-4.2274847 -0.038809925 4.5074177 3677205
-4.7060738 -0.043661162 5.0708447 3808537
-4.6562271 -0.043661162 5.0708447 3874582
-4.6063805 -0.043661162 5.0708447 3939603
-4.5565338 -0.043661162 5.0708447 3808019
-4.5066872 -0.043661162 5.0708447 4005398
-4.4568405 -0.043661162 5.0708447 4136730
-4.4069939 -0.043661162 5.0708447 4136986
-4.9795966 -0.049898472 5.7952509 4136984
-4.3073006 -0.043661162 5.0708447 4202775
-3.7844038 -0.038809925 4.5074177 3939603
-3.7400956 -0.038809925 4.5074177 3153948
-3.6957874 -0.038809925 4.5074177 5452328
-3.6514795 -0.038809925 4.5074177 5518374
-4.0580673 -0.043661162 5.0708447 6175786
-4.0082207 -0.043661162 5.0708447 7094571
-3.9583743 -0.043661162 5.0708447 4792590
-3.9085276 -0.043661162 5.0708447 1115398
-4.4099212 -0.049898472 5.7952509 1049351
-4.3529534 -0.049898472 5.7952509 984329
-3.7589877 -0.043661162 5.0708447 918536
-3.709141 -0.043661162 5.0708447 1641235
-3.6592944 -0.043661162 5.0708447 8148556
-3.6094477 -0.043661162 5.0708447 8738362
-3.5596011 -0.043661162 5.0708447 7423273
-3.5097547 -0.043661162 5.0708447 5975576
-3.9541805 -0.049898472 5.7952509 5582363
-3.8972127 -0.049898472 5.7952509 5516829
-3.8402452 -0.049898472 5.7952509 5647901
-3.3103681 -0.043661162 5.0708447 5647645
-3.2605214 -0.043661162 5.0708447 5713694
-3.2106748 -0.043661162 5.0708447 5779231
-3.1608281 -0.043661162 5.0708447 5975583
-3.1109815 -0.043661162 5.0708447 7618087
-3.0611348 -0.043661162 5.0708447 11169869
-3.0112882 -0.043661162 5.0708447 11039308
-2.9614415 -0.043661162 5.0708447 11170125
-2.5880845 -0.038809925 4.5074177 11367503
-2.5437765 -0.038809925 4.5074177 11367504
-2.2495215 -0.034928933 4.0566759 11499089
-2.7620552 -0.043661162 5.0708447 11105611
-2.7122085 -0.043661162 5.0708447 11828049
-3.0426991 -0.049898472 5.7952509 12220752
-2.9857316 -0.049898472 5.7952509 12090195
-2.9287641 -0.049898472 5.7952509 12286547
-2.5128219 -0.043661162 5.0708447 12614992
-2.4629753 -0.043661162 5.0708447 12614992
-2.4131286 -0.043661162 5.0708447 12288082
-2.7008936 -0.049898472 5.7952509 12747861
-2.6439261 -0.049898472 5.7952509 12812371
-2.5869586 -0.049898472 5.7952509 12615254
-2.5299909 -0.049898472 5.7952509 12943707
-2.8851941 -0.058214881 6.761126 12222035
-2.8187318 -0.058214881 6.761126 12222292
-2.7522695 -0.058214881 6.761126 7489325
-2.6858075 -0.058214881 6.761126 10186065
-2.6193452 -0.058214881 6.761126 12550482
-2.5528831 -0.058214881 6.761126 13142106
-2.4864209 -0.058214881 6.761126 11694666
-2.0742505 -0.049898472 5.7952509 11169864
-2.0172827 -0.049898472 5.7952509 10972747
-1.9603152 -0.049898472 5.7952509 11301455
-1.9033476 -0.049898472 5.7952509 11498062
-1.84638 -0.049898472 5.7952509 12090710
-1.7894125 -0.049898472 5.7952509 11565134
-1.7324449 -0.049898472 5.7952509 11433034
-1.9547236 -0.058214881 6.761126 12156753
-1.8882613 -0.058214881 6.761126 13207642
-2.1861591 -0.069857866 8.1133518 13272663
-2.6330056 -0.087322325 10.141689 11827019
0 0 0 8413518
0 0 0 6963513
-0.1228382 -0.0045959121 0.53377312 7619124
-0.11759119 -0.0045959121 0.53377312 8667440
-0.11234418 -0.0045959121 0.53377312 8536369
-0.10435108 -0.0044780681 0.52008665 7617328
-0.099238604 -0.0044780681 0.52008665 5581089
-0.094126135 -0.0044780681 0.52008665 4922905
-0.090169676 -0.0045362245 0.52684098 4594455
-0.084990799 -0.0045362245 0.52684098 4922906
-0.08086209 -0.0045959121 0.53377312 4924188
-0.075615078 -0.0045959121 0.53377312 5186075
-0.070368066 -0.0045959121 0.53377312 5054232
-0.06598933 -0.0046571908 0.5408901 5119771
-0.061492253 -0.0047201258 0.54819942 5055005
-0.056103427 -0.0047201258 0.54819942 5318170
-0.051409323 -0.0047847847 0.555709 2757137
-0.047915824 -0.0049898471 0.57952511 2494997
0 0 0 2757140
0 0 0 2757397
0 0 0 2822930
-0.029316923 -0.0058214879 0.67611259 2756625
-0.022670705 -0.0058214879 0.67611259 2822676
-0.016024489 -0.0058214879 0.67611259 3150097
-0.0095372256 -0.0059201578 0.68757218 3347219
-0.0028758463 -0.0061278827 0.71169752 3347734
0.0041937465 -0.006237309 0.72440636 3807254
0.011314694 -0.006237309 0.72440636 3872790
0.018770834 -0.0063507142 0.73757738 4069654
0.026503129 -0.0064683203 0.75123626 4267289
0.033887815 -0.0064683203 0.75123626 4333082
0.040522091 -0.0063507142 0.73757738 4332821
0.047772508 -0.0063507142 0.73757738 3610645
0.055022929 -0.0063507142 0.73757738 1245702
0.065866046 -0.0067171021 0.78012997 852488
0 0 0 720903
0 0 0 721157
0 0 0 786696
0 0 0 721417
0 0 0 983815
0 0 0 1443852
0 0 0 2954513
0 0 0 5254177
0 0 0 5385247
0.7412765 -0.034928933 4.0566759 3939861
0.65096146 -0.02910744 3.380563 1049352
0.68419254 -0.02910744 3.380563 1115144
0.78264397 -0.031753574 3.687887 1180680
0.7506547 -0.02910744 3.380563 1378316
0.85514814 -0.031753574 3.687887 2824730
0.98054034 -0.034928933 4.0566759 5847596
1.1337974 -0.038809925 4.5074177 5715241
1.1781055 -0.038809925 4.5074177 5847852
1.2224137 -0.038809925 4.5074177 7556665
1.2667217 -0.038809925 4.5074177 8936515
1.3110299 -0.038809925 4.5074177 9265479
1.355338 -0.038809925 4.5074177 9659463
1.399646 -0.038809925 4.5074177 10448461
1.4439542 -0.038809925 4.5074177 11171664
1.4882623 -0.038809925 4.5074177 12025687
1.7241417 -0.043661162 5.0708447 12485468
1.7739882 -0.043661162 5.0708447 13076061
1.6211867 -0.038809925 4.5074177 12946014
1.6654948 -0.038809925 4.5074177 13010781
1.7098029 -0.038809925 4.5074177 13076833
1.7541111 -0.038809925 4.5074177 13535328
1.7984191 -0.038809925 4.5074177 13471074
1.8427273 -0.038809925 4.5074177 12946017
2.1229148 -0.043661162 5.0708447 13273952
1.9313436 -0.038809925 4.5074177 13207902
1.9756516 -0.038809925 4.5074177 13338975
2.0199597 -0.038809925 4.5074177 13141855
2.0642679 -0.038809925 4.5074177 13011295
1.8977184 -0.034928933 4.0566759 12879454
1.4904583 -0.026868409 3.1205199 13141341
1.4124806 -0.024949236 2.8976254 12813661
1.4409643 -0.024949236 2.8976254 12683102
1.371485 -0.023285951 2.7044504 12617053
1.3106905 -0.021830581 2.5354223 12550490
1.4246547 -0.023285951 2.7044504 12550746
1.4512396 -0.023285951 2.7044504 12157016
1.4778244 -0.023285951 2.7044504 3938582
1.32742 -0.020546429 2.3862798 983559
1.2758286 -0.019404963 2.2537088 984328
1.2979827 -0.019404963 2.2537088 1378316
1.2506558 -0.018383648 2.1350925 1181708
1.2716439 -0.018383648 2.1350925 1246988
1.2926319 -0.018383648 2.1350925 1312523
1.31362 -0.018383648 2.1350925 1312780
1.334608 -0.018383648 2.1350925 720903
1.2878163 -0.017464466 2.028338 720902
1.307755 -0.017464466 2.028338 786951
1.3276936 -0.017464466 2.028338 655624
1.4185603 -0.018383648 2.1350925 786953
1.6089069 -0.020546429 2.3862798 721416
1.6323642 -0.020546429 2.3862798 524550
