# .PCD v0.7 - Point Cloud Data file format
VERSION 0.7
FIELDS x y z rgb
SIZE 4 4 4 4
TYPE F F F U
COUNT 1 1 1 1
WIDTH 1302
HEIGHT 1
VIEWPOINT 0 0 0 1 0 0 0
POINTS 1302
DATA ascii
0 0 0 10185552
0 0 0 10053714
0 0 0 9922638
0 0 0 10053971
0 0 0 9988948
0 0 0 9857875
0 0 0 12616795
0 0 0 13077347
-3.2276974 -0.71449256 2.7044504 13273955
-4.0013905 -0.8931157 3.380563 13865063
-3.9681594 -0.8931157 3.380563 13471845
-4.2926493 -0.97430801 3.687887 13603172
-4.2563972 -0.97430801 3.687887 13799784
-4.6421599 -1.0717388 4.0566759 13668198
-4.6022825 -1.0717388 4.0566759 13602920
-4.5624051 -1.0717388 4.0566759 13340774
-4.1113887 -0.97430801 3.687887 13472614
-4.0751367 -0.97430801 3.687887 13603685
-4.0388846 -0.97430801 3.687887 14128743
-4.0026326 -0.97430801 3.687887 13931107
-3.9663804 -0.97430801 3.687887 13799523
-3.9301283 -0.97430801 3.687887 13734245
-3.8938763 -0.97430801 3.687887 13799781
-4.2433867 -1.0717388 4.0566759 13865831
-3.821372 -0.97430801 3.687887 13604453
-3.78512 -0.97430801 3.687887 12351559
-3.7488678 -0.97430801 3.687887 10185282
-4.0838776 -1.0717388 4.0566759 10446405
-3.6763637 -0.97430801 3.687887 11631193
-3.3367689 -0.8931157 3.380563 12353110
-3.3035378 -0.8931157 3.380563 12551001
-3.2703068 -0.8931157 3.380563 12681816
-2.98807 -0.82441455 3.1205199 12616281
-2.9573951 -0.82441455 3.1205199 12419417
-2.9267204 -0.82441455 3.1205199 12551004
-2.8960454 -0.82441455 3.1205199 12156759
-2.8653705 -0.82441455 3.1205199 12484952
-2.8346958 -0.82441455 3.1205199 12485210
-2.8040209 -0.82441455 3.1205199 12615512
-2.7733459 -0.82441455 3.1205199 12616023
-2.546766 -0.76552773 2.8976254 12090705
-2.5182822 -0.76552773 2.8976254 12091221
-2.6813214 -0.82441455 3.1205199 12222807
-2.6506467 -0.82441455 3.1205199 11828308
-2.8383026 -0.8931157 3.380563 11893844
-3.366086 -1.0717388 4.0566759 12091224
-2.7718403 -0.8931157 3.380563 11959127
-1.5649196 -0.51035184 1.9317503 11696464
-1.5459304 -0.51035184 1.9317503 12025172
-1.5269413 -0.51035184 1.9317503 11631953
-1.9791871 -0.66983676 2.5354223 12089938
-2.2334442 -0.76552773 2.8976254 11630670
-2.374573 -0.82441455 3.1205199 11500626
-2.3438981 -0.82441455 3.1205199 11959640
-2.3132234 -0.82441455 3.1205199 11696211
-2.2825484 -0.82441455 3.1205199 11630416
-2.2518735 -0.82441455 3.1205199 11564879
-2.2211988 -0.82441455 3.1205199 11958867
-1.6751064 -0.63043463 2.3862798 11696465
-1.7548773 -0.66983676 2.5354223 11630159
-1.729954 -0.66983676 2.5354223 11696465
-2.0984993 -0.82441455 3.1205199 11696206
-2.0678244 -0.82441455 3.1205199 11828050
-2.6482944 -1.0717388 4.0566759 11630670
-2.8982413 -1.1908211 4.5074177 11499342
0 0 0 11762258
-2.8096251 -1.1908211 4.5074177 11762261
-2.765317 -1.1908211 4.5074177 11827281
-2.721009 -1.1908211 4.5074177 11696210
-2.1900277 -0.97430801 3.687887 11828051
-1.9742943 -0.8931157 3.380563 12090708
-2.1175237 -0.97430801 3.687887 11958865
-2.2893987 -1.0717388 4.0566759 12352599
-2.2495215 -1.0717388 4.0566759 12026455
-1.6997262 -0.82441455 3.1205199 12025171
-1.5498334 -0.76552773 2.8976254 12156242
-1.3311809 -0.66983676 2.5354223 12287060
-1.3933414 -0.71449256 2.7044504 12419159
-2.2779276 -1.1908211 4.5074177 12549717
-2.2336197 -1.1908211 4.5074177 12484952
-1.2314876 -0.66983676 2.5354223 12615510
-1.2065643 -0.66983676 2.5354223 12747606
-1.5755213 -0.8931157 3.380563 13010262
-1.5422902 -0.8931157 3.380563 13076313
-1.8108711 -1.0717388 4.0566759 12616788
-1.9677709 -1.1908211 4.5074177 13142619
0 0 0 13077339
0 0 0 13404762
-1.3761348 -0.8931157 3.380563 13732698
-1.1510603 -0.76552773 2.8976254 13010517
-0.98225451 -0.66983676 2.5354223 13404248
-0.85096109 -0.59541053 2.2537088 13273175
-0.64863157 -0.46597341 1.763772 13732699
-0.55845207 -0.41220728 1.5602599 13666905
-0.67242759 -0.51035184 1.9317503 13601627
0 0 0 13536091
0 0 0 13273174
0 0 0 13142360
0 0 0 13141079
0 0 0 12286545
-0.19226789 -0.1756949 0.66502881 12812373
-0.18573064 -0.1756949 0.66502881 12023884
-0.17919336 -0.1756949 0.66502881 11235402
-0.1726561 -0.1756949 0.66502881 7092508
-0.16084523 -0.17011727 0.64391679 2428944
-0.15210119 -0.16745919 0.63385558 1903629
-0.14587036 -0.16745919 0.63385558 3941152
-0.13338701 -0.15996103 0.605474 5780008
-0.12556113 -0.15760866 0.59656996 5977389
-0.11969683 -0.15760866 0.59656996 5976878
-0.11383252 -0.15760866 0.59656996 6041901
-0.10640345 -0.15532447 0.587924 5319207
-0.10062413 -0.15532447 0.587924 4990242
-0.093489885 -0.15310556 0.57952511 4464157
-0.087793127 -0.15310556 0.57952511 4070426
-0.082096368 -0.15310556 0.57952511 4070427
-0.076399609 -0.15310556 0.57952511 2559502
-0.070702858 -0.15310556 0.57952511 1903118
-0.0650061 -0.15310556 0.57952511 1969168
-0.059309341 -0.15310556 0.57952511 2099726
-0.053612582 -0.15310556 0.57952511 1770505
-0.048610255 -0.15532447 0.587924 1638918
-0.042830933 -0.15532447 0.587924 1967625
-0.037596494 -0.15760866 0.59656996 2427403
-0.031732183 -0.15760866 0.59656996 3346704
-0.026253961 -0.15996103 0.605474 4070420
-0.020609733 -0.16238466 0.61464781 4464407
-0.014567716 -0.16238466 0.61464781 4530200
-0.0086568659 -0.1648829 0.62410396 2034445
-0.0025613005 -0.16745919 0.63385558 1574155
0.0037277748 -0.17011727 0.64391679 1180938
0.010219724 -0.1728611 0.65430254 3215118
0.016651547 -0.1728611 0.65430254 3083022
0.023461787 -0.1756949 0.66502881 8801576
0.029999049 -0.1756949 0.66502881 13601112
0.039100263 -0.18802437 0.71169752 13470044
0.046096284 -0.18802437 0.71169752 13666903
0.053092301 -0.18802437 0.71169752 13733470
0.05805143 -0.18165065 0.68757218 13602141
0.067084342 -0.18802437 0.71169752 13011034
0.074080355 -0.18802437 0.71169752 13208153
0.081076376 -0.18802437 0.71169752 13141084
0.091275021 -0.19486161 0.73757738 13075286
0.10034999 -0.19847016 0.75123626 13207129
0.1097674 -0.20221487 0.76541048 12616021
0.11729142 -0.20221487 0.76541048 12943960
0.13230437 -0.21434776 0.81133515 12878426
0.14027983 -0.21434776 0.81133515 12354136
0.14825529 -0.21434776 0.81133515 12878426
0.15623075 -0.21434776 0.81133515 12616538
0.16420622 -0.21434776 0.81133515 12681818
0.17569558 -0.21872222 0.82789302 12680788
0.20017458 -0.23816419 0.90148348 12879192
0 0 0 12616539
0 0 0 12747865
0 0 0 12681816
0 0 0 12616793
0 0 0 13076315
0 0 0 13272922
0.47197074 -0.42869553 1.6226703 13142363
0.48792166 -0.42869553 1.6226703 13141855
0.57258248 -0.48715401 1.8439435 13338719
0.59070849 -0.48715401 1.8439435 13011550
0 0 0 13470303
0.59970146 -0.46597341 1.763772 13471073
0.5913294 -0.44655785 1.6902815 13732964
0.58362716 -0.42869553 1.6226703 13667680
0.62456053 -0.44655785 1.6902815 13799266
0.73277265 -0.51035184 1.9317503 13930851
0.71759081 -0.48715401 1.8439435 13930338
0.70372921 -0.46597341 1.763772 13930595
0.72106713 -0.46597341 1.763772 13865058
0.73840511 -0.46597341 1.763772 14061921
0.75574309 -0.46597341 1.763772 14325350
0.80822104 -0.48715401 1.8439435 14390630
0.82634711 -0.48715401 1.8439435 14455649
0.84447318 -0.48715401 1.8439435 14260327
0.90367538 -0.51035184 1.9317503 13997671
0.92266452 -0.51035184 1.9317503 14784101
0.98873651 -0.53586942 2.028338 14324837
1.0086751 -0.53586942 2.028338 14587752
1.0286138 -0.53586942 2.028338 14457192
0.99862134 -0.51035184 1.9317503 14456936
1.0176105 -0.51035184 1.9317503 14720107
1.0365998 -0.51035184 1.9317503 14389860
1.7051822 -0.82441455 3.1205199 14390885
1.735857 -0.82441455 3.1205199 14653800
1.9137428 -0.8931157 3.380563 14391656
1.9469738 -0.8931157 3.380563 14258787
1.8278816 -0.82441455 3.1205199 14129258
2.0134361 -0.8931157 3.380563 14063723
1.8892312 -0.82441455 3.1205199 13930849
2.0798981 -0.8931157 3.380563 13996130
1.1526159 -0.48715401 1.8439435 13930852
1.0731802 -0.44655785 1.6902815 13865574
1.0897957 -0.44655785 1.6902815 13996644
1.26447 -0.51035184 1.9317503 14194023
1.2834592 -0.51035184 1.9317503 13600862
0.94315231 -0.3695651 1.3988537 13799268
0.9569031 -0.3695651 1.3988537 13668709
0.87965512 -0.33491838 1.2677112 13601887
0.95159113 -0.35724628 1.3522252 13338977
1.1578604 -0.42869553 1.6226703 13406052
1.7261931 -0.63043463 2.3862798 13274724
0 0 0 13142111
0 0 0 13338465
1.3278956 -0.46597341 1.763772 13010783
1.2891822 -0.44655785 1.6902815 13142366
0.94967109 -0.32476932 1.2292956 12748893
0.9617551 -0.32476932 1.2292956 12814950
1.0366676 -0.3457222 1.3086051 12748382
1.3014187 -0.42869553 1.6226703 12420445
0.74850541 -0.243577 0.92197174 12616795
0.72463071 -0.2329867 0.88188601 12485727
0.76663148 -0.243577 0.92197174 12288350
0.77569449 -0.243577 0.92197174 12354656
1.2331904 -0.38276386 1.4488127 12288862
0 0 0 12222814
0 0 0 12222555
0 0 0 11829595
0 0 0 11499861
0 0 0 11828573
0 0 0 11828314
0 0 0 11827797
0 0 0 11697501
0 0 0 11696984
1.6048776 -0.44655785 1.6902815 11762010
1.6214931 -0.44655785 1.6902815 11565141
1.6381086 -0.44655785 1.6902815 11433557
0 0 0 11434070
1.7440066 -0.46597341 1.763772 11302484
1.6879553 -0.44655785 1.6902815 11171159
1.7786826 -0.46597341 1.763772 11105366
1.7211864 -0.44655785 1.6902815 10778454
1.6682899 -0.42869553 1.6226703 10843477
1.6842408 -0.42869553 1.6226703 11039318
1.7710329 -0.44655785 1.6902815 11169876
3.0645404 -0.76552773 2.8976254 11039060
3.093024 -0.76552773 2.8976254 10842446
2.9134073 -0.71449256 2.7044504 10645583
2.9399922 -0.71449256 2.7044504 10907730
3.4229739 -0.82441455 3.1205199 11235668
3.7414525 -0.8931157 3.380563 10907217
0 0 0 10383442
0 0 0 10514769
0 0 0 10711377
3.5763481 -0.82441455 3.1205199 10382925
0 0 0 10514770
0 0 0 10449236
0 0 0 10252374
0 0 0 10514519
0 0 0 10578255
0 0 0 10251343
0 0 0 9923409
0 0 0 9923150
0 0 0 10317139
0 0 0 10448212
0 0 0 10579540
0 0 0 10250323
0 0 0 10053714
0 0 0 10185811
0 0 0 10053967
0 0 0 12748382
0 0 0 12945506
-3.7242663 -0.79373968 3.1205199 13142371
-3.6935916 -0.79373968 3.1205199 13077348
-3.6629167 -0.79373968 3.1205199 13470819
-3.9349284 -0.85988462 3.380563 13339748
-4.2563972 -0.93805593 3.687887 13471334
-4.2201452 -0.93805593 3.687887 13603688
-4.6022825 -1.0318615 4.0566759 13340516
-4.5624051 -1.0318615 4.0566759 13537637
-4.1113887 -0.93805593 3.687887 13471843
-4.0751367 -0.93805593 3.687887 13472613
-4.0388846 -0.93805593 3.687887 13472614
-4.0026326 -0.93805593 3.687887 13734244
-3.9663804 -0.93805593 3.687887 13537380
-3.9301283 -0.93805593 3.687887 13800038
-3.8938763 -0.93805593 3.687887 13406309
-4.2433867 -1.0318615 4.0566759 13800297
-4.2035093 -1.0318615 4.0566759 13866083
-3.78512 -0.93805593 3.687887 11957829
-3.7488678 -0.93805593 3.687887 10316100
-4.0838776 -1.0318615 4.0566759 9922886
-4.0440001 -1.0318615 4.0566759 10841679
-3.3367689 -0.85988462 3.380563 12484957
-3.3035378 -0.85988462 3.380563 12747096
-3.2703068 -0.85988462 3.380563 12550998
-2.98807 -0.79373968 3.1205199 12418899
-2.9573951 -0.79373968 3.1205199 12550230
-2.9267204 -0.79373968 3.1205199 12550743
-2.8960454 -0.79373968 3.1205199 12222807
-2.8653705 -0.79373968 3.1205199 12550232
-2.8346958 -0.79373968 3.1205199 12418133
-2.8040209 -0.79373968 3.1205199 12550485
-2.7733459 -0.79373968 3.1205199 12550231
-2.546766 -0.73704392 2.8976254 12551002
-2.5182822 -0.73704392 2.8976254 12484694
-2.4897983 -0.73704392 2.8976254 12353108
-2.6506467 -0.79373968 3.1205199 11893842
-2.8383026 -0.85988462 3.380563 12484439
-2.5892968 -0.79373968 3.1205199 11762515
-2.7718403 -0.85988462 3.380563 11893587
-1.5649196 -0.49136263 1.9317503 11893844
-1.5459304 -0.49136263 1.9317503 11959635
-1.5269413 -0.49136263 1.9317503 11893074
-2.2619281 -0.73704392 2.8976254 12221267
-2.4052479 -0.79373968 3.1205199 11958865
-2.374573 -0.79373968 3.1205199 11893843
-2.3438981 -0.79373968 3.1205199 11828050
-2.3132234 -0.79373968 3.1205199 12024918
-2.4727607 -0.85988462 3.380563 12024660
-3.2527063 -1.1465129 4.5074177 11827281
-3.2083981 -1.1465129 4.5074177 11696465
-2.1905239 -0.79373968 3.1205199 12155476
-2.1598489 -0.79373968 3.1205199 11696724
-2.1291742 -0.79373968 3.1205199 11696212
-2.0984993 -0.79373968 3.1205199 12154963
-2.0678244 -0.79373968 3.1205199 12089938
-2.6482944 -1.0318615 4.0566759 11958867
-2.6084173 -1.0318615 4.0566759 11696211
-2.8539333 -1.1465129 4.5074177 11631186
-2.8096251 -1.1465129 4.5074177 11959124
-2.765317 -1.1465129 4.5074177 12024658
-2.721009 -1.1465129 4.5074177 12156246
-2.6767008 -1.1465129 4.5074177 12287060
-2.3691535 -1.0318615 4.0566759 12287576
-2.3292761 -1.0318615 4.0566759 12090451
-2.2893987 -1.0318615 4.0566759 12221524
-2.2495215 -1.0318615 4.0566759 12287317
-1.84137 -0.85988462 3.380563 12352853
-1.6690514 -0.79373968 3.1205199 12615510
-1.5213495 -0.73704392 2.8976254 12551254
-1.6077017 -0.79373968 3.1205199 12550230
-2.2779276 -1.1465129 4.5074177 12681816
-2.2336197 -1.1465129 4.5074177 12878420
-1.2314876 -0.64491343 2.5354223 13077081
-1.2065643 -0.64491343 2.5354223 12944471
-1.4543275 -0.79373968 3.1205199 13141592
-1.5422902 -0.85988462 3.380563 13338712
-1.8108711 -1.0318615 4.0566759 13142360
-1.9677709 -1.1465129 4.5074177 13601114
0 0 0 13536090
0 0 0 13601882
-1.1795441 -0.73704392 2.8976254 13536091
-1.0071778 -0.64491343 2.5354223 13799518
-0.87311518 -0.57325643 2.2537088 13799004
-0.72939515 -0.49136263 1.9317503 13404503
-0.57378948 -0.39686984 1.5602599 13733720
-0.45374227 -0.32245672 1.2677112 13732700
-0.50432068 -0.36852196 1.4488127 13799518
-0.41582441 -0.31268531 1.2292956 13733470
0 0 0 13929305
0 0 0 13864282
0 0 0 13141590
0 0 0 13337944
-0.19226789 -0.16915762 0.66502881 13075542
-0.18273498 -0.16642928 0.65430254 12747349
-0.17919336 -0.16915762 0.66502881 12219984
-0.16987133 -0.16642928 0.65430254 7947045
-0.16343951 -0.16642928 0.65430254 5318174
-0.15210119 -0.16122836 0.63385558 1641229
-0.14587036 -0.16122836 0.63385558 3020311
-0.13540803 -0.15634266 0.61464781 6239528
-0.12556113 -0.15174435 0.59656996 6567977
-0.11969683 -0.15174435 0.59656996 5385766
-0.11218277 -0.14954515 0.587924 4136732
-0.10640345 -0.14954515 0.587924 3545370
-0.099186644 -0.1474088 0.57952511 3413013
-0.093489885 -0.1474088 0.57952511 3676442
-0.087793127 -0.1474088 0.57952511 4136218
-0.082096368 -0.1474088 0.57952511 4069656
-0.076399609 -0.1474088 0.57952511 3019283
-0.070702858 -0.1474088 0.57952511 2559761
-0.0650061 -0.1474088 0.57952511 2165004
-0.059309341 -0.1474088 0.57952511 1114630
-0.054389574 -0.14954515 0.587924 983559
-0.048610255 -0.14954515 0.587924 1180938
-0.042830933 -0.14954515 0.587924 2758939
-0.037596494 -0.15174435 0.59656996 1639947
-0.031732183 -0.15174435 0.59656996 2099726
-0.026253961 -0.15400919 0.605474 2887952
-0.020609733 -0.15634266 0.61464781 4267029
-0.014791836 -0.15874793 0.62410396 4857880
-0.0086568659 -0.15874793 0.62410396 3610902
-0.0025613005 -0.16122836 0.63385558 1508873
0.0037277748 -0.16378754 0.64391679 1246473
0.010219724 -0.16642928 0.65430254 1705224
0.016651547 -0.16642928 0.65430254 4200218
0.023461787 -0.16915762 0.66502881 4132614
0.030499032 -0.17197692 0.67611259 13338710
0 0 0 13799263
0 0 0 13733723
0.054040376 -0.18426098 0.72440636 13733466
0.060088322 -0.18102835 0.71169752 13470555
0.067084342 -0.18102835 0.71169752 13470555
0.075403214 -0.18426098 0.72440636 13470301
0.085580617 -0.19108547 0.75123626 13075286
0.092965305 -0.19108547 0.75123626 12944728
0.10034999 -0.19108547 0.75123626 13207127
0.1097674 -0.19469085 0.76541048 13207386
0.11729142 -0.19469085 0.76541048 12813144
0.13230437 -0.20637231 0.81133515 12681559
0.14314269 -0.21058398 0.82789302 12944473
0.15128091 -0.21058398 0.82789302 12549718
0.15941913 -0.21058398 0.82789302 12682072
0.16755736 -0.21058398 0.82789302 12550745
0.1793559 -0.21497115 0.84514076 12616536
0.20472401 -0.23451398 0.92197174 12682071
0.22943 -0.25167355 0.98943311 12812888
0 0 0 13141338
0 0 0 13010522
0 0 0 13338458
0 0 0 12749403
0 0 0 13141084
0 0 0 12945242
0.55445641 -0.46902797 1.8439435 13141338
0.57258248 -0.46902797 1.8439435 13470045
0.59070849 -0.46902797 1.8439435 13404767
0.60883456 -0.46902797 1.8439435 13667425
0.55172533 -0.41274461 1.6226703 13470816
0.5913294 -0.42994231 1.6902815 13733473
0.60794497 -0.42994231 1.6902815 13799009
0 0 0 13929825
0 0 0 13668707
0 0 0 13734497
0.70372921 -0.44863543 1.763772 14258790
0.72106713 -0.44863543 1.763772 13930850
0.73840511 -0.44863543 1.763772 13931107
0.75574309 -0.44863543 1.763772 14062434
0.773081 -0.44863543 1.763772 14457449
0.82634711 -0.46902797 1.8439435 14587750
0.88468617 -0.49136263 1.9317503 14324836
0.90367538 -0.49136263 1.9317503 14653030
0.96879786 -0.51593077 2.028338 14522212
0.98873651 -0.51593077 2.028338 14129253
1.0086751 -0.51593077 2.028338 14522471
1.0286138 -0.51593077 2.028338 14456934
1.1037394 -0.54308504 2.1350925 14391655
1.2570482 -0.6069774 2.3862798 14719333
1.2805055 -0.6069774 2.3862798 14390376
1.7051822 -0.79373968 3.1205199 14588777
1.735857 -0.79373968 3.1205199 14063208
1.7665318 -0.79373968 3.1205199 14587237
1.9469738 -0.85988462 3.380563 14128228
1.6973186 -0.73704392 2.8976254 14259813
1.8585564 -0.79373968 3.1205199 14325093
1.8892312 -0.79373968 3.1205199 14194021
2.0798981 -0.85988462 3.380563 14062436
1.950581 -0.79373968 3.1205199 13996647
1.170742 -0.46902797 1.8439435 14062439
1.2454808 -0.49136263 1.9317503 14128228
1.3276936 -0.51593077 2.028338 13733475
1.3476323 -0.51593077 2.028338 13602149
1.3024484 -0.49136263 1.9317503 13733221
0.89516741 -0.33285856 1.3086051 13733218
0.87965512 -0.32245672 1.2677112 13535839
0.95159113 -0.34395385 1.3522252 13340261
1.1578604 -0.41274461 1.6226703 13339748
1.22272 -0.42994231 1.6902815 13274211
1.2393357 -0.42994231 1.6902815 13273440
0.94196337 -0.32245672 1.2677112 12880480
1.2725667 -0.42994231 1.6902815 13142369
1.2891822 -0.42994231 1.6902815 13142108
1.3625716 -0.44863543 1.763772 12616797
1.2695168 -0.41274461 1.6226703 12551265
1.3390288 -0.42994231 1.6902815 12813665
1.3014187 -0.41274461 1.6226703 12486241
1.3173696 -0.41274461 1.6226703 12748896
1.3333205 -0.41274461 1.6226703 12616028
1.0221753 -0.31268531 1.2292956 12484957
1.4221066 -0.42994231 1.6902815 12221787
0 0 0 12156764
0 0 0 12222557
0 0 0 12025689
0 0 0 12288604
0 0 0 11828056
0 0 0 11697242
0 0 0 11697242
0 0 0 11762522
0 0 0 11696983
1.9059145 -0.51593077 2.028338 11564885
1.9258533 -0.51593077 2.028338 11434070
2.2891667 -0.6069774 2.3862798 11500374
2.312624 -0.6069774 2.3862798 11171411
0 0 0 11301714
0 0 0 11368791
2.5319331 -0.64491343 2.5354223 11367766
2.5568564 -0.64491343 2.5354223 11039571
2.5817795 -0.64491343 2.5354223 11171157
2.6067028 -0.64491343 2.5354223 10973778
2.0050485 -0.49136263 1.9317503 11170644
2.6565495 -0.64491343 2.5354223 10843220
2.6814728 -0.64491343 2.5354223 10778194
2.7063961 -0.64491343 2.5354223 10842962
2.9134073 -0.6879077 2.7044504 10907477
2.9399922 -0.6879077 2.7044504 10646101
3.1784754 -0.73704392 2.8976254 10383956
3.4536486 -0.79373968 3.1205199 10515282
3.4843235 -0.79373968 3.1205199 10644815
3.5149984 -0.79373968 3.1205199 10579535
2.8808594 -0.64491343 2.5354223 10383442
2.9057827 -0.64491343 2.5354223 10251343
3.3493781 -0.73704392 2.8976254 10579796
0 0 0 10382674
0 0 0 10185808
0 0 0 10580308
0 0 0 10382670
0 0 0 10317390
0 0 0 10448208
0 0 0 10186067
0 0 0 10382933
0 0 0 10185811
0 0 0 9988688
0 0 0 10119761
0 0 0 9857105
0 0 0 10053971
0 0 0 9857104
0 0 0 12354652
0 0 0 12683358
-3.7242663 -0.7630648 3.1205199 12814432
-3.6935916 -0.7630648 3.1205199 12880996
-3.6629167 -0.7630648 3.1205199 13208162
-3.6322417 -0.7630648 3.1205199 13274727
-3.9016974 -0.82665354 3.380563 12881509
-4.6421599 -0.99198431 4.0566759 12947044
-4.6022825 -0.99198431 4.0566759 13472103
-4.1476407 -0.90180385 3.687887 13471332
-4.1113887 -0.90180385 3.687887 13602662
-4.0751367 -0.90180385 3.687887 13537897
-4.0388846 -0.90180385 3.687887 13733993
-4.0026326 -0.90180385 3.687887 13471586
-3.9663804 -0.90180385 3.687887 13340770
-3.9301283 -0.90180385 3.687887 13407079
-4.2832642 -0.99198431 4.0566759 13537897
-4.2433867 -0.99198431 4.0566759 13406309
-4.2035093 -0.99198431 4.0566759 13143645
-3.78512 -0.90180385 3.687887 11892041
-3.7488678 -0.90180385 3.687887 10315587
-4.0838776 -0.99198431 4.0566759 10316102
-4.0440001 -0.99198431 4.0566759 9987655
-4.0041227 -0.99198431 4.0566759 10908754
-3.3035378 -0.82665354 3.380563 12418902
-3.2703068 -0.82665354 3.380563 12354134
-2.98807 -0.7630648 3.1205199 12682070
-2.7461524 -0.70856017 2.8976254 12747865
-2.9267204 -0.7630648 3.1205199 12550743
-2.8960454 -0.7630648 3.1205199 12615765
-2.8653705 -0.7630648 3.1205199 12288085
-2.8346958 -0.7630648 3.1205199 12550232
-2.8040209 -0.7630648 3.1205199 12549719
-2.5752497 -0.70856017 2.8976254 12616277
-2.546766 -0.70856017 2.8976254 12222037
-2.3503966 -0.66132277 2.7044504 12223066
-1.742859 -0.49599215 2.028338 12418647
-1.5662911 -0.45090193 1.8439435 12353110
-1.7926122 -0.52209699 2.1350925 12090194
-2.5892968 -0.7630648 3.1205199 12025680
-2.7718403 -0.82665354 3.380563 12026455
-2.7386093 -0.82665354 3.380563 12155988
-2.7053783 -0.82665354 3.380563 12352853
-2.6721473 -0.82665354 3.380563 11893844
-2.638916 -0.82665354 3.380563 12025687
-2.605685 -0.82665354 3.380563 11893588
-2.374573 -0.7630648 3.1205199 11696468
-2.3438981 -0.7630648 3.1205199 11828308
-2.5059917 -0.82665354 3.380563 11828052
-2.6975572 -0.90180385 3.687887 11959637
-3.2527063 -1.1022048 4.5074177 12156245
-3.2083981 -1.1022048 4.5074177 11958867
-3.1640902 -1.1022048 4.5074177 12024147
-2.5525486 -0.90180385 3.687887 11630672
-2.3066053 -0.82665354 3.380563 11761999
-2.0984993 -0.7630648 3.1205199 11565134
-2.2401431 -0.82665354 3.380563 11827795
-2.4075403 -0.90180385 3.687887 11959637
-2.3712883 -0.90180385 3.687887 11959380
-2.8539333 -1.1022048 4.5074177 12024916
-2.8096251 -1.1022048 4.5074177 12024660
-2.765317 -1.1022048 4.5074177 12025171
-2.721009 -1.1022048 4.5074177 12418131
-2.6767008 -1.1022048 4.5074177 12155733
-2.6323926 -1.1022048 4.5074177 12417618
-2.5880845 -1.1022048 4.5074177 12681818
-2.2893987 -0.99198431 4.0566759 12287571
-2.2495215 -0.99198431 4.0566759 12615510
-1.84137 -0.82665354 3.380563 12616277
-1.808139 -0.82665354 3.380563 12616793
-1.6383766 -0.7630648 3.1205199 13010010
-1.7416768 -0.82665354 3.380563 12879449
-2.2779276 -1.1022048 4.5074177 13141336
-2.2336197 -1.1022048 4.5074177 13010007
-2.1893115 -1.1022048 4.5074177 13535579
-1.6087524 -0.82665354 3.380563 13011289
-1.5755213 -0.82665354 3.380563 13338971
-1.5422902 -0.82665354 3.380563 13405532
-1.8108711 -0.99198431 4.0566759 13602141
-1.9677709 -1.1022048 4.5074177 13799518
0 0 0 13930847
-1.8791547 -1.1022048 4.5074177 13799261
-1.0321012 -0.61999017 2.5354223 13930334
-0.94793206 -0.58352011 2.3862798 14127200
-0.74838436 -0.47237343 1.9317503 14389344
-0.63822079 -0.41332677 1.6902815 13733466
-0.59674102 -0.39679369 1.6226703 13996895
-0.51856261 -0.35428008 1.4488127 13931107
-0.56483918 -0.39679369 1.6226703 14259298
-0.42881897 -0.30999509 1.2677112 14390628
0 0 0 13996638
-0.39165637 -0.30060127 1.2292956 13864801
0 0 0 13667672
0 0 0 13667161
-0.31698221 -0.26810384 1.0963988 13338712
-0.18273498 -0.15999746 0.65430254 13338710
-0.17630315 -0.15999746 0.65430254 12943700
-0.16987133 -0.15999746 0.65430254 11236169
-0.16343951 -0.15999746 0.65430254 5648674
-0.15700768 -0.15999746 0.65430254 2232335
-0.14587036 -0.15499754 0.63385558 2035217
-0.13540803 -0.15030064 0.61464781 5517352
-0.12556113 -0.14588003 0.59656996 2297358
-0.11796208 -0.14376582 0.587924 1443852
-0.11218277 -0.14376582 0.587924 1378059
-0.10640345 -0.14376582 0.587924 1837840
-0.099186644 -0.14171204 0.57952511 2166546
-0.093489885 -0.14171204 0.57952511 3216919
-0.087793127 -0.14171204 0.57952511 4137246
-0.082096368 -0.14171204 0.57952511 4333081
-0.076399609 -0.14171204 0.57952511 3741717
-0.070702858 -0.14171204 0.57952511 2558987
-0.065948211 -0.14376582 0.587924 1705481
-0.060168892 -0.14376582 0.587924 1312008
-0.054389574 -0.14376582 0.587924 1509645
-0.048610255 -0.14376582 0.587924 1772560
-0.043460801 -0.14588003 0.59656996 3480602
-0.037596494 -0.14588003 0.59656996 2822418
-0.032205798 -0.14805736 0.605474 2953747
-0.026253961 -0.14805736 0.605474 3085075
-0.020926805 -0.15261295 0.62410396 4003862
-0.014791836 -0.15261295 0.62410396 4595221
-0.0086568659 -0.15261295 0.62410396 4595734
-0.0025613005 -0.15499754 0.63385558 1902859
0.0036695283 -0.15499754 0.63385558 1378057
0.010219724 -0.15999746 0.65430254 2755854
0.016924523 -0.16262037 0.66502881 4002834
0.023461787 -0.16262037 0.66502881 3804939
0.030499032 -0.16533069 0.67611259 14128224
0 0 0 14192479
0 0 0 14127456
0 0 0 13799261
0.061161324 -0.17714004 0.72440636 13799259
0.068282269 -0.17714004 0.72440636 13471071
0.076774187 -0.18036076 0.73757738 13535837
0.087195344 -0.18716682 0.76541048 13406045
0.092965305 -0.18370079 0.75123626 13471325
0.10034999 -0.18370079 0.75123626 13010520
0.1097674 -0.18716682 0.76541048 12878166
0.11729142 -0.18716682 0.76541048 13207386
0.13230437 -0.19839685 0.81133515 13075799
0.14314269 -0.20244576 0.82789302 12878682
0.15128091 -0.20244576 0.82789302 12944213
0.15941913 -0.20244576 0.82789302 12877909
0.16755736 -0.20244576 0.82789302 12944730
0.1793559 -0.20666339 0.84514076 12747864
0.21970382 -0.24194738 0.98943311 12878680
0 0 0 13141593
0 0 0 13141336
0 0 0 13141851
0 0 0 13338460
0 0 0 12879449
0 0 0 13272670
0 0 0 13404510
0 0 0 13142621
0 0 0 13274459
0 0 0 13404765
0.83714753 -0.61999017 2.5354223 13602146
0.55172533 -0.39679369 1.6226703 13602144
0.94612706 -0.66132277 2.7044504 13602397
0 0 0 13865055
0 0 0 13930849
0 0 0 13865311
0.65779161 -0.41332677 1.6902815 14062433
0.67440712 -0.41332677 1.6902815 14128226
0.69102269 -0.41332677 1.6902815 14128231
0.73840511 -0.43129748 1.763772 14194019
0.75574309 -0.43129748 1.763772 13931105
0.74086928 -0.41332677 1.6902815 14325349
0.82634711 -0.45090193 1.8439435 14522987
0.88468617 -0.47237343 1.9317503 14653283
0 0 0 14456421
0.96879786 -0.49599215 2.028338 14915687
0.98873651 -0.49599215 2.028338 14457193
1.0086751 -0.49599215 2.028338 14456164
1.0286138 -0.49599215 2.028338 14654572
1.1037394 -0.52209699 2.1350925 14391655
1.2570482 -0.58352011 2.3862798 14325863
1.2805055 -0.58352011 2.3862798 14719341
1.5833833 -0.70856017 2.8976254 14259814
1.735857 -0.7630648 3.1205199 14259815
1.9137428 -0.82665354 3.380563 14325607
1.9469738 -0.82665354 3.380563 14062437
1.9802049 -0.82665354 3.380563 13997928
1.8585564 -0.7630648 3.1205199 13931363
1.8892312 -0.7630648 3.1205199 13996644
1.9199061 -0.7630648 3.1205199 13996644
1.2678777 -0.49599215 2.028338 13733991
1.2878163 -0.49599215 2.028338 13799525
1.307755 -0.49599215 2.028338 13930595
1.3276936 -0.49599215 2.028338 13536355
1.3476323 -0.49599215 2.028338 13537125
0.91171384 -0.33066139 1.3522252 13471330
0.92500627 -0.33066139 1.3522252 13471585
0.9382987 -0.33066139 1.3522252 13536865
1.1419095 -0.39679369 1.6226703 13405541
1.2585438 -0.43129748 1.763772 13405543
1.22272 -0.41332677 1.6902815 13208672
1.2393357 -0.41332677 1.6902815 13339746
1.2559512 -0.41332677 1.6902815 13012322
0 0 0 13011552
1.3452337 -0.43129748 1.763772 12616797
1.3625716 -0.43129748 1.763772 12551774
1.3799095 -0.43129748 1.763772 12748381
1.3972476 -0.43129748 1.763772 12748901
1.3014187 -0.39679369 1.6226703 12681568
1.3173696 -0.39679369 1.6226703 12485727
1.3333205 -0.39679369 1.6226703 12420189
1.0221753 -0.30060127 1.2292956 12485981
1.4221066 -0.41332677 1.6902815 12222809
0 0 0 12222039
0 0 0 12090967
0 0 0 11893590
0 0 0 12025687
0 0 0 12222555
0 0 0 11763033
0 0 0 11697242
0 0 0 11631449
2.2187951 -0.58352011 2.3862798 11565139
1.9059145 -0.49599215 2.028338 11564885
2.2657096 -0.58352011 2.3862798 11565913
2.2891667 -0.58352011 2.3862798 11237207
2.312624 -0.58352011 2.3862798 11368536
2.3360813 -0.58352011 2.3862798 11433046
2.5070097 -0.61999017 2.5354223 11236439
2.7007284 -0.66132277 2.7044504 11236439
2.7273133 -0.66132277 2.7044504 11236952
4.5898304 -1.1022048 4.5074177 11105880
3.2082498 -0.7630648 3.1205199 11039828
2.6316261 -0.61999017 2.5354223 11367764
2.6565495 -0.61999017 2.5354223 10907985
2.6814728 -0.61999017 2.5354223 10908755
2.7063961 -0.61999017 2.5354223 10776917
2.9134073 -0.66132277 2.7044504 10775888
3.1499918 -0.70856017 2.8976254 10711381
3.1784754 -0.70856017 2.8976254 10645845
3.4536486 -0.7630648 3.1205199 10710611
3.4843235 -0.7630648 3.1205199 10579540
3.2639267 -0.70856017 2.8976254 10645331
2.8808594 -0.61999017 2.5354223 10382159
2.9057827 -0.61999017 2.5354223 10448722
3.3493781 -0.70856017 2.8976254 10447439
0 0 0 10251346
0 0 0 10448467
5.3430686 -1.1022048 4.5074177 10316367
5.3873768 -1.1022048 4.5074177 10382418
0 0 0 10185552
0 0 0 10316366
0 0 0 10119759
0 0 0 10054737
0 0 0 10250833
0 0 0 10119503
0 0 0 9988687
0 0 0 9857362
0 0 0 9988173
0 0 0 9856335
0 0 0 12681303
0 0 0 12944475
-3.4582472 -0.68007636 2.8976254 13142108
-3.6935916 -0.73238999 3.1205199 12749151
-3.9681594 -0.7934224 3.380563 13076576
-4.2926493 -0.86555177 3.687887 13011300
-4.6820374 -0.95210695 4.0566759 13142630
-5.1579552 -1.0578966 4.5074177 13339750
-5.1136475 -1.0578966 4.5074177 13405539
-4.5624051 -0.95210695 4.0566759 13273953
-4.5225282 -0.95210695 4.0566759 13667430
-4.0751367 -0.86555177 3.687887 13273955
-4.4427733 -0.95210695 4.0566759 13273953
-4.4028959 -0.95210695 4.0566759 13471844
-4.3630185 -0.95210695 4.0566759 13405794
-3.9301283 -0.86555177 3.687887 13209955
-3.8938763 -0.86555177 3.687887 13340518
-4.2433867 -0.95210695 4.0566759 13144166
-4.2035093 -0.95210695 4.0566759 13536094
-4.1636324 -0.95210695 4.0566759 11499339
-4.123755 -0.95210695 4.0566759 10053960
-4.0838776 -0.95210695 4.0566759 9790786
-4.0440001 -0.95210695 4.0566759 9790532
-4.0041227 -0.95210695 4.0566759 9593928
-3.9642456 -0.95210695 4.0566759 11894101
-3.2703068 -0.7934224 3.380563 12091478
-3.2370756 -0.7934224 3.380563 12223066
-2.9573951 -0.73238999 3.1205199 12878940
-2.9267204 -0.73238999 3.1205199 12812630
-2.8960454 -0.73238999 3.1205199 12616021
-2.8653705 -0.73238999 3.1205199 12485464
-2.8346958 -0.73238999 3.1205199 12419414
-2.6037335 -0.68007636 2.8976254 12288343
-2.5752497 -0.68007636 2.8976254 12091221
-2.546766 -0.68007636 2.8976254 12222807
-2.5182822 -0.68007636 2.8976254 12287570
-2.0504222 -0.56006289 2.3862798 12485209
-1.7229203 -0.47605348 2.028338 12352854
-1.7029817 -0.47605348 2.028338 12352853
-1.683043 -0.47605348 2.028338 12484178
-2.5586221 -0.73238999 3.1205199 12091219
-2.5279472 -0.73238999 3.1205199 12024656
-2.7053783 -0.7934224 3.380563 12156502
-2.9150696 -0.86555177 3.687887 12090450
-2.8788176 -0.86555177 3.687887 12090451
-2.605685 -0.7934224 3.380563 12090453
-2.374573 -0.73238999 3.1205199 12090453
-2.5392227 -0.7934224 3.380563 11893590
-2.5059917 -0.7934224 3.380563 12352853
-2.6975572 -0.86555177 3.687887 12222038
-3.2527063 -1.0578966 4.5074177 11959379
-3.2083981 -1.0578966 4.5074177 12089679
-3.1640902 -1.0578966 4.5074177 11565905
-3.119782 -1.0578966 4.5074177 11829076
-2.5162966 -0.86555177 3.687887 12025170
-2.4800446 -0.86555177 3.687887 11631699
-2.2401431 -0.7934224 3.380563 12155730
-2.4075403 -0.86555177 3.687887 12156502
-2.3712883 -0.86555177 3.687887 11958869
-2.8539333 -1.0578966 4.5074177 12090708
-2.8096251 -1.0578966 4.5074177 12222037
-2.765317 -1.0578966 4.5074177 12288086
-3.0611348 -1.1901337 5.0708447 12090451
-3.0112882 -1.1901337 5.0708447 12222294
-2.9614415 -1.1901337 5.0708447 11959892
-2.5880845 -1.0578966 4.5074177 12418388
-2.2893987 -0.95210695 4.0566759 12418385
-2.2495215 -0.95210695 4.0566759 12551259
-2.0087674 -0.86555177 3.687887 12944475
-1.808139 -0.7934224 3.380563 12943959
-1.7749078 -0.7934224 3.380563 13010520
-1.7416768 -0.7934224 3.380563 13142360
-2.2779276 -1.0578966 4.5074177 13010005
-2.2336197 -1.0578966 4.5074177 13076824
-2.1893115 -1.0578966 4.5074177 13731926
-2.1450033 -1.0578966 4.5074177 13404760
-2.1006951 -1.0578966 4.5074177 13207899
-1.8507484 -0.95210695 4.0566759 13799261
-2.012079 -1.0578966 4.5074177 14060893
-1.9677709 -1.0578966 4.5074177 14061405
-1.9234627 -1.0578966 4.5074177 14061664
-1.8791547 -1.0578966 4.5074177 13996896
-1.0321012 -0.59506685 2.5354223 14128737
-0.94793206 -0.56006289 2.3862798 14258524
-0.74838436 -0.45338425 1.9317503 14390880
-0.63822079 -0.3967112 1.6902815 14194017
-0.59674102 -0.38084278 1.6226703 14456419
-0.5807901 -0.38084278 1.6226703 14587489
-0.56483918 -0.38084278 1.6226703 14390880
0 0 0 14455649
-0.40374041 -0.28851724 1.2292956 14324320
-0.39165637 -0.28851724 1.2292956 14258523
-0.33853751 -0.25732619 1.0963988 14061914
-0.32775986 -0.25732619 1.0963988 13930073
-0.28605711 -0.2322212 0.98943311 13732440
-0.17983443 -0.15112808 0.64391679 13405018
-0.1735047 -0.15112808 0.64391679 13075797
-0.16717497 -0.15112808 0.64391679 12352851
-0.16343951 -0.15356563 0.65430254 11237200
-0.15700768 -0.15356563 0.65430254 7554357
-0.14587036 -0.14876671 0.63385558 1640461
-0.13540803 -0.14425862 0.61464781 2757909
-0.12936601 -0.14425862 0.61464781 2431000
-0.11796208 -0.13798651 0.587924 2822935
-0.11218277 -0.13798651 0.587924 2231311
-0.10640345 -0.13798651 0.587924 1837067
-0.10062413 -0.13798651 0.587924 1903631
-0.093489885 -0.13601528 0.57952511 2099982
-0.087793127 -0.13601528 0.57952511 4334627
-0.082096368 -0.13601528 0.57952511 4793375
-0.076399609 -0.13601528 0.57952511 4398874
-0.070702858 -0.13601528 0.57952511 2887184
-0.065948211 -0.13798651 0.587924 2297106
-0.060168892 -0.13798651 0.587924 1575438
-0.054389574 -0.13798651 0.587924 2100240
-0.048610255 -0.13798651 0.587924 2756883
-0.043460801 -0.14001572 0.59656996 3281683
-0.037596494 -0.14001572 0.59656996 3675668
-0.032205798 -0.14210552 0.605474 3610390
-0.026253961 -0.14210552 0.605474 4004631
-0.020926805 -0.146478 0.62410396 4135447
-0.014791836 -0.146478 0.62410396 4857882
-0.0086568659 -0.146478 0.62410396 4661529
-0.002521896 -0.146478 0.62410396 2757137
0.0036130741 -0.146478 0.62410396 1574410
0.010219724 -0.15356563 0.65430254 2164750
0.016924523 -0.15608311 0.66502881 2754829
0.023852814 -0.15868448 0.67611259 5054237
0.031015968 -0.16137406 0.68757218 14194017
0 0 0 14456673
0 0 0 14193249
0 0 0 14520931
0.064623281 -0.17964281 0.76541048 13602911
0.068282269 -0.17001909 0.72440636 13996640
0.079671323 -0.17964281 0.76541048 13732700
0.088872179 -0.1830975 0.78012997 13470553
0.094719358 -0.17964281 0.76541048 13142619
0.10224338 -0.17964281 0.76541048 13536094
0.10773468 -0.1763161 0.75123626 13009495
0.11729142 -0.17964281 0.76541048 13207131
0.13230437 -0.19042139 0.81133515 13076313
0.14314269 -0.19430754 0.82789302 12944990
0.15128091 -0.19430754 0.82789302 13075543
0.15941913 -0.19430754 0.82789302 13009751
0.16755736 -0.19430754 0.82789302 12747607
0.1793559 -0.1983556 0.84514076 12748375
0.20472401 -0.21638794 0.92197174 12813401
0.22943 -0.2322212 0.98943311 12879449
0 0 0 13141852
0 0 0 12880220
0 0 0 13207643
0 0 0 13076826
0 0 0 13339485
0 0 0 13207901
0 0 0 13207901
0 0 0 13601632
0 0 0 13536866
0 0 0 13406049
0 0 0 13668963
0 0 0 13668190
0 0 0 14193253
0 0 0 14128483
0 0 0 14390628
0.60719228 -0.36619499 1.5602599 13931363
0.62252969 -0.36619499 1.5602599 14390884
0.66338181 -0.38084278 1.6226703 14456419
0.73840511 -0.41395953 1.763772 13997415
0.75574309 -0.41395953 1.763772 14259299
0.74086928 -0.3967112 1.6902815 14456424
0.72718549 -0.38084278 1.6226703 14260075
1.0928476 -0.56006289 2.3862798 14259813
0 0 0 14325606
0 0 0 14260070
0.98873651 -0.47605348 2.028338 14587235
1.0086751 -0.47605348 2.028338 14587239
1.0827513 -0.50110894 2.1350925 14522217
1.1037394 -0.50110894 2.1350925 14391146
1.5264157 -0.68007636 2.8976254 13866087
1.3605372 -0.59506685 2.5354223 13865573
1.5833833 -0.68007636 2.8976254 14127718
1.735857 -0.73238999 3.1205199 14324583
1.7665318 -0.73238999 3.1205199 13996897
1.7972068 -0.73238999 3.1205199 14193764
1.8278816 -0.73238999 3.1205199 13930595
1.8585564 -0.73238999 3.1205199 14324837
1.8892312 -0.73238999 3.1205199 14390630
1.9199061 -0.73238999 3.1205199 13996387
1.2678777 -0.47605348 2.028338 14193256
1.2878163 -0.47605348 2.028338 13930851
1.307755 -0.47605348 2.028338 13537125
1.3276936 -0.47605348 2.028338 13667428
0.86944014 -0.30713126 1.3086051 13930597
0.8547318 -0.29753342 1.2677112 13733474
0.89516741 -0.30713126 1.3086051 13602657
0.87965512 -0.29753342 1.2677112 13208160
0.95159113 -0.31736895 1.3522252 13667686
0.87716693 -0.28851724 1.2292956 13272671
0.88925093 -0.28851724 1.2292956 13471073
1.2393357 -0.3967112 1.6902815 13077344
1.2559512 -0.3967112 1.6902815 13011807
1.3278956 -0.41395953 1.763772 13141854
1.2891822 -0.3967112 1.6902815 13076576
1.3625716 -0.41395953 1.763772 12813661
1.3224133 -0.3967112 1.6902815 12748126
1.3972476 -0.41395953 1.763772 12813406
1.0167333 -0.29753342 1.2677112 13010272
0.73187196 -0.21157931 0.90148348 12485981
0.74073362 -0.21157931 0.90148348 12157019
0.82272649 -0.2322212 0.98943311 12288091
1.4221066 -0.3967112 1.6902815 12157277
0 0 0 11960409
0 0 0 11960151
0 0 0 11763544
0 0 0 11697240
0 0 0 11762004
0 0 0 11762265
0 0 0 11630936
0 0 0 11369559
0 0 0 11041367
2.1176829 -0.52894831 2.2537088 11500374
2.2657096 -0.56006289 2.3862798 11564884
2.2891667 -0.56006289 2.3862798 11433818
0 0 0 11433048
2.3360813 -0.56006289 2.3862798 11564887
2.3595386 -0.56006289 2.3862798 11170645
2.5319331 -0.59506685 2.5354223 11236950
2.7273133 -0.63473791 2.7044504 11302745
2.7538981 -0.63473791 2.7044504 11171155
3.2082498 -0.73238999 3.1205199 11105109
2.6316261 -0.59506685 2.5354223 11170130
2.6565495 -0.59506685 2.5354223 10974033
2.6814728 -0.59506685 2.5354223 10777169
2.7063961 -0.59506685 2.5354223 10711892
2.7313194 -0.59506685 2.5354223 10645331
2.9399922 -0.63473791 2.7044504 10908246
2.9665771 -0.63473791 2.7044504 11104338
3.2069592 -0.68007636 2.8976254 10382163
3.2354431 -0.68007636 2.8976254 10907735
0 0 0 10514003
2.8808594 -0.59506685 2.5354223 10447954
3.3208945 -0.68007636 2.8976254 10447954
1.6746891 -0.34003818 1.4488127 10710354
0 0 0 10120274
0 0 0 10251345
0 0 0 10185039
0 0 0 10119503
0 0 0 10186067
0 0 0 10186581
5.5203009 -1.0578966 4.5074177 10186327
0 0 0 10120274
0 0 0 10315596
0 0 0 10185038
0 0 0 10054480
0 0 0 9726541
0 0 0 9923152
0 0 0 9922383
0 0 0 12420438
0 0 0 12551257
-3.0259664 -0.57014352 2.5354223 12879709
-3.4297633 -0.65159255 2.8976254 12880996
-3.9681594 -0.76019132 3.380563 12946532
-4.2926493 -0.82929963 3.687887 12815461
-4.6820374 -0.91222966 4.0566759 12683875
-5.1579552 -1.0135885 4.5074177 12880482
-4.6022825 -0.91222966 4.0566759 13405541
-5.0693393 -1.0135885 4.5074177 12946530
-4.5225282 -0.91222966 4.0566759 13012068
-4.4826508 -0.91222966 4.0566759 13339748
-4.4427733 -0.91222966 4.0566759 13471336
-4.8921065 -1.0135885 4.5074177 13273955
-4.3630185 -0.91222966 4.0566759 13077346
-4.3231416 -0.91222966 4.0566759 13208934
-3.8938763 -0.82929963 3.687887 13143141
-3.8576241 -0.82929963 3.687887 12946530
-3.821372 -0.82929963 3.687887 13536348
-4.1636324 -0.91222966 4.0566759 11566158
-4.123755 -0.91222966 4.0566759 9986624
-4.0838776 -0.91222966 4.0566759 9659973
-4.0440001 -0.91222966 4.0566759 9397315
-4.0041227 -0.91222966 4.0566759 9658436
-3.9642456 -0.91222966 4.0566759 10250825
-4.3604093 -1.0135885 4.5074177 12026198
-3.2370756 -0.76019132 3.380563 12483922
-3.2038445 -0.76019132 3.380563 12419414
-2.7176688 -0.65159255 2.8976254 12616277
-2.6891849 -0.65159255 2.8976254 12157012
-2.8653705 -0.70171511 3.1205199 12288341
-2.8346958 -0.70171511 3.1205199 12288083
-2.6037335 -0.65159255 2.8976254 12419413
-2.5752497 -0.65159255 2.8976254 12682072
-2.546766 -0.65159255 2.8976254 12484439
-2.7119963 -0.70171511 3.1205199 12354395
-2.6813214 -0.70171511 3.1205199 12091221
-2.6506467 -0.70171511 3.1205199 12354391
-1.7029817 -0.45611483 2.028338 12025173
-1.683043 -0.45611483 2.028338 12417873
-1.5839088 -0.43439505 1.9317503 12484694
-1.5649196 -0.43439505 1.9317503 12025172
-1.6232271 -0.45611483 2.028338 12351825
-3.5628631 -1.0135885 4.5074177 12353623
-3.5185549 -1.0135885 4.5074177 12222039
-2.605685 -0.76019132 3.380563 12549719
-2.374573 -0.70171511 3.1205199 12024402
-2.5392227 -0.76019132 3.380563 11894103
-2.5059917 -0.76019132 3.380563 12025173
-2.9673131 -0.91222966 4.0566759 12024658
-2.9274356 -0.91222966 4.0566759 12222037
-3.2083981 -1.0135885 4.5074177 12157266
-3.1640902 -1.0135885 4.5074177 12222551
-3.119782 -1.0135885 4.5074177 12089683
-3.0754738 -1.0135885 4.5074177 12221266
-3.0311658 -1.0135885 4.5074177 12024915
-2.4437923 -0.82929963 3.687887 12288087
-2.4075403 -0.82929963 3.687887 11959891
-2.6084173 -0.91222966 4.0566759 11959633
-2.8539333 -1.0135885 4.5074177 12418388
-2.8096251 -1.0135885 4.5074177 12222035
-2.765317 -1.0135885 4.5074177 12025171
-3.0611348 -1.140287 5.0708447 12352851
-3.0112882 -1.140287 5.0708447 12616022
-2.9614415 -1.140287 5.0708447 12549201
-2.5880845 -1.0135885 4.5074177 12616791
-2.5437765 -1.0135885 4.5074177 12615510
-2.4994683 -1.0135885 4.5074177 12747093
-2.2096441 -0.91222966 4.0566759 13009750
-1.9725152 -0.82929963 3.687887 12945240
-1.9362631 -0.82929963 3.687887 13207900
-2.0900123 -0.91222966 4.0566759 13142104
-2.2779276 -1.0135885 4.5074177 13075800
-2.2336197 -1.0135885 4.5074177 13076313
-2.1893115 -1.0135885 4.5074177 13404760
-2.1450033 -1.0135885 4.5074177 13207898
-2.1006951 -1.0135885 4.5074177 13339487
-2.0563872 -1.0135885 4.5074177 13536346
-2.012079 -1.0135885 4.5074177 13930589
-1.9677709 -1.0135885 4.5074177 14127456
-1.9234627 -1.0135885 4.5074177 13996891
-1.6912392 -0.91222966 4.0566759 14192992
-1.0321012 -0.57014352 2.5354223 14456161
-0.89526922 -0.50679427 2.2537088 14587488
-0.74838436 -0.43439505 1.9317503 14586722
-0.72939515 -0.43439505 1.9317503 14717538
-0.62160522 -0.38009566 1.6902815 14587233
-0.63129359 -0.39662156 1.763772 14850146
-0.64186269 -0.41464981 1.8439435 14785380
0 0 0 14587235
0 0 0 14653282
0 0 0 14323804
-0.30550945 -0.22249503 0.98943311 14390368
-0.29578328 -0.22249503 0.98943311 14062171
-0.25496393 -0.19831078 0.88188601 13733723
-0.20231372 -0.16289814 0.72440636 13865054
-0.1735047 -0.14479835 0.64391679 13666653
-0.16987133 -0.14713381 0.65430254 13075540
-0.16343951 -0.14713381 0.65430254 12681555
-0.15958159 -0.14954585 0.66502881 11564107
-0.15057586 -0.14713381 0.65430254 4071191
-0.13540803 -0.1382166 0.61464781 3939869
-0.12936601 -0.1382166 0.61464781 3086358
-0.11969683 -0.13415141 0.59656996 1573896
-0.11383252 -0.13415141 0.59656996 1049353
-0.1079682 -0.13415141 0.59656996 1575439
-0.10062413 -0.13220719 0.587924 1903889
-0.094844811 -0.13220719 0.587924 1706253
-0.087793127 -0.13031852 0.57952511 4269351
-0.082096368 -0.13031852 0.57952511 6501677
-0.076399609 -0.13031852 0.57952511 5514526
-0.070702858 -0.13031852 0.57952511 3806739
-0.065948211 -0.13220719 0.587924 2887697
-0.060168892 -0.13220719 0.587924 2165520
-0.054389574 -0.13220719 0.587924 2427920
-0.048610255 -0.13220719 0.587924 2625041
-0.043460801 -0.13415141 0.59656996 3084817
-0.037596494 -0.13415141 0.59656996 3610392
-0.032205798 -0.13615368 0.605474 4201754
-0.026253961 -0.13615368 0.605474 4399128
-0.020609733 -0.1382166 0.61464781 4727322
-0.014791836 -0.14034303 0.62410396 4857623
-0.0086568659 -0.14034303 0.62410396 4923673
-0.002521896 -0.14034303 0.62410396 3938584
0.0036695283 -0.14253588 0.63385558 1509643
0.010219724 -0.14713381 0.65430254 3083538
0.016924523 -0.14954585 0.66502881 2885645
0.024257101 -0.15461519 0.68757218 4987930
0.031015968 -0.15461519 0.68757218 14521183
0.042051226 -0.1721188 0.76541048 14325603
0 0 0 14587235
0 0 0 14259044
0.064623281 -0.1721188 0.76541048 14128226
0.072147302 -0.1721188 0.76541048 14259040
0.081203468 -0.17542878 0.78012997 14128228
0.088872179 -0.17542878 0.78012997 13799263
0.094719358 -0.1721188 0.76541048 13667677
0.10420961 -0.17542878 0.78012997 13272924
0.11635345 -0.18244593 0.81133515 13207131
0.12432891 -0.18244593 0.81133515 13404251
0.13230437 -0.18244593 0.81133515 13075291
0.14314269 -0.18616931 0.82789302 12879963
0.15128091 -0.18616931 0.82789302 12878169
0.15623075 -0.18244593 0.81133515 13207386
0.16755736 -0.18616931 0.82789302 13075803
0.17569558 -0.18616931 0.82789302 12485206
0.18383382 -0.18616931 0.82789302 13011035
0.19197205 -0.18616931 0.82789302 13076572
0.19610806 -0.18244593 0.81133515 12944985
0 0 0 13208157
0 0 0 13470556
0 0 0 13207644
0 0 0 13536091
0 0 0 13536864
0 0 0 13601630
0 0 0 13536096
0 0 0 13536866
0 0 0 13799009
0 0 0 13668192
0 0 0 13865312
0 0 0 14062435
1.1530348 -0.70171511 3.1205199 13799777
1.1837097 -0.70171511 3.1205199 13997158
0.50925803 -0.29426762 1.3086051 14194019
0.53952569 -0.30407652 1.3522252 14522217
0.57188082 -0.31456193 1.3988537 14259560
0.7076382 -0.38009566 1.6902815 14390626
0.79009503 -0.41464981 1.8439435 14391396
0.74086928 -0.38009566 1.6902815 14391144
0.75748485 -0.38009566 1.6902815 14325610
0.92892057 -0.45611483 2.028338 14063462
1.4597833 -0.70171511 3.1205199 14260584
1.4904583 -0.70171511 3.1205199 14325606
1.0407752 -0.48012087 2.1350925 14522986
1.0617633 -0.48012087 2.1350925 14586724
1.0827513 -0.48012087 2.1350925 14391403
1.1037394 -0.48012087 2.1350925 14259814
1.5264157 -0.65159255 2.8976254 14521442
1.3605372 -0.57014352 2.5354223 14126947
1.5833833 -0.65159255 2.8976254 14520677
1.735857 -0.70171511 3.1205199 14390630
1.9137428 -0.76019132 3.380563 13931621
1.9469738 -0.76019132 3.380563 14390628
0 0 0 14193511
2.0134361 -0.76019132 3.380563 13930852
2.0466671 -0.76019132 3.380563 13996389
1.9199061 -0.70171511 3.1205199 13996645
1.950581 -0.70171511 3.1205199 13799268
1.2878163 -0.45611483 2.028338 13930595
1.307755 -0.45611483 2.028338 13734242
0.82980847 -0.28507176 1.2677112 13667937
0.51832008 -0.17542878 0.78012997 13799011
0.51606447 -0.1721188 0.76541048 13602405
0.6306861 -0.20732491 0.92197174 13470303
0.9382987 -0.30407652 1.3522252 13273439
1.1419095 -0.36489186 1.6226703 13339746
0.59074509 -0.18616931 0.82789302 13470562
0.59888333 -0.18616931 0.82789302 13339489
0.60702157 -0.18616931 0.82789302 13142111
0 0 0 12748638
0 0 0 12617313
1.2891822 -0.38009566 1.6902815 12551520
1.3057978 -0.38009566 1.6902815 12550747
1.3224133 -0.38009566 1.6902815 12551263
1.4607588 -0.41464981 1.8439435 12485981
0.66398913 -0.18616931 0.82789302 12617054
0.68612999 -0.19004783 0.84514076 12288607
0.74073362 -0.20271769 0.90148348 12222814
0.82272649 -0.22249503 0.98943311 12157791
0.83245265 -0.22249503 0.98943311 11763293
0 0 0 11895132
0 0 0 11960154
0 0 0 12025434
0 0 0 12155996
0 0 0 11763290
0 0 0 11697755
0 0 0 11762520
0 0 0 11631962
0 0 0 11368536
2.2422523 -0.53660566 2.3862798 11565913
0 0 0 11696471
0 0 0 11696470
0 0 0 11369560
2.3360813 -0.53660566 2.3862798 11302230
2.3595386 -0.53660566 2.3862798 11302230
2.7007284 -0.60815305 2.7044504 11302227
4.5455227 -1.0135885 4.5074177 11039826
4.5898304 -1.0135885 4.5074177 11039314
4.6341386 -1.0135885 4.5074177 10973781
2.8070679 -0.60815305 2.7044504 11040088
2.6565495 -0.57014352 2.5354223 10973267
2.6814728 -0.57014352 2.5354223 10841683
2.5471964 -0.53660566 2.3862798 10580310
2.5706537 -0.53660566 2.3862798 10448723
0.84807473 -0.17542878 0.78012997 10711379
0.83959728 -0.1721188 0.76541048 10579281
0.86341214 -0.17542878 0.78012997 10579284
2.8310127 -0.57014352 2.5354223 10973528
0 0 0 10710356
2.8808594 -0.57014352 2.5354223 10711126
0 0 0 10186581
0 0 0 10382161
0 0 0 10120016
0 0 0 10054223
0 0 0 10186065
0 0 0 10120273
0 0 0 10054481
0 0 0 10054481
5.5203009 -1.0135885 4.5074177 9988688
0 0 0 10054481
0 0 0 10185039
0 0 0 9988944
0 0 0 9989203
0 0 0 9988948
0 0 0 9923155
0 0 0 9923157
0 0 0 12354395
0 0 0 12616277
-3.0259664 -0.5452202 2.5354223 12551000
-3.4297633 -0.6231088 2.8976254 12748896
-3.6629167 -0.6710403 3.1205199 12617570
-4.2926493 -0.79304755 3.687887 12617828
-4.6820374 -0.87235236 4.0566759 12814180
-4.6421599 -0.87235236 4.0566759 13076581
-4.6022825 -0.87235236 4.0566759 12945762
-5.0693393 -0.96928042 4.5074177 12749410
-5.0250311 -0.96928042 4.5074177 12880739
-4.9807229 -0.96928042 4.5074177 12880739
-4.4427733 -0.87235236 4.0566759 13339748
-4.8921065 -0.96928042 4.5074177 13273955
-4.8477983 -0.96928042 4.5074177 13077088
-3.9301283 -0.79304755 3.687887 13208159
