# .PCD v0.7 - Point Cloud Data file format
VERSION 0.7
FIELDS x y z rgb
SIZE 4 4 4 4
TYPE F F F U
COUNT 1 1 1 1
WIDTH 1325
HEIGHT 1
VIEWPOINT 0 0 0 1 0 0 0
POINTS 1325
DATA ascii
1.2535659 0.62406528 1.6226703 10565409
1.2695168 0.62406528 1.6226703 10631460
1.2854677 0.62406528 1.6226703 10826527
1.3014187 0.62406528 1.6226703 10368288
1.2667016 0.60006279 1.5602599 10630690
1.1111003 0.5200544 1.3522252 10040098
1.0221753 0.47277671 1.2292956 10236450
1.00384 0.45887154 1.1931399 9515811
0.95914817 0.4333787 1.1268544 9450788
0.99794585 0.44576094 1.1590502 10236961
1.0093393 0.44576094 1.1590502 10236961
1.0825955 0.47277671 1.2292956 10039838
1.2901579 0.55720115 1.4488127 10368292
1.4047384 0.60006279 1.5602599 10499876
1.4200758 0.60006279 1.5602599 10368803
1.4354132 0.60006279 1.5602599 10433570
1.2167586 0.50327849 1.3086051 10434083
1.1911966 0.487551 1.2677112 10170913
1.2036582 0.487551 1.2677112 10302757
1.2553495 0.50327849 1.3086051 10302242
1.2682132 0.50327849 1.3086051 10040610
1.2810768 0.50327849 1.3086051 9910308
1.2535049 0.487551 1.2677112 9976101
1.2659665 0.487551 1.2677112 10107173
1.2784282 0.487551 1.2677112 9975846
1.2908897 0.487551 1.2677112 9451817
1.4895445 0.55720115 1.4488127 9321001
1.5037863 0.55720115 1.4488127 9779751
1.5180283 0.55720115 1.4488127 9910054
1.589021 0.57783824 1.5024725 9910567
1.7320936 0.62406528 1.6226703 9780005
1.7480445 0.62406528 1.6226703 9910569
1.7639954 0.62406528 1.6226703 10108718
1.7799463 0.62406528 1.6226703 9911338
2.0407922 0.7091651 1.8439435 9845285
2.2648103 0.78008169 2.028338 9516840
0 0 0 9713960
0 0 0 9582887
0 0 0 9582372
0 0 0 9647909
0 0 0 9516839
9.5377693 3.1203268 8.1133518 9451047
9.6175232 3.1203268 8.1133518 9451047
9.697278 3.1203268 8.1133518 9450790
9.7770329 3.1203268 8.1133518 9188901
12.320984 3.900408 10.141689 9189415
16.560902 5.2005439 13.522252 9517094
25.040741 7.8008161 20.283379 9188899
25.240128 7.8008161 20.283379 9320487
0 0 0 9320487
0 0 0 9517866
0 0 0 9584427
0 0 0 9584425
0 0 0 9781034
0 0 0 2235173
0 0 0 2300966
0 0 0 2103328
0 0 0 2103071
0 0 0 2037535
-1.8887657 0.6400162 1.6226703 2103074
-1.7340878 0.59260762 1.5024725 2037281
-1.6579142 0.57144302 1.4488127 1905949
-1.3149378 0.45715445 1.1590502 1840156
-1.3035443 0.45715445 1.1590502 1905945
-1.2223048 0.43244338 1.0963988 1774876
-1.2115271 0.43244338 1.0963988 1905179
-1.1106933 0.40001017 1.014169 1839384
-1.100724 0.40001017 1.014169 1906460
-1.0641508 0.39025378 0.98943311 2102811
-1.0544246 0.39025378 0.98943311 2299935
-0.99610788 0.37210247 0.94341296 2366752
-0.94297481 0.35556456 0.90148348 1970453
-0.68909991 0.26230174 0.66502881 1641487
-0.68256265 0.26230174 0.66502881 1772817
-0.6872924 0.26667342 0.67611259 1904403
-0.68064618 0.26667342 0.67611259 2166292
-0.66295081 0.26230174 0.66502881 5387052
-0.66735375 0.26667342 0.67611259 5255462
-0.68349057 0.27586904 0.69942683 4137758
-0.67661518 0.27586904 0.69942683 4992291
-0.69365907 0.28572151 0.72440636 4993063
-0.6865381 0.28572151 0.72440636 5190955
-0.66749763 0.28070888 0.71169752 5124648
-0.6605016 0.28070888 0.71169752 4202777
-0.65350556 0.28070888 0.71169752 4007972
-0.67001897 0.29091644 0.73757738 4336162
-0.68777865 0.30189443 0.76541048 4859933
-0.69333649 0.30770013 0.78012997 6696480
-0.68566781 0.30770013 0.78012997 7352353
-0.67799908 0.30770013 0.78012997 8600362
-0.711371 0.32653889 0.82789302 9255981
-0.7657423 0.35556456 0.90148348 10239018
-0.7568807 0.35556456 0.90148348 10763302
-0.6351105 0.30189443 0.76541048 10499615
-0.58354539 0.28070888 0.71169752 10762787
-0.62006247 0.30189443 0.76541048 10959394
-0.66254163 0.32653889 0.82789302 11025702
-0.65440339 0.32653889 0.82789302 10827295
-0.64626521 0.32653889 0.82789302 11090466
-0.65142125 0.33334178 0.84514076 11287332
-0.64311349 0.33334178 0.84514076 11156262
-0.64831221 0.34043413 0.86312246 11483685
-0.65373695 0.34783489 0.88188601 11024675
-0.64506799 0.34783489 0.88188601 11221540
-0.60988241 0.33334178 0.84514076 11419174
-0.58929759 0.32653889 0.82789302 11287075
-0.58115941 0.32653889 0.82789302 11156003
-0.57302117 0.32653889 0.82789302 11222054
-0.57665133 0.33334178 0.84514076 10828066
-0.56834352 0.33334178 0.84514076 10828836
-0.56003577 0.33334178 0.84514076 11288101
0 0 0 11221540
0 0 0 11287845
0 0 0 11483939
0 0 0 11483940
0 0 0 11680294
0 0 0 11680804
0 0 0 11615527
0 0 0 11680548
0 0 0 11615528
0 0 0 11352612
-2.8119018 2.0000508 5.0708447 11484710
-2.4551601 1.777823 4.5074177 11747111
-1.808139 1.3333671 3.380563 11484708
-1.7749078 1.3333671 3.380563 11878181
-1.7416768 1.3333671 3.380563 11550501
-1.8637589 1.4545823 3.687887 11550502
-2.2336197 1.777823 4.5074177 11746082
-2.1893115 1.777823 4.5074177 11811878
-2.1450033 1.777823 4.5074177 11680548
-2.1006951 1.777823 4.5074177 11877413
-2.0563872 1.777823 4.5074177 11680803
-2.012079 1.777823 4.5074177 11943461
-1.7709938 1.6000407 4.0566759 11680035
-1.9234627 1.777823 4.5074177 11877668
-1.8791547 1.777823 4.5074177 11942947
-1.8348465 1.777823 4.5074177 11877668
-1.7905384 1.777823 4.5074177 11811877
-1.7462304 1.777823 4.5074177 12205348
-1.7019222 1.777823 4.5074177 11812133
-1.6576141 1.777823 4.5074177 11549475
-1.6133059 1.777823 4.5074177 11746340
-0.32093135 0.36364558 0.92197174 11942947
-0.30493793 0.35556456 0.90148348 11811875
-0.28963986 0.34783489 0.88188601 11615782
-0.28097087 0.34783489 0.88188601 11811361
-0.27230191 0.34783489 0.88188601 11746082
-0.26363292 0.34783489 0.88188601 11811875
-0.25496393 0.34783489 0.88188601 11877666
-0.24105464 0.34043413 0.86312246 11811875
-0.23257011 0.34043413 0.86312246 11942693
-0.228957 0.34783489 0.88188601 12008741
-0.22028802 0.34783489 0.88188601 11812135
-0.20280159 0.33334178 0.84514076 11679777
-0.19052456 0.32653889 0.82789302 11614498
-0.18238634 0.32653889 0.82789302 11811619
-0.17424811 0.32653889 0.82789302 11745568
-0.14279622 0.28070888 0.71169752 12008225
-0.1311968 0.27119333 0.68757218 12008225
-0.12236396 0.26667342 0.67611259 11811361
-0.11571775 0.26667342 0.67611259 12007457
-0.099155933 0.24243037 0.61464781 11679778
-0.093113922 0.24243037 0.61464781 11548450
-0.087071903 0.24243037 0.61464781 11482656
-0.079820491 0.23881203 0.605474 11417633
-0.073868655 0.23881203 0.605474 11351583
-0.066918038 0.23530008 0.59656996 11482910
-0.060168892 0.23188993 0.587924 11154974
-0.054389574 0.23188993 0.587924 11417119
-0.047915824 0.22857723 0.57952511 11417121
-0.042830933 0.23188993 0.587924 11548193
-0.037051614 0.23188993 0.587924 11285790
-0.031272296 0.23188993 0.587924 11351584
-0.025492977 0.23188993 0.587924 11351326
-0.019158345 0.22535783 0.57136279 11220255
-0.013934338 0.23188993 0.587924 11941409
-0.008038518 0.22857723 0.57952511 11482395
-0.0023417606 0.22857723 0.57952511 11745312
0.0033549974 0.22857723 0.57952511 11876643
0.0086797653 0.21918364 0.555709 11745313
0.01414241 0.21918364 0.555709 11745313
0.020741578 0.23188993 0.587924 11811105
0 0 0 11876641
0 0 0 11416864
0 0 0 11351840
0 0 0 11417376
0 0 0 11351841
0 0 0 11482655
0 0 0 11745828
0 0 0 11810850
0 0 0 11811105
0 0 0 12074018
0 0 0 12007712
0 0 0 11680035
0 0 0 11679517
0 0 0 11811875
0.25561255 0.55173808 1.3988537 12074018
0.26936337 0.55173808 1.3988537 11680289
0.28311417 0.55173808 1.3988537 12074020
0.34436336 0.6400162 1.6226703 12008225
0.29057604 0.51614213 1.3086051 11482913
0.30343968 0.51614213 1.3086051 11614755
0 0 0 11942692
0 0 0 11745314
0 0 0 11811361
0 0 0 11811107
0 0 0 12204836
0 0 0 11614242
0 0 0 11811361
0 0 0 11943204
0.64977938 0.80002034 2.028338 12074022
0.78790355 0.94120032 2.3862798 12336164
0.81136078 0.94120032 2.3862798 11812388
0.83481801 0.94120032 2.3862798 11811621
0.47066709 0.51614213 1.3086051 11942947
0.45422581 0.48486075 1.2292956 11614752
0.46630985 0.48486075 1.2292956 12074533
0.46432349 0.47060016 1.1931399 11746853
0.47605211 0.47060016 1.1931399 12008997
0.57188082 0.55173808 1.3988537 11680289
0.58563161 0.55173808 1.3988537 11484709
0.52673 0.48486075 1.2292956 11483941
0.53881401 0.48486075 1.2292956 11484193
0.62688398 0.55173808 1.3988537 11548962
0.74313641 0.6400162 1.6226703 11746082
0.75908732 0.6400162 1.6226703 11745825
0.74522913 0.61540025 1.5602599 11680290
0.76056653 0.61540025 1.5602599 11877154
0.77590394 0.61540025 1.5602599 11942693
0.79124135 0.61540025 1.5602599 11549477
0.74896598 0.57144302 1.4488127 11811620
0.76320785 0.57144302 1.4488127 11483170
0.77744979 0.57144302 1.4488127 11484711
0.88669467 0.6400162 1.6226703 11352355
0.90264559 0.6400162 1.6226703 11353127
0.91859657 0.6400162 1.6226703 11287332
0.89860338 0.61540025 1.5602599 11417121
0.91394079 0.61540025 1.5602599 11221537
0.92927819 0.61540025 1.5602599 11221539
0.9446156 0.61540025 1.5602599 11352353
0.99835116 0.6400162 1.6226703 11286819
1.014302 0.6400162 1.6226703 11220769
1.0302529 0.6400162 1.6226703 11482915
1.046204 0.6400162 1.6226703 11352355
1.1064112 0.66668355 1.6902815 11287332
1.0781058 0.6400162 1.6226703 11221281
1.0519776 0.61540025 1.5602599 11089953
1.067315 0.61540025 1.5602599 11089953
1.0826524 0.61540025 1.5602599 11155746
1.1419095 0.6400162 1.6226703 11024163
1.1578604 0.6400162 1.6226703 10761762
1.1286647 0.61540025 1.5602599 10958882
1.1440022 0.61540025 1.5602599 10827555
1.1593395 0.61540025 1.5602599 10630947
1.174677 0.61540025 1.5602599 10828323
1.237615 0.6400162 1.6226703 10762019
1.2535659 0.6400162 1.6226703 10696740
1.2695168 0.6400162 1.6226703 10564640
1.2854677 0.6400162 1.6226703 10761761
1.3014187 0.6400162 1.6226703 10433569
1.2667016 0.61540025 1.5602599 10761503
0.98038274 0.47060016 1.1931399 10565669
0.93699408 0.44445574 1.1268544 10433312
0.94807112 0.44445574 1.1268544 10630435
0.95914817 0.44445574 1.1268544 10105890
0.99794585 0.45715445 1.1590502 10433570
1.0093393 0.45715445 1.1590502 10105890
1.0507544 0.47060016 1.1931399 10302756
1.0624831 0.47060016 1.1931399 10171427
1.1067635 0.48486075 1.2292956 10040610
1.1188475 0.48486075 1.2292956 9974815
1.1662732 0.5000127 1.2677112 10172194
1.1787349 0.5000127 1.2677112 10433570
1.1911966 0.5000127 1.2677112 10039839
1.1671836 0.48486075 1.2292956 9907744
1.2161199 0.5000127 1.2677112 10105893
1.1913517 0.48486075 1.2292956 10303784
1.2034358 0.48486075 1.2292956 9582116
1.2155198 0.48486075 1.2292956 9779749
1.2276038 0.48486075 1.2292956 9910567
1.2784282 0.5000127 1.2677112 9779751
1.3325315 0.51614213 1.3086051 9582887
1.4381809 0.55173808 1.3988537 9845034
1.4519317 0.55173808 1.3988537 9975333
1.5180283 0.57144302 1.4488127 9844774
1.5322702 0.57144302 1.4488127 9844261
1.7320936 0.6400162 1.6226703 9975589
1.7480445 0.6400162 1.6226703 9844774
1.7639954 0.6400162 1.6226703 9976362
1.7799463 0.6400162 1.6226703 9713960
1.7958972 0.6400162 1.6226703 9910054
1.8873417 0.66668355 1.6902815 9451560
0 0 0 9451049
0 0 0 9583400
0 0 0 9649448
0 0 0 9254948
0 0 0 9386535
0 0 0 9517608
0 0 0 9451817
0 0 0 9188645
0 0 0 9451047
24.641968 8.0002031 20.283379 9254181
12.420677 4.0001016 10.141689 9386022
10.016296 3.2000813 8.1133518 9320228
12.620064 4.0001016 10.141689 9320230
0 0 0 9516842
0 0 0 9516842
0 0 0 9516581
0 0 0 9188899
0 0 0 9649448
0 0 0 2300968
0 0 0 2103586
0 0 0 1972255
0 0 0 2168867
-3.6629167 1.2614753 3.1205199 2168354
-1.7488571 0.60737699 1.5024725 2168352
-1.7340878 0.60737699 1.5024725 2103070
-1.785446 0.63073766 1.5602599 1839898
-1.4846072 0.52900577 1.3086051 1774109
-1.3035443 0.46854797 1.1590502 1905949
-1.2562578 0.45553276 1.1268544 1840156
-1.2115271 0.44322103 1.0963988 1774363
-1.2007495 0.44322103 1.0963988 1774363
-1.1586568 0.43155733 1.0675462 1840156
-1.1187227 0.42049178 1.0401733 2299419
-1.0544246 0.39997998 0.98943311 2562590
-1.0446985 0.39997998 0.98943311 2365468
-0.71921808 0.27795219 0.68757218 1444879
-0.67798537 0.26450288 0.65430254 1511443
-0.67155355 0.26450288 0.65430254 1773074
-0.67602539 0.268839 0.66502881 2101780
-0.66948807 0.268839 0.66502881 3350817
-0.66295081 0.268839 0.66502881 4663326
-0.65641356 0.268839 0.66502881 3873812
-0.6498763 0.268839 0.66502881 2231311
-0.67661518 0.28274444 0.69942683 4860968
-0.66973978 0.28274444 0.69942683 5256487
-0.67449361 0.28770489 0.71169752 5386531
-0.63412267 0.27331963 0.67611259 5649190
-0.6491136 0.28274444 0.69942683 5582883
-0.65350556 0.28770489 0.71169752 7812906
-0.68242675 0.3036885 0.75123626 9647651
-0.71475041 0.32155252 0.79542661 10106401
-0.70693129 0.32155252 0.79542661 10565667
-0.68566781 0.31536883 0.78012997 10565155
-0.67799908 0.31536883 0.78012997 10566436
-0.68347406 0.32155252 0.79542661 10829094
-0.65015858 0.30941844 0.76541048 10696997
-0.64263457 0.30941844 0.76541048 10630687
-0.59054142 0.28770489 0.71169752 10565152
-0.58354539 0.28770489 0.71169752 10959650
-0.57654935 0.28770489 0.71169752 10828322
-0.56955338 0.28770489 0.71169752 10893859
-0.60501444 0.30941844 0.76541048 11155747
-0.60898066 0.31536883 0.78012997 11090981
-0.60131198 0.31536883 0.78012997 10958883
-0.62998873 0.33467713 0.82789302 11024421
-0.63480568 0.34164953 0.84514076 10762019
-0.62649792 0.34164953 0.84514076 11024675
-0.61819017 0.34164953 0.84514076 11221027
-0.60988241 0.34164953 0.84514076 11351585
-0.58929759 0.33467713 0.82789302 11221539
-0.58115941 0.33467713 0.82789302 11090467
-0.57302117 0.33467713 0.82789302 10959652
-0.56488293 0.33467713 0.82789302 10828066
-0.55674469 0.33467713 0.82789302 10762785
-0.56003577 0.34164953 0.84514076 11090468
-0.55172801 0.34164953 0.84514076 11156003
0 0 0 11287845
0 0 0 11484711
0 0 0 11680548
0 0 0 11483941
0 0 0 11352612
0 0 0 11352867
0 0 0 11614755
0 0 0 11483940
0 0 0 11352355
0 0 0 11549478
-1.84137 1.3665981 3.380563 11353123
-1.808139 1.3665981 3.380563 11812133
-1.7749078 1.3665981 3.380563 11680548
-1.7416768 1.3665981 3.380563 11419427
-1.7084457 1.3665981 3.380563 11353125
-1.8275068 1.4908344 3.687887 11681573
-2.1893115 1.822131 4.5074177 11680547
-2.1450033 1.822131 4.5074177 11746341
-2.1006951 1.822131 4.5074177 11812134
-2.0563872 1.822131 4.5074177 11746595
-2.012079 1.822131 4.5074177 11680035
-1.7709938 1.639918 4.0566759 11811618
-1.7311165 1.639918 4.0566759 12008741
-1.6912392 1.639918 4.0566759 11680550
-1.8348465 1.822131 4.5074177 11942947
-1.7905384 1.822131 4.5074177 11746336
-1.5716072 1.639918 4.0566759 11943203
-1.5317299 1.639918 4.0566759 11877412
-1.4918526 1.639918 4.0566759 11614755
-0.90748453 1.0249487 2.5354223 11812132
-0.32093135 0.37270859 0.92197174 11222052
-0.29830885 0.35650387 0.88188601 11614755
-0.28963986 0.35650387 0.88188601 11942947
-0.28097087 0.35650387 0.88188601 11615009
-0.27230191 0.35650387 0.88188601 11681059
-0.26363292 0.35650387 0.88188601 11942691
-0.24953917 0.34891868 0.86312246 11483685
-0.23603266 0.34164953 0.84514076 11745566
-0.22772489 0.34164953 0.84514076 11745568
-0.21941712 0.34164953 0.84514076 11876900
-0.21560104 0.34891868 0.86312246 11877413
-0.20280159 0.34164953 0.84514076 11876899
-0.19052456 0.33467713 0.82789302 11811106
-0.18238634 0.33467713 0.82789302 11680032
-0.17076315 0.32798356 0.81133515 11483169
-0.14279622 0.28770489 0.71169752 11351328
-0.1311968 0.27795219 0.68757218 11483425
-0.12236396 0.27331963 0.67611259 11417376
-0.11382074 0.268839 0.66502881 11745568
-0.10728347 0.268839 0.66502881 11613982
-0.10074621 0.268839 0.66502881 11811619
-0.087071903 0.24847239 0.61464781 11483423
-0.081029885 0.24847239 0.61464781 11417376
-0.073868655 0.24476387 0.605474 11417374
-0.066918038 0.24116439 0.59656996 11352097
-0.060168892 0.23766924 0.587924 11351070
-0.054389574 0.23766924 0.587924 11351583
-0.047915824 0.23427399 0.57952511 11154974
-0.042830933 0.23766924 0.587924 11220510
-0.037051614 0.23766924 0.587924 11220510
-0.031272296 0.23766924 0.587924 11154974
-0.025492977 0.23766924 0.587924 11153948
-0.019713657 0.23766924 0.587924 11154978
-0.013934338 0.23766924 0.587924 11482141
-0.008038518 0.23427399 0.57952511 11416863
-0.0023756991 0.23766924 0.587924 11548190
0.0033549974 0.23427399 0.57952511 11613728
0.0090517551 0.23427399 0.57952511 11745057
0.014748513 0.23427399 0.57952511 11548191
0.020741578 0.23766924 0.587924 11548190
0 0 0 11745053
0 0 0 11810848
0 0 0 11286304
0 0 0 11418149
0 0 0 11482912
0 0 0 11286818
0 0 0 11417631
0 0 0 11614499
0 0 0 11548448
0 0 0 11483682
0 0 0 11745827
0 0 0 11811361
0 0 0 11680289
0 0 0 11942434
0.25561255 0.56548887 1.3988537 11745828
0.26936337 0.56548887 1.3988537 12008485
0.27367702 0.54663926 1.3522252 11941662
0.28696945 0.54663926 1.3522252 12008483
0.29057604 0.52900577 1.3086051 11745055
0.30343968 0.52900577 1.3086051 11942692
0 0 0 11876642
0 0 0 12008228
0 0 0 11943207
0 0 0 11680035
0 0 0 11942693
0 0 0 12074279
0 0 0 12008740
0 0 0 11877154
0 0 0 12008740
0.78790355 0.96465755 2.3862798 12140072
0.81136078 0.96465755 2.3862798 11680289
0.83481801 0.96465755 2.3862798 12401697
0.44214177 0.49694479 1.2292956 12074019
0.45422581 0.49694479 1.2292956 11811618
0.46630985 0.49694479 1.2292956 12205859
0.47839388 0.49694479 1.2292956 11877670
0.49047789 0.49694479 1.2292956 12008739
0.50256193 0.49694479 1.2292956 11746852
0.49950933 0.48232877 1.1931399 11680802
0.49663118 0.46854797 1.1590502 11483939
0.50802469 0.46854797 1.1590502 11418401
0.55089808 0.49694479 1.2292956 11418659
0.64063483 0.56548887 1.3988537 11615525
0.65438563 0.56548887 1.3988537 11811875
0.66813642 0.56548887 1.3988537 11483169
0.7062403 0.58568496 1.4488127 11745571
0.72048217 0.58568496 1.4488127 12008228
0.7347241 0.58568496 1.4488127 11549475
0.72313958 0.56548887 1.3988537 11811359
0.73689038 0.56548887 1.3988537 11681060
0.75064117 0.56548887 1.3988537 11483169
0.79169166 0.58568496 1.4488127 11417633
0.80593354 0.58568496 1.4488127 11548964
0.82017547 0.58568496 1.4488127 11483941
0.83441734 0.58568496 1.4488127 11483428
0.84865928 0.58568496 1.4488127 11156259
0.89486051 0.60737699 1.5024725 10959395
0.90962988 0.60737699 1.5024725 11286050
0.95995307 0.63073766 1.5602599 11418405
0.97529048 0.63073766 1.5602599 10893859
0.99062788 0.63073766 1.5602599 11025445
1.046204 0.65596712 1.6226703 11418405
1.0621549 0.65596712 1.6226703 10958367
1.0366402 0.63073766 1.5602599 11286818
1.0519776 0.63073766 1.5602599 10762273
1.0277848 0.60737699 1.5024725 10957854
1.0425543 0.60737699 1.5024725 10499358
1.0573236 0.60737699 1.5024725 10826529
1.072093 0.60737699 1.5024725 10827042
1.0868623 0.60737699 1.5024725 10958882
1.0622877 0.58568496 1.4488127 10959140
1.1593395 0.63073766 1.5602599 10761761
1.0907714 0.58568496 1.4488127 10761249
1.237615 0.65596712 1.6226703 10499363
1.2535659 0.65596712 1.6226703 10433572
1.2695168 0.65596712 1.6226703 10630436
1.2854677 0.65596712 1.6226703 10695715
1.2513641 0.63073766 1.5602599 10433568
1.029195 0.51247436 1.2677112 10170911
0.92591709 0.45553276 1.1268544 10237219
0.93699408 0.45553276 1.1268544 10564641
0.94807112 0.45553276 1.1268544 10499361
0.95914817 0.45553276 1.1268544 10171426
0.97022516 0.45553276 1.1268544 10368290
0.9813022 0.45553276 1.1268544 10302241
1.0207329 0.46854797 1.1590502 10301986
1.0321264 0.46854797 1.1590502 10302243
1.04352 0.46854797 1.1590502 10171170
1.0859402 0.48232877 1.1931399 10171169
1.1309315 0.49694479 1.2292956 10105633
1.1787349 0.51247436 1.2677112 10433056
1.1211262 0.48232877 1.1931399 10105890
1.1328548 0.48232877 1.1931399 9580829
1.1445833 0.48232877 1.1931399 9646625
1.0920725 0.45553276 1.1268544 9515041
1.1680406 0.48232877 1.1931399 9581602
1.2155198 0.49694479 1.2292956 9516067
1.2276038 0.49694479 1.2292956 9648423
1.3196678 0.52900577 1.3086051 9845032
1.4244301 0.56548887 1.3988537 9778981
1.4381809 0.56548887 1.3988537 9648423
1.4519317 0.56548887 1.3988537 9779752
1.5180283 0.58568496 1.4488127 9845032
1.4794333 0.56548887 1.3988537 9778983
1.4931841 0.56548887 1.3988537 9778983
1.5069349 0.56548887 1.3988537 9844518
1.5206857 0.56548887 1.3988537 9844774
1.4832885 0.54663926 1.3522252 9713445
1.7268243 0.63073766 1.5602599 9713445
1.4155064 0.51247436 1.2677112 9713188
1.9039574 0.68329906 1.6902815 9516580
0 0 0 9451814
0 0 0 9518119
0 0 0 9255719
0 0 0 9582887
0 0 0 9845544
0 0 0 9648680
0 0 0 9385766
0 0 0 9255210
0 0 0 9517097
24.841354 8.1995897 20.283379 9385253
12.52037 4.0997949 10.141689 9451558
12.620064 4.0997949 10.141689 9385253
0 0 0 9188645
0 0 0 9189417
0 0 0 9321001
0 0 0 9320744
0 0 0 9517096
0 0 0 2365987
0 0 0 2300705
0 0 0 2169634
0 0 0 2431521
-3.6629167 1.2921501 3.1205199 2038048
-1.6282463 0.57923973 1.3988537 2103326
-1.6144955 0.57923973 1.3988537 2102814
-1.7193184 0.62214637 1.5024725 1971743
-1.5869938 0.57923973 1.3988537 1905951
-1.5208017 0.5599317 1.3522252 1839899
-1.2562578 0.46660978 1.1268544 1840415
-1.2115271 0.45399868 1.0963988 1839902
-1.2007495 0.45399868 1.0963988 1971742
-1.1586568 0.44205135 1.0675462 2102556
-1.1481627 0.44205135 1.0675462 2628385
-1.1084977 0.43071672 1.0401733 2496797
-1.0446985 0.40970615 0.98943311 1839638
-0.78581238 0.31107318 0.75123626 1510673
-0.67798537 0.2709347 0.65430254 1641744
-0.67155355 0.2709347 0.65430254 1772815
-0.66512173 0.2709347 0.65430254 2364952
-0.68064618 0.27996585 0.67611259 4336167
-0.66295081 0.27537626 0.66502881 4795684
-0.65641356 0.27537626 0.66502881 4333334
-0.6498763 0.27537626 0.66502881 5448479
-0.64333904 0.27537626 0.66502881 7353639
-0.65838832 0.28471106 0.68757218 7812906
-0.67449361 0.29470092 0.71169752 8402727
-0.65598899 0.28961986 0.69942683 8927012
-0.6605016 0.29470092 0.71169752 9845285
-0.65350556 0.29470092 0.71169752 9976099
-0.67001897 0.3054173 0.73757738 10434853
-0.68777865 0.31694248 0.76541048 10434083
-0.68025464 0.31694248 0.76541048 10434340
-0.67273062 0.31694248 0.76541048 10303267
-0.66520661 0.31694248 0.76541048 10302753
-0.6576826 0.31694248 0.76541048 10696994
-0.65015858 0.31694248 0.76541048 10565410
-0.6082077 0.29996341 0.72440636 10565667
-0.59054142 0.29470092 0.71169752 10828326
-0.58354539 0.29470092 0.71169752 10696995
-0.58684486 0.29996341 0.72440636 10631461
-0.55973345 0.28961986 0.69942683 10433826
-0.56255734 0.29470092 0.71169752 10696226
-0.5555613 0.29470092 0.71169752 11090468
-0.55836105 0.29996341 0.72440636 11024675
-0.55124015 0.29996341 0.72440636 11024161
-0.62185049 0.34281534 0.82789302 11221539
-0.62649792 0.34995732 0.84514076 11024417
-0.60557407 0.34281534 0.82789302 10893857
-0.59743583 0.34281534 0.82789302 11155234
-0.58929759 0.34281534 0.82789302 11089954
-0.58115941 0.34281534 0.82789302 11287334
-0.57302117 0.34281534 0.82789302 11221541
-0.56488293 0.34281534 0.82789302 11090467
-0.55674469 0.34281534 0.82789302 11024416
-0.54860646 0.34281534 0.82789302 11287332
-0.55172801 0.34995732 0.84514076 11221541
-0.57964826 0.3732878 0.90148348 11155748
0 0 0 11287846
0 0 0 11353124
0 0 0 11352610
0 0 0 11483941
0 0 0 11549476
0 0 0 11614754
0 0 0 11549218
0 0 0 11549732
0 0 0 11484197
-2.4551601 1.8664391 4.5074177 11549732
-2.1697669 1.6797953 4.0566759 11484450
-1.7749078 1.3998293 3.380563 11615012
-1.7416768 1.3998293 3.380563 11747111
-1.7084457 1.3998293 3.380563 11549991
-1.6752145 1.3998293 3.380563 11550504
-1.9703803 1.6797953 4.0566759 11746081
-2.1450033 1.8664391 4.5074177 11812388
-2.1006951 1.8664391 4.5074177 12205604
-2.0563872 1.8664391 4.5074177 11811618
-2.012079 1.8664391 4.5074177 11876902
-1.9677709 1.8664391 4.5074177 11877154
-1.9234627 1.8664391 4.5074177 11746340
-1.6912392 1.6797953 4.0566759 11876898
-1.8348465 1.8664391 4.5074177 12074020
-1.7905384 1.8664391 4.5074177 11943207
-1.5716072 1.6797953 4.0566759 11419174
-1.1782538 1.2921501 3.1205199 12009513
-0.87756032 0.98811477 2.3862798 11615525
-0.85410309 0.98811477 2.3862798 11614754
-0.31379956 0.3732878 0.90148348 11352610
-0.29830885 0.36517286 0.88188601 11286560
-0.28963986 0.36517286 0.88188601 11353123
-0.27499276 0.35740322 0.86312246 11811875
-0.26650825 0.35740322 0.86312246 11614497
-0.25802371 0.35740322 0.86312246 12008481
-0.24434045 0.34995732 0.84514076 11876639
-0.23603266 0.34995732 0.84514076 11942692
-0.22772489 0.34995732 0.84514076 11811104
-0.21941712 0.34995732 0.84514076 11942691
-0.21110936 0.34995732 0.84514076 11876639
-0.20280159 0.34995732 0.84514076 11943204
-0.19449382 0.34995732 0.84514076 11745827
-0.18238634 0.34281534 0.82789302 11548703
-0.17076315 0.33595905 0.81133515 11548189
-0.14279622 0.29470092 0.71169752 11286561
-0.1358002 0.29470092 0.71169752 11482913
-0.12658341 0.28961986 0.69942683 11549218
-0.11571775 0.27996585 0.67611259 11352095
-0.10907153 0.27996585 0.67611259 11220767
-0.10074621 0.27537626 0.66502881 11613985
-0.094208948 0.27537626 0.66502881 11613984
-0.08767169 0.27537626 0.66502881 11745058
-0.073868655 0.2507157 0.605474 11220767
-0.066918038 0.24702869 0.59656996 11482912
-0.060168892 0.24344857 0.587924 11679775
-0.054389574 0.24344857 0.587924 11745055
-0.047240954 0.23659088 0.57136279 11876641
-0.041624431 0.23659088 0.57136279 11876641
-0.037051614 0.24344857 0.587924 11811109
-0.031272296 0.24344857 0.587924 11548449
-0.025492977 0.24344857 0.587924 11745055
-0.019713657 0.24344857 0.587924 11154206
-0.013934338 0.24344857 0.587924 11219997
-0.0081550181 0.24344857 0.587924 11417378
-0.0023417606 0.23997074 0.57952511 11417378
0.0033077439 0.23659088 0.57136279 11482910
0.0090517551 0.23997074 0.57952511 11810848
0.014962259 0.24344857 0.587924 11286814
0.021046601 0.24702869 0.59656996 11483169
0 0 0 11745828
0 0 0 11482658
0 0 0 11483171
0 0 0 11417117
0 0 0 11745570
0 0 0 11482912
0 0 0 11417891
0 0 0 11876896
0 0 0 11352098
0 0 0 11745568
0 0 0 11483939
0 0 0 11942947
0 0 0 11876899
0 0 0 11746085
0.27454683 0.62214637 1.5024725 11745570
0.27898347 0.59992683 1.4488127 11745310
0.28311417 0.57923973 1.3988537 12073507
0.28696945 0.5599317 1.3522252 11811361
0.29057604 0.5418694 1.3086051 11810593
0.30343968 0.5418694 1.3086051 11942435
0 0 0 11811623
0 0 0 11745055
0 0 0 11745314
0 0 0 11745823
0 0 0 11287076
0 0 0 11877155
0 0 0 11483168
0 0 0 11745568
0 0 0 11811875
0.83714753 1.0498719 2.5354223 11876900
0.81136078 0.98811477 2.3862798 12008740
0.70959538 0.83989763 2.028338 11942688
0.44214177 0.50902879 1.2292956 12073250
0.45422581 0.50902879 1.2292956 12336677
0.46630985 0.50902879 1.2292956 11942693
0.47839388 0.50902879 1.2292956 11746082
0.64743084 0.67191809 1.6226703 12074276
0.61424243 0.62214637 1.5024725 11942947
0.49950933 0.49405739 1.1931399 11811620
0.49663118 0.47994149 1.1590502 11548962
0.50802469 0.47994149 1.1590502 11418146
0.55089808 0.50902879 1.2292956 11614755
0.58057529 0.52493596 1.2677112 11351837
0.63257271 0.5599317 1.3522252 11419172
0.6458652 0.5599317 1.3522252 11352866
0.65915763 0.5599317 1.3522252 11351842
0.695638 0.57923973 1.3988537 11613728
0.70938879 0.57923973 1.3988537 11549734
0.72313958 0.57923973 1.3988537 11680803
0.73689038 0.57923973 1.3988537 11483684
0.75064117 0.57923973 1.3988537 11548451
0.76439196 0.57923973 1.3988537 11745570
0.77814275 0.57923973 1.3988537 11746082
0.82017547 0.59992683 1.4488127 11679778
0.83441734 0.59992683 1.4488127 11483171
0.84865928 0.59992683 1.4488127 11155747
0.86290115 0.59992683 1.4488127 11484454
0.90962988 0.62214637 1.5024725 11352355
0.92439926 0.62214637 1.5024725 11024673
0.93916857 0.62214637 1.5024725 10958625
0.99062788 0.64607507 1.5602599 11024160
1.0059654 0.64607507 1.5602599 10892833
1.0213027 0.64607507 1.5602599 11286564
1.0366402 0.64607507 1.5602599 10959141
1.0519776 0.64607507 1.5602599 10959139
1.0277848 0.62214637 1.5024725 10630431
1.0425543 0.62214637 1.5024725 10828067
1.0573236 0.62214637 1.5024725 10761501
1.072093 0.62214637 1.5024725 10959138
1.0868623 0.62214637 1.5024725 10761761
1.1016316 0.62214637 1.5024725 10893088
1.0765295 0.59992683 1.4488127 11024419
1.0907714 0.59992683 1.4488127 10827042
1.1050134 0.59992683 1.4488127 10827295
1.2535659 0.67191809 1.6226703 10893091
1.2695168 0.67191809 1.6226703 10760993
1.2854677 0.67191809 1.6226703 10629665
1.3014187 0.67191809 1.6226703 10565154
1.3173696 0.67191809 1.6226703 10499106
0.98038274 0.49405739 1.1931399 10433058
0.91166985 0.45399868 1.0963988 10433570
0.9224475 0.45399868 1.0963988 10434855
0.95914817 0.46660978 1.1268544 10433826
0.97022516 0.46660978 1.1268544 10171682
0.9813022 0.46660978 1.1268544 10106149
0.99237925 0.46660978 1.1268544 10237476
1.0321264 0.47994149 1.1590502 10303013
1.04352 0.47994149 1.1590502 10368035
1.0859402 0.49405739 1.1931399 10367778
1.0976689 0.49405739 1.1931399 10170913
1.0777005 0.47994149 1.1590502 10236704
1.089094 0.47994149 1.1590502 10105376
1.1004875 0.47994149 1.1590502 10105118
1.0809954 0.46660978 1.1268544 9712415
1.0920725 0.46660978 1.1268544 9777954
1.1346681 0.47994149 1.1590502 9515298
1.1797693 0.49405739 1.1931399 9319202
1.2276038 0.50902879 1.2292956 9253409
1.4106793 0.57923973 1.3988537 9778983
1.4244301 0.57923973 1.3988537 9581604
1.4381809 0.57923973 1.3988537 9779494
1.4519317 0.57923973 1.3988537 9582886
1.5180283 0.59992683 1.4488127 9648679
1.5322702 0.59992683 1.4488127 9910825
1.4931841 0.57923973 1.3988537 9910826
1.5069349 0.57923973 1.3988537 9778983
1.6961495 0.64607507 1.5602599 9713188
1.9347242 0.73034573 1.763772 9712932
1.8707262 0.69991463 1.6902815 9910569
1.8118482 0.67191809 1.6226703 9713703
1.427968 0.52493596 1.2677112 9582117
1.6462053 0.59992683 1.4488127 9516579
1.9371884 0.69991463 1.6902815 9648419
0 0 0 9582885
9.4580145 3.3595905 8.1133518 9385766
0 0 0 9582633
0 0 0 9844776
0 0 0 9451047
0 0 0 9254181
0 0 0 9189158
0 0 0 9386024
10.016296 3.3595905 8.1133518 9516840
12.620064 4.1994877 10.141689 9517864
0 0 0 9254438
0 0 0 9320998
0 0 0 9320487
0 0 0 9386024
0 0 0 9451817
0 0 0 2497056
0 0 0 2562592
0 0 0 2299936
0 0 0 2103584
-2.3808959 0.85983628 2.028338 2103841
-1.3887984 0.505786 1.1931399 2037533
-1.418799 0.52111286 1.2292956 2102558
-1.5473865 0.57322413 1.3522252 2102559
-1.5340941 0.57322413 1.3522252 1971742
-1.5208017 0.57322413 1.3522252 1840158
-1.4588799 0.55473304 1.3086051 1840159
-1.2451807 0.47768682 1.1268544 2037536
-1.2007495 0.46477634 1.0963988 1971485
-1.1899718 0.46477634 1.0963988 2628642
-1.1791942 0.46477634 1.0963988 2562590
-1.1684165 0.46477634 1.0963988 2365211
-1.070816 0.42991814 1.014169 1839124
-0.83203655 0.33719069 0.79542661 1772815
-0.72474295 0.29649526 0.69942683 2101008
-0.71786755 0.29649526 0.69942683 2824218
-0.6872924 0.28661206 0.67611259 4794921
-0.68064618 0.28661206 0.67611259 6828328
-0.67399997 0.28661206 0.67611259 8468008
-0.69036597 0.29649526 0.69942683 9188904
-0.68349057 0.29649526 0.69942683 9582375
-0.66514719 0.29146993 0.68757218 9582116
-0.65838832 0.29146993 0.68757218 9582114
-0.66286439 0.29649526 0.69942683 9581602
-0.66749763 0.30169693 0.71169752 9712929
-0.68451977 0.3126677 0.73757738 10040865
-0.65350556 0.30169693 0.71169752 10106915
-0.67001897 0.3126677 0.73757738 10172194
-0.65093338 0.30708435 0.72440636 10434083
-0.65551811 0.3126677 0.73757738 10368546
-0.64826769 0.3126677 0.73757738 10237215
-0.64101726 0.3126677 0.73757738 10564897
-0.62244958 0.30708435 0.72440636 10499361
-0.61532867 0.30708435 0.72440636 10696480
-0.6082077 0.30708435 0.72440636 10828067
-0.60108674 0.30708435 0.72440636 10762530
-0.59396583 0.30708435 0.72440636 10696227
-0.58684486 0.30708435 0.72440636 10762533
-0.56955338 0.30169693 0.71169752 10697251
-0.56255734 0.30169693 0.71169752 10631459
-0.5555613 0.30169693 0.71169752 10828069
-0.55836105 0.30708435 0.72440636 11090468
-0.5824424 0.3244665 0.76541048 11089953
-0.62185049 0.35095358 0.82789302 11024674
-0.61371231 0.35095358 0.82789302 10762531
-0.61819017 0.3582651 0.84514076 10893859
-0.60988241 0.3582651 0.84514076 11221539
-0.6015746 0.3582651 0.84514076 11155235
-0.59326684 0.3582651 0.84514076 11286564
-0.58495909 0.3582651 0.84514076 11025445
-0.56488293 0.35095358 0.82789302 11090468
-0.55674469 0.35095358 0.82789302 11221539
-0.56003577 0.3582651 0.84514076 11287075
-0.56346691 0.36588776 0.86312246 11221798
0 0 0 11090468
0 0 0 11156261
0 0 0 11287332
0 0 0 11353380
0 0 0 11156257
0 0 0 11353123
0 0 0 11680287
0 0 0 11089953
0 0 0 11549733
0 0 0 11615525
-2.4551601 1.9107473 4.5074177 11353636
-2.4108522 1.9107473 4.5074177 11287332
-2.1298895 1.7196726 4.0566759 11614499
-2.0900123 1.7196726 4.0566759 11680290
-1.8637589 1.5633386 3.687887 11550245
-2.0102577 1.7196726 4.0566759 11681318
-1.9703803 1.7196726 4.0566759 11745828
-2.1450033 1.9107473 4.5074177 11943459
-2.1006951 1.9107473 4.5074177 11681318
-2.0563872 1.9107473 4.5074177 12074533
-2.012079 1.9107473 4.5074177 11746597
-1.9677709 1.9107473 4.5074177 11614755
-1.9234627 1.9107473 4.5074177 11353123
-1.8791547 1.9107473 4.5074177 11418146
-1.8348465 1.9107473 4.5074177 11943202
-1.7905384 1.9107473 4.5074177 11681062
-1.3096726 1.4330604 3.380563 11877668
-0.95733118 1.0747952 2.5354223 11877666
-0.87756032 1.011572 2.3862798 11680802
-0.85410309 1.011572 2.3862798 11680035
-0.31379956 0.38214943 0.90148348 11614755
-0.29830885 0.37384182 0.88188601 11352353
-0.28963986 0.37384182 0.88188601 11352867
-0.28097087 0.37384182 0.88188601 11746082
-0.26650825 0.36588776 0.86312246 12008740
-0.25802371 0.36588776 0.86312246 11877412
-0.24434045 0.3582651 0.84514076 11746342
-0.23603266 0.3582651 0.84514076 11942693
-0.22772489 0.3582651 0.84514076 11811362
-0.21941712 0.3582651 0.84514076 11418147
-0.21560104 0.36588776 0.86312246 11811363
-0.20280159 0.3582651 0.84514076 11548703
-0.19449382 0.3582651 0.84514076 11811361
-0.18238634 0.35095358 0.82789302 11548705
-0.17424811 0.35095358 0.82789302 11548446
-0.14279622 0.30169693 0.71169752 11876641
-0.1358002 0.30169693 0.71169752 11679008
-0.12658341 0.29649526 0.69942683 11483171
-0.11571775 0.28661206 0.67611259 11352353
-0.10907153 0.28661206 0.67611259 11548451
-0.10242531 0.28661206 0.67611259 11548448
-0.094208948 0.28191352 0.66502881 11614239
-0.08767169 0.28191352 0.66502881 11416608
-0.076141536 0.26456499 0.62410396 11351584
-0.066918038 0.252893 0.59656996 11613986
-0.060168892 0.24922788 0.587924 11416863
-0.054389574 0.24922788 0.587924 11548450
-0.044721436 0.22928967 0.5408901 11614244
-0.039404459 0.22928967 0.5408901 11810846
-0.036007911 0.24220739 0.57136279 11351324
-0.030391388 0.24220739 0.57136279 11613982
-0.021716239 0.21230523 0.50082415 11613728
-0.016793115 0.21230523 0.50082415 11483169
-0.013353742 0.23884341 0.56342721 11285792
-0.0074038985 0.22627269 0.53377312 11154204
-0.0019990639 0.20971616 0.49471655 11351585
0.002864022 0.20971616 0.49471655 11285792
0.0089242654 0.24220739 0.57136279 11417376
0.015182292 0.252893 0.59656996 11613982
0.022362014 0.26869881 0.63385558 11482656
0 0 0 11483173
0 0 0 11286305
0 0 0 11220769
0 0 0 11482656
0 0 0 11155745
0 0 0 11745568
0 0 0 11548450
0 0 0 11417120
0 0 0 11482658
0 0 0 11613728
0 0 0 11352096
0 0 0 11613728
0 0 0 11483426
0 0 0 11352098
0 0 0 11876900
0.28931621 0.63691574 1.5024725 11811361
0.29322538 0.6141687 1.4488127 11548449
0.33111861 0.66141254 1.5602599 11679777
0.31061575 0.59299052 1.3988537 11745056
0.30343968 0.55473304 1.3086051 11811617
0.33811733 0.59299052 1.3988537 11942694
0 0 0 11681059
0 0 0 11548964
0 0 0 11614500
0 0 0 11417889
0.24581808 0.3582651 0.84514076 11680032
0.26517481 0.37384182 0.88188601 11942692
0.52486724 0.7165302 1.6902815 11614496
0 0 0 11877927
0.83714753 1.0747952 2.5354223 12073766
0.81136078 1.011572 2.3862798 11811107
0.83481801 1.011572 2.3862798 11942949
0.50312686 0.59299052 1.3988537 12008486
0.45422581 0.52111286 1.2292956 11877154
0.53062844 0.59299052 1.3988537 11680548
0.63147992 0.68786901 1.6226703 11745825
0 0 0 11877668
0.66338181 0.68786901 1.6226703 12007713
0.58563161 0.59299052 1.3988537 11614755
0.51123798 0.505786 1.1931399 11614498
0.52296656 0.505786 1.1931399 11680548
0.55089808 0.52111286 1.2292956 11548962
0.58057529 0.53739762 1.2677112 11746083
0.63257271 0.57322413 1.3522252 11549218
0.6458652 0.57322413 1.3522252 11811361
0.65915763 0.57322413 1.3522252 11418404
0.695638 0.59299052 1.3988537 11548451
0.70938879 0.59299052 1.3988537 11353127
0.72313958 0.59299052 1.3988537 11352869
0.73689038 0.59299052 1.3988537 11549218
0.75064117 0.59299052 1.3988537 11287073
0.76439196 0.59299052 1.3988537 11156259
0.80593354 0.6141687 1.4488127 11352353
0.82017547 0.6141687 1.4488127 11877668
0.83441734 0.6141687 1.4488127 11352355
0.84865928 0.6141687 1.4488127 11483427
0.86290115 0.6141687 1.4488127 11286562
0.90962988 0.63691574 1.5024725 11089698
0.92439926 0.63691574 1.5024725 11089701
0.93916857 0.63691574 1.5024725 11286820
0.95393795 0.63691574 1.5024725 10958882
0.96870732 0.63691574 1.5024725 11221026
1.0213027 0.66141254 1.5602599 11024417
1.0366402 0.66141254 1.5602599 11089953
1.0519776 0.66141254 1.5602599 10958882
1.067315 0.66141254 1.5602599 10630687
1.0425543 0.63691574 1.5024725 10433568
1.0573236 0.63691574 1.5024725 10630690
1.0338038 0.6141687 1.4488127 10696480
1.0868623 0.63691574 1.5024725 10695967
1.0622877 0.6141687 1.4488127 11023910
1.0765295 0.6141687 1.4488127 10958627
1.0531586 0.59299052 1.3988537 10892578
1.0669094 0.59299052 1.3988537 10696480
1.1607091 0.63691574 1.5024725 10893087
1.2695168 0.68786901 1.6226703 10630945
1.2854677 0.68786901 1.6226703 10564383
1.3556443 0.7165302 1.6902815 10630687
1.37226 0.7165302 1.6902815 10761504
1.3333205 0.68786901 1.6226703 10630691
1.3492714 0.68786901 1.6226703 10301985
0.94807112 0.47768682 1.1268544 10105634
0.95914817 0.47768682 1.1268544 9908511
0.97022516 0.47768682 1.1268544 10303010
0.9813022 0.47768682 1.1268544 10302496
0.99237925 0.47768682 1.1268544 9908510
1.0321264 0.491335 1.1590502 10104607
1.0742117 0.505786 1.1931399 10105890
1.1188475 0.52111286 1.2292956 10171683
1.2440248 0.57322413 1.3522252 10236194
1.2573172 0.57322413 1.3522252 10039325
1.1911966 0.53739762 1.2677112 10236961
1.1328548 0.505786 1.1931399 10368291
1.0809954 0.47768682 1.1268544 9974048
1.0920725 0.47768682 1.1268544 9842464
1.1346681 0.491335 1.1590502 9712161
1.2155198 0.52111286 1.2292956 9581091
1.3969285 0.59299052 1.3988537 9384740
1.4106793 0.59299052 1.3988537 9516068
1.4244301 0.59299052 1.3988537 9384995
1.4895445 0.6141687 1.4488127 9647395
1.5037863 0.6141687 1.4488127 9450018
1.5742517 0.63691574 1.5024725 9713703
1.589021 0.63691574 1.5024725 9384741
1.6037904 0.63691574 1.5024725 9713190
1.680812 0.66141254 1.5602599 10107433
1.9173863 0.74768364 1.763772 9385256
2.0226662 0.78166932 1.8439435 9123363
2.1379728 0.81889164 1.9317503 9123876
1.9694002 0.74768364 1.763772 9582633
1.9867381 0.74768364 1.763772 9910054
2.004076 0.74768364 1.763772 9976872
1.9371884 0.7165302 1.6902815 9780008
7.8152161 2.8661208 6.761126 9582885
5.9112587 2.1495905 5.0708447 9582887
9.5377693 3.4393451 8.1133518 9714217
16.029205 5.7322416 13.522252 9516838
0 0 0 9451047
0 0 0 9516582
0 0 0 9647395
0 0 0 9254694
12.52037 4.299181 10.141689 9123365
0 0 0 8926754
0 0 0 9255462
0 0 0 9320998
0 0 0 9386535
0 0 0 9123621
0 0 0 9320231
0 0 0 2300963
0 0 0 2103586
0 0 0 2169380
0 0 0 2235172
0 0 0 2300707
-1.3887984 0.51751465 1.1931399 2234400
-1.3770697 0.51751465 1.1931399 2168349
-1.4067149 0.53319687 1.2292956 1906462
-1.5340941 0.58651656 1.3522252 2168351
-1.5208017 0.58651656 1.3522252 2103328
-1.5594922 0.60674131 1.3988537 2168607
-1.5457414 0.60674131 1.3988537 2036764
-1.2341037 0.48876384 1.1268544 2562847
-1.1899718 0.47555399 1.0963988 2825762
-1.1481627 0.46303943 1.0675462 3152926
-1.2008727 0.48876384 1.1268544 4136477
-1.070816 0.43988746 1.014169 5055518
-0.83203655 0.34500974 0.79542661 5975076
-0.77842766 0.32584256 0.75123626 7353899
-0.78559089 0.33199051 0.76541048 8598823
-0.77806687 0.33199051 0.76541048 9582372
-0.83344436 0.35909179 0.82789302 9516579
-0.68542379 0.2982288 0.68757218 9648423
-0.69036597 0.30337065 0.69942683 9778723
-0.70790094 0.31420532 0.72440636 9844515
-0.68848568 0.30869296 0.71169752 9319200
-0.68148965 0.30869296 0.71169752 9515809
-0.67449361 0.30869296 0.71169752 9515552
-0.67941719 0.31420532 0.72440636 9844259
-0.67229623 0.31420532 0.72440636 10105890
-0.65350556 0.30869296 0.71169752 10236702
-0.64650953 0.30869296 0.71169752 10171938
-0.66276854 0.31991813 0.73757738 10237217
-0.65551811 0.31991813 0.73757738 10237475
-0.64826769 0.31991813 0.73757738 10303267
-0.62957054 0.31420532 0.72440636 10696226
-0.62244958 0.31420532 0.72440636 10696226
-0.61532867 0.31420532 0.72440636 10828580
-0.6082077 0.31420532 0.72440636 10828064
-0.6120156 0.31991813 0.73757738 10696480
-0.59396583 0.31420532 0.72440636 10762534
-0.58684486 0.31420532 0.72440636 10303521
-0.56955338 0.30869296 0.71169752 10630944
-0.56255734 0.30869296 0.71169752 10499875
-0.56548202 0.31420532 0.72440636 10763044
-0.63812697 0.35909179 0.82789302 10827809
-0.65679675 0.37437227 0.86312246 10762530
0 0 0 11025188
-0.61371231 0.35909179 0.82789302 10828066
-0.65940285 0.39101106 0.90148348 11287334
-0.63639903 0.38251081 0.88188601 10827808
-0.62773001 0.38251081 0.88188601 10893605
-0.59326684 0.36657286 0.84514076 11090214
-0.62395638 0.39101106 0.90148348 11418404
-0.61509472 0.39101106 0.90148348 10828065
-0.60623312 0.39101106 0.90148348 10959139
0 0 0 11221539
0 0 0 11156259
0 0 0 10959652
0 0 0 11353638
0 0 0 11156773
0 0 0 11091236
0 0 0 11286818
0 0 0 11287073
0 0 0 10959135
-3.8821266 2.9325829 6.761126 11680550
-2.8617485 2.1994371 5.0708447 11548962
-2.8119018 2.1994371 5.0708447 11352612
-2.7620552 2.1994371 5.0708447 11549218
-2.7122085 2.1994371 5.0708447 11812134
-2.366544 1.9550554 4.5074177 11418659
-2.3222358 1.9550554 4.5074177 11287330
-2.0501349 1.7595499 4.0566759 11483941
-2.2336197 1.9550554 4.5074177 11418661
-2.1893115 1.9550554 4.5074177 12009000
-2.4131286 2.1994371 5.0708447 11812647
-2.363282 2.1994371 5.0708447 12009254
-2.0563872 1.9550554 4.5074177 11746082
-2.012079 1.9550554 4.5074177 11681316
-1.9677709 1.9550554 4.5074177 11550757
-1.9234627 1.9550554 4.5074177 11878181
-1.8791547 1.9550554 4.5074177 11877411
-1.8348465 1.9550554 4.5074177 12009254
-1.7905384 1.9550554 4.5074177 11942693
-1.7462304 1.9550554 4.5074177 11680802
-1.7019222 1.9550554 4.5074177 11483424
-1.147579 1.3534999 3.1205199 11417376
-1.1169041 1.3534999 3.1205199 11746341
-0.37160474 0.46303943 1.0675462 11549216
-0.30493793 0.39101106 0.90148348 11745569
-0.28963986 0.38251081 0.88188601 11811362
-0.28721467 0.39101106 0.90148348 11746082
-0.27230191 0.38251081 0.88188601 11680289
-0.2526482 0.36657286 0.84514076 11417378
-0.24434045 0.36657286 0.84514076 11615013
-0.23603266 0.36657286 0.84514076 11286818
-0.22772489 0.36657286 0.84514076 11549216
-0.21941712 0.36657286 0.84514076 11811107
-0.21560104 0.37437227 0.86312246 11745571
-0.20280159 0.36657286 0.84514076 11614756
-0.19052456 0.35909179 0.82789302 11482914
-0.18238634 0.35909179 0.82789302 11680033
-0.14979224 0.30869296 0.71169752 11615008
-0.14279622 0.30869296 0.71169752 11745055
-0.1358002 0.30869296 0.71169752 11679775
-0.12236396 0.29325828 0.67611259 11482656
-0.11571775 0.29325828 0.67611259 11024160
-0.10907153 0.29325828 0.67611259 11417376
-0.10242531 0.29325828 0.67611259 11154974
-0.095779091 0.29325828 0.67611259 11351583
-0.08767169 0.28845078 0.66502881 11088669
-0.081134424 0.28845078 0.66502881 11089438
-0.070006564 0.27069998 0.62410396 11417377
-0.060168892 0.25500721 0.587924 11351842
-0.04750482 0.22272782 0.51350325 11417635
-0.039460089 0.20700586 0.47725597 11548194
-0.034768641 0.20700586 0.47725597 11483426
-0.030077195 0.20700586 0.47725597 11547681
-0.025385747 0.20700586 0.47725597 11351583
-0.021451408 0.21457924 0.49471655 11548703
-0.016588321 0.21457924 0.49471655 11613730
-0.011725236 0.21457924 0.49471655 11351327
-0.0066199563 0.20700586 0.47725597 11220767
-0.0019285086 0.20700586 0.47725597 11483169
0.0027958311 0.20947021 0.48293757 11416863
0.007727108 0.21457924 0.49471655 11023390
0.016131185 0.27492964 0.63385558 11351587
0 0 0 10826781
0 0 0 11088158
0 0 0 11154207
0 0 0 11088926
0 0 0 11285792
0 0 0 11613985
0 0 0 11548449
0 0 0 11482656
0 0 0 11679521
0 0 0 11482399
0.021250585 0.06900195 0.15908532 11679778
0 0 0 11482656
0 0 0 11417376
0 0 0 11483169
0 0 0 11417376
0 0 0 11614242
0.55796695 1.2568213 2.8976254 11286562
0.32841244 0.70381993 1.6226703 11155491
0.35871181 0.73314571 1.6902815 11417636
0.34645605 0.67674994 1.5602599 11745573
0.33595106 0.62841064 1.4488127 11680034
0 0 0 11482912
0 0 0 11548449
0 0 0 11679521
0 0 0 11811361
0 0 0 11745313
0.24581808 0.36657286 0.84514076 11680034
0.26517481 0.38251081 0.88188601 11549734
0.52486724 0.73314571 1.6902815 11483171
0.61883748 0.83788085 1.9317503 11811619
0.83714753 1.0997186 2.5354223 12205347
0.86207086 1.0997186 2.5354223 12007714
0.88699412 1.0997186 2.5354223 12206117
0.72953403 0.87977493 2.028338 11812388
0.53533757 0.62841064 1.4488127 12337190
0.615529 0.70381993 1.6226703 12336677
0.63147992 0.70381993 1.6226703 11746340
0.64743084 0.70381993 1.6226703 11943205
0.66338181 0.70381993 1.6226703 12074272
0.62901175 0.65168512 1.5024725 11877668
0.64378113 0.65168512 1.5024725 11680548
0.63503081 0.62841064 1.4488127 11614239
0.62688398 0.60674131 1.3988537 11548705
0.64063483 0.60674131 1.3988537 11942693
0.65438563 0.60674131 1.3988537 11811623
0.66813642 0.60674131 1.3988537 11942434
0.68188721 0.60674131 1.3988537 11680293
0.695638 0.60674131 1.3988537 11680037
0.70938879 0.60674131 1.3988537 11614500
0.72313958 0.60674131 1.3988537 11418150
0.73689038 0.60674131 1.3988537 11286562
0.77744979 0.62841064 1.4488127 11483685
0.79169166 0.62841064 1.4488127 11549220
0.80593354 0.62841064 1.4488127 11286305
0.85055238 0.65168512 1.5024725 11613728
0.86532176 0.65168512 1.5024725 11221282
0.84865928 0.62841064 1.4488127 11089183
0.89486051 0.65168512 1.5024725 11155746
0.90962988 0.65168512 1.5024725 11089956
0.92439926 0.65168512 1.5024725 11351583
0.93916857 0.65168512 1.5024725 11089955
0.95393795 0.65168512 1.5024725 11090466
0.96870732 0.65168512 1.5024725 11351585
0.9834767 0.65168512 1.5024725 11089183
1.0366402 0.67674994 1.5602599 11089953
1.0130155 0.65168512 1.5024725 11090210
1.0277848 0.65168512 1.5024725 10893089
1.0425543 0.65168512 1.5024725 10565154
1.0573236 0.65168512 1.5024725 10434084
1.1133273 0.67674994 1.5602599 10564642
1.1286647 0.67674994 1.5602599 10564641
1.1440022 0.67674994 1.5602599 10564642
1.0394078 0.60674131 1.3988537 10499363
1.0531586 0.60674131 1.3988537 10696483
1.0669094 0.60674131 1.3988537 11024931
1.1192552 0.62841064 1.4488127 10827297
1.2695168 0.70381993 1.6226703 10434335
1.2854677 0.70381993 1.6226703 10171166
1.3014187 0.70381993 1.6226703 11024162
1.37226 0.73314571 1.6902815 10892319
1.3333205 0.70381993 1.6226703 10696483
1.3492714 0.70381993 1.6226703 10302495
1.3652223 0.70381993 1.6226703 10761503
1.3280512 0.67674994 1.5602599 10564898
1.2474322 0.62841064 1.4488127 10368032
1.2181681 0.60674131 1.3988537 10236190
1.0825955 0.53319687 1.2292956 10433313
1.0946795 0.53319687 1.2292956 10433570
1.4047384 0.67674994 1.5602599 9974561
1.4768788 0.70381993 1.6226703 10367779
1.4354132 0.67674994 1.5602599 9843747
1.3970191 0.65168512 1.5024725 9974565
1.4117885 0.65168512 1.5024725 10105892
1.2036582 0.54985929 1.2677112 9777441
1.1445833 0.51751465 1.1931399 10039840
1.156312 0.51751465 1.1931399 9974558
1.418335 0.62841064 1.4488127 9844261
1.4325769 0.62841064 1.4488127 9712677
1.4468188 0.62841064 1.4488127 9778468
1.4610606 0.62841064 1.4488127 9843747
1.5299435 0.65168512 1.5024725 9449762
1.6041249 0.67674994 1.5602599 9385252
1.5594822 0.65168512 1.5024725 9515809
1.7001917 0.70381993 1.6226703 9515809
1.7161427 0.70381993 1.6226703 9253922
1.7320936 0.70381993 1.6226703 9188131
1.9864142 0.79979533 1.8439435 9188129
2.0045402 0.79979533 1.8439435 9253922
2.1189837 0.83788085 1.9317503 9451301
0 0 0 9319461
5.0329118 1.9550554 4.5074177 9385253
9.1389961 3.5190997 8.1133518 9384993
9.21875 3.5190997 8.1133518 9582374
9.2985048 3.5190997 8.1133518 9386794
9.3782597 3.5190997 8.1133518 9320742
9.4580145 3.5190997 8.1133518 9583399
11.922211 4.3988743 10.141689 9648422
12.021904 4.3988743 10.141689 9648422
12.121597 4.3988743 10.141689 9648680
9.7770329 3.5190997 8.1133518 9517863
