# .PCD v0.7 - Point Cloud Data file format
VERSION 0.7
FIELDS x y z rgb
SIZE 4 4 4 4
TYPE F F F U
COUNT 1 1 1 1
WIDTH 1330
HEIGHT 1
VIEWPOINT 0 0 0 1 0 0 0
POINTS 1330
DATA ascii
-0.004098081 0.45982611 1.014169 12007973
0.0040491344 0.31712145 0.69942683 11943207
0.011116191 0.322685 0.71169752 11811109
0.018112209 0.322685 0.71169752 11811621
0.025108228 0.322685 0.71169752 11942695
0.044632733 0.44861084 0.98943311 11942695
0 0 0 11615783
0 0 0 11483684
0 0 0 12008487
0 0 0 11876645
0 0 0 11812136
0 0 0 11680550
0 0 0 11877414
0 0 0 11942182
0 0 0 12074279
0 0 0 12336422
0 0 0 11942182
0 0 0 11877157
0 0 0 11680035
0.7412765 1.8393044 4.0566759 11942694
0.60088754 1.4148495 3.1205199 12008230
0.4321216 0.96805495 2.1350925 12008485
0.66223723 1.4148495 3.1205199 11942694
0.81889606 1.6720948 3.687887 11418148
0.85514814 1.6720948 3.687887 11680035
0.46692392 0.8758592 1.9317503 11548964
0.425174 0.76637679 1.6902815 11548964
0.42411795 0.73572177 1.6226703 11353127
0.36672404 0.61310142 1.3522252 11680552
0.38001648 0.61310142 1.3522252 12074022
0.45381802 0.70742476 1.5602599 12205351
0.42062211 0.63424289 1.3988537 12074533
0.4343729 0.63424289 1.3988537 12074533
0.49983031 0.70742476 1.5602599 12664617
0.53577441 0.73572177 1.6226703 12139559
0.57471389 0.76637679 1.6902815 12205606
0.61703938 0.79969752 1.763772 12270889
0.66321272 0.83604741 1.8439435 12074533
0.62456053 0.76637679 1.6902815 12139813
0.53062844 0.63424289 1.3988537 12139813
0.50925803 0.59332401 1.3086051 12468778
0.52212167 0.59332401 1.3086051 12205352
0.55281812 0.61310142 1.3522252 12337449
0.56611055 0.61310142 1.3522252 12075049
0.57940298 0.61310142 1.3522252 12141869
0.59269542 0.61310142 1.3522252 12076078
0.69921684 0.70742476 1.5602599 11681579
0.74313641 0.73572177 1.6226703 11811623
0.75908732 0.73572177 1.6226703 11877415
0.84243286 0.79969752 1.763772 11877416
0.94165373 0.8758592 1.9317503 11812134
0.96064293 0.8758592 1.9317503 11811879
1.0286138 0.91965222 2.028338 11812138
1.1650583 1.0218358 2.2537088 11877415
1.3356138 1.1495652 2.5354223 11746087
1.3605372 1.1495652 2.5354223 12008486
1.1083684 0.91965222 2.028338 11614755
1.1283071 0.91965222 2.028338 12008488
1.0935673 0.8758592 1.9317503 11680551
1.0158124 0.79969752 1.763772 11353127
1.0331504 0.79969752 1.763772 11418148
1.006718 0.76637679 1.6902815 11548966
1.0233335 0.76637679 1.6902815 11221539
1.0399491 0.76637679 1.6902815 11287077
1.0565646 0.76637679 1.6902815 11089955
1.0731802 0.76637679 1.6902815 11155494
1.1371782 0.79969752 1.763772 11220771
1.2069941 0.83604741 1.8439435 11090470
1.2251202 0.83604741 1.8439435 11352100
1.2432462 0.83604741 1.8439435 11287334
1.2613722 0.83604741 1.8439435 11286563
1.2238679 0.79969752 1.763772 11023906
1.189489 0.76637679 1.6902815 11089444
1.1578604 0.73572177 1.6226703 11024679
1.1738113 0.73572177 1.6226703 10893605
1.2393357 0.76637679 1.6902815 10892580
1.3105577 0.79969752 1.763772 10630435
1.3278956 0.79969752 1.763772 10761251
1.3452337 0.79969752 1.763772 10303269
1.3057978 0.76637679 1.6902815 10499107
1.2695168 0.73572177 1.6226703 10434343
1.3390288 0.76637679 1.6902815 10041380
1.6267734 0.91965222 2.028338 10172195
1.6467121 0.91965222 2.028338 10237734
1.5872862 0.8758592 1.9317503 10368293
1.405491 0.76637679 1.6902815 10499365
1.4221066 0.76637679 1.6902815 10630439
1.8173332 0.96805495 2.1350925 10171682
1.8383213 0.96805495 2.1350925 10499362
1.8593093 0.96805495 2.1350925 10367777
1.7862827 0.91965222 2.028338 10499363
2.0069125 1.0218358 2.2537088 10500394
2.8094769 1.4148495 3.1205199 10434088
3.3565426 1.6720948 3.687887 10564900
3.3927948 1.6720948 3.687887 10499364
1.7961674 0.8758592 1.9317503 10433572
1.7326494 0.83604741 1.8439435 10565158
1.7507756 0.83604741 1.8439435 10367777
1.6214931 0.76637679 1.6902815 10171942
1.5725844 0.73572177 1.6226703 10434085
1.5885353 0.73572177 1.6226703 10040356
1.6044862 0.73572177 1.6226703 9712934
1.6204371 0.73572177 1.6226703 9385767
1.6363881 0.73572177 1.6226703 9516582
1.7211864 0.76637679 1.6902815 9648168
1.7378019 0.76637679 1.6902815 9778728
1.7544174 0.76637679 1.6902815 9910056
1.7710329 0.76637679 1.6902815 9844520
1.7876486 0.76637679 1.6902815 9712934
1.8042641 0.76637679 1.6902815 9778471
1.9000483 0.79969752 1.763772 9712936
0 0 0 9844522
0 0 0 9976107
0 0 0 9844777
0 0 0 9712934
0 0 0 9712934
0 0 0 9713447
11.623131 4.5982609 10.141689 9582634
11.722824 4.5982609 10.141689 9320234
11.822517 4.5982609 10.141689 9189417
11.922211 4.5982609 10.141689 9320485
12.021904 4.5982609 10.141689 9516840
16.162128 6.1310143 13.522252 9647914
16.295053 6.1310143 13.522252 9517094
12.320984 4.5982609 10.141689 9517094
12.420677 4.5982609 10.141689 9582889
12.52037 4.5982609 10.141689 9714220
0 0 0 9451562
0 0 0 9517610
0 0 0 9779499
0 0 0 9517610
0 0 0 9648680
0 0 0 9845546
0 0 0 3940642
0 0 0 4135447
0 0 0 3612698
0 0 0 3481628
0 0 0 4727328
0 0 0 6630180
0 0 0 8534320
0 0 0 8926764
0 0 0 9517613
0 0 0 9451816
0 0 0 9451560
0 0 0 9516840
-1.1391727 0.48184147 1.0401733 9582630
-1.100724 0.46979544 1.014169 9778981
-1.0907546 0.46979544 1.014169 9975847
-0.96069801 0.41759592 0.90148348 9909797
-0.66925997 0.29362214 0.63385558 9712161
-0.66302913 0.29362214 0.63385558 9909797
-0.6567983 0.29362214 0.63385558 9778983
-0.65056747 0.29362214 0.63385558 9581604
-0.65456426 0.2982828 0.64391679 9581602
-0.65868992 0.30309382 0.65430254 9712677
-0.66295081 0.30806258 0.66502881 9713190
-0.65641356 0.30806258 0.66502881 9647397
-0.6498763 0.30806258 0.66502881 9713190
-0.64333904 0.30806258 0.66502881 9844003
-0.6474151 0.31319693 0.67611259 9975076
-0.64076889 0.31319693 0.67611259 10106149
-0.74602669 0.368467 0.79542661 10041380
0 0 0 9909794
0 0 0 9975587
0 0 0 10237474
0 0 0 10565669
-0.69333649 0.36138111 0.78012997 10696740
-0.68566781 0.36138111 0.78012997 10894118
-0.67799908 0.36138111 0.78012997 11024932
-0.68347406 0.368467 0.79542661 10893605
-0.74909574 0.40851775 0.88188601 11090728
-0.7568807 0.41759592 0.90148348 10959396
-0.76501954 0.42708674 0.92197174 11090728
-0.7919544 0.4474242 0.96587515 10959141
-0.82158285 0.46979544 1.014169 11024421
-0.79181802 0.45833701 0.98943311 10894120
-0.7287674 0.42708674 0.92197174 10433570
-0.71970439 0.42708674 0.92197174 10303267
-0.71064138 0.42708674 0.92197174 10565156
-0.75291336 0.45833701 0.98943311 10565669
-0.74318719 0.45833701 0.98943311 10696999
-0.69934654 0.43701899 0.94341296 10565158
-0.65940285 0.41759592 0.90148348 11089955
-0.65054125 0.41759592 0.90148348 11156264
-0.70428252 0.45833701 0.98943311 11287078
-0.69455636 0.45833701 0.98943311 11090214
-0.68483019 0.45833701 0.98943311 11221541
-0.67510396 0.45833701 0.98943311 11221285
-0.69949979 0.48184147 1.0401733 11418406
0 0 0 11484199
0 0 0 11550504
0 0 0 11287332
0 0 0 11418406
0 0 0 11484713
0 0 0 11353640
0 0 0 11616299
0 0 0 11681320
-5.922883 4.6979542 10.141689 11550505
-4.6585522 3.7583635 8.1133518 11681579
-3.2705696 2.6845453 5.7952509 11616297
-2.4994683 2.0879798 4.5074177 11877927
-2.4551601 2.0879798 4.5074177 11812136
-2.1697669 1.8791817 4.0566759 11747113
-2.1298895 1.8791817 4.0566759 11943724
-2.0900123 1.8791817 4.0566759 11615529
-2.2779276 2.0879798 4.5074177 11811879
-2.5128219 2.3489771 5.0708447 11746344
-2.1893115 2.0879798 4.5074177 11877414
-2.1450033 2.0879798 4.5074177 11614242
-2.1006951 2.0879798 4.5074177 11877929
-3.7014968 3.7583635 8.1133518 11812135
-3.0181184 3.1319695 6.761126 11878182
-2.5299909 2.6845453 5.7952509 12009767
-2.4730234 2.6845453 5.7952509 12074792
-2.114049 2.3489771 5.0708447 12140072
-2.0642023 2.3489771 5.0708447 12140072
-1.7905384 2.0879798 4.5074177 12008998
-1.7462304 2.0879798 4.5074177 12271399
-1.7019222 2.0879798 4.5074177 12074279
-1.6576141 2.0879798 4.5074177 11811107
-1.1169041 1.4455245 3.1205199 11680548
-0.88256127 1.1744885 2.5354223 11942180
-0.52777719 0.72276223 1.5602599 12009256
-0.4758369 0.67113632 1.4488127 11812134
-0.34931514 0.50788695 1.0963988 11942950
-0.32962862 0.4945215 1.0675462 12205352
-0.31095168 0.48184147 1.0401733 12140072
-0.29320854 0.46979544 1.014169 12074793
-0.28323922 0.46979544 1.014169 12665387
-0.27326989 0.46979544 1.014169 12599594
-0.27005187 0.48184147 1.0401733 12272683
-0.25333124 0.46979544 1.014169 12271912
-0.23177324 0.4474242 0.96587515 11878441
-0.21710938 0.43701899 0.94341296 12403497
-0.20783558 0.43701899 0.94341296 11878181
-0.19404903 0.42708674 0.92197174 12074533
-0.1808752 0.41759592 0.90148348 12270374
-0.17592297 0.42708674 0.92197174 12074537
-0.16685995 0.42708674 0.92197174 12074279
-0.16146663 0.43701899 0.94341296 12007973
-0.15219283 0.43701899 0.94341296 12205091
-0.13967088 0.42708674 0.92197174 11877156
-0.13060786 0.42708674 0.92197174 11942951
-0.12733269 0.4474242 0.96587515 11877927
-0.11783808 0.4474242 0.96587515 12008743
-0.10582387 0.43701899 0.94341296 11746342
-0.096550085 0.43701899 0.94341296 11549478
-0.083397344 0.41759592 0.90148348 11286563
-0.07453572 0.41759592 0.90148348 11549992
-0.062879458 0.39982587 0.86312246 11680294
-0.054394923 0.39982587 0.86312246 11221282
-0.044953924 0.39149618 0.84514076 11745314
-0.036646154 0.39149618 0.84514076 12008488
-0.028338382 0.39149618 0.84514076 12008227
0 0 0 12008740
0 0 0 12007973
0 0 0 12204836
0.004120172 0.32968101 0.71169752 11876900
0.013200476 0.39149618 0.84514076 11942693
0.018112209 0.32968101 0.71169752 11549736
0.02920753 0.38350648 0.82789302 12074020
0.03812379 0.39149618 0.84514076 11746086
0 0 0 12008228
0 0 0 11745828
0 0 0 11811365
0 0 0 11614500
0 0 0 11811622
0 0 0 11548707
0 0 0 11877414
0 0 0 11680039
0 0 0 11811366
0 0 0 11810852
0 0 0 11877157
0 0 0 12074023
0 0 0 12074279
0.67388767 1.708347 3.687887 11810852
0.3905769 0.93959087 2.028338 12007975
0.4321216 0.989043 2.1350925 12073765
0.78264397 1.708347 3.687887 11811362
0.81889606 1.708347 3.687887 12140074
0.78388578 1.5659847 3.380563 11877929
0.75426179 1.4455245 3.1205199 12008741
0.44365981 0.8170355 1.763772 11353384
0.44178954 0.78299236 1.6902815 11483686
0.45840508 0.78299236 1.6902815 11747114
0.47502062 0.78299236 1.6902815 11942693
0.56186992 0.89484841 1.9317503 11877929
0.48792166 0.75167269 1.6226703 11681322
0.50387257 0.75167269 1.6226703 11943207
0.51982349 0.75167269 1.6226703 12009002
0.63782668 0.89484841 1.9317503 12270886
0.65681589 0.89484841 1.9317503 12205607
0.67580503 0.89484841 1.9317503 12205352
0.69479424 0.89484841 1.9317503 11811623
0.68133873 0.85417348 1.8439435 12336167
0.64117604 0.78299236 1.6902815 12401961
0.54437923 0.64799368 1.3988537 12009001
0.52212167 0.60618764 1.3086051 12205352
0.55281812 0.62639385 1.3522252 12337193
0.56611055 0.62639385 1.3522252 12336938
0.5993824 0.64799368 1.3988537 12271658
0.61313319 0.64799368 1.3988537 12140843
0.69921684 0.72276223 1.5602599 11943208
0.74313641 0.75167269 1.6226703 11484713
0.75908732 0.75167269 1.6226703 11877930
0.8073315 0.78299236 1.6902815 11812134
0.85977083 0.8170355 1.763772 11681322
1.1207502 1.0439899 2.2537088 11746344
1.1429043 1.0439899 2.2537088 11681065
1.1650583 1.0439899 2.2537088 12008488
1.3356138 1.1744885 2.5354223 11746600
1.3605372 1.1744885 2.5354223 11418150
1.3039628 1.105401 2.3862798 11614757
1.1283071 0.93959087 2.028338 11942695
1.0935673 0.89484841 1.9317503 11811623
1.0158124 0.8170355 1.763772 11614244
0.99010247 0.78299236 1.6902815 11418918
0.96644932 0.75167269 1.6226703 11746344
0.98240024 0.75167269 1.6226703 11352616
1.0399491 0.78299236 1.6902815 11090216
1.0565646 0.78299236 1.6902815 11287081
1.0731802 0.78299236 1.6902815 11352358
1.188868 0.85417348 1.8439435 11089445
1.2069941 0.85417348 1.8439435 10892837
1.2251202 0.85417348 1.8439435 11417893
1.1396424 0.78299236 1.6902815 10893350
1.1562579 0.78299236 1.6902815 11155751
1.2238679 0.8170355 1.763772 11220772
1.189489 0.78299236 1.6902815 11155494
1.1578604 0.75167269 1.6226703 10761764
1.1738113 0.75167269 1.6226703 10695713
1.2393357 0.78299236 1.6902815 11023910
1.3105577 0.8170355 1.763772 11024165
1.3278956 0.8170355 1.763772 10696228
1.3452337 0.8170355 1.763772 10762021
1.3625716 0.8170355 1.763772 10957347
1.2695168 0.75167269 1.6226703 10696743
1.2854677 0.75167269 1.6226703 10303782
1.3014187 0.75167269 1.6226703 10303523
1.6467121 0.93959087 2.028338 10565670
1.6666507 0.93959087 2.028338 10040868
1.7753571 0.989043 2.1350925 9778470
1.6252646 0.89484841 1.9317503 9975079
1.8173332 0.989043 2.1350925 9975081
1.8383213 0.989043 2.1350925 10040869
1.8593093 0.989043 2.1350925 10237479
1.7862827 0.93959087 2.028338 10630691
1.9012855 0.989043 2.1350925 10368292
2.0290666 1.0439899 2.2537088 10499365
3.3565426 1.708347 3.687887 10499878
3.3927948 1.708347 3.687887 10499365
1.7961674 0.89484841 1.9317503 10367779
1.6573169 0.8170355 1.763772 10302499
1.7507756 0.85417348 1.8439435 10303017
1.7689016 0.85417348 1.8439435 10237222
1.6381086 0.78299236 1.6902815 10236706
1.5885353 0.75167269 1.6226703 10237222
1.5427752 0.72276223 1.5602599 9975333
1.5581126 0.72276223 1.5602599 9975077
1.6363881 0.75167269 1.6226703 9582117
1.652339 0.75167269 1.6226703 9516581
1.6682899 0.75167269 1.6226703 9712936
1.6842408 0.75167269 1.6226703 10040616
1.7710329 0.78299236 1.6902815 10041128
1.7876486 0.78299236 1.6902815 10237481
1.8042641 0.78299236 1.6902815 10171946
2.1850557 0.93959087 2.028338 10107435
0 0 0 9778983
0 0 0 9648426
0 0 0 9975849
0 0 0 9516327
0 0 0 9778984
11.523438 4.6979542 10.141689 9648426
11.623131 4.6979542 10.141689 9648680
11.722824 4.6979542 10.141689 9779753
9.4580145 3.7583635 8.1133518 9516583
9.5377693 3.7583635 8.1133518 9319461
8.0146027 3.1319695 6.761126 9451047
9.697278 3.7583635 8.1133518 9713960
12.221291 4.6979542 10.141689 9779240
12.320984 4.6979542 10.141689 9450535
9.9365416 3.7583635 8.1133518 9516327
12.52037 4.6979542 10.141689 9582633
0 0 0 9647913
0 0 0 9779243
0 0 0 9254184
0 0 0 9189162
0 0 0 9320747
0 0 0 9648425
0 0 0 6303269
0 0 0 6764077
0 0 0 7551021
0 0 0 8468007
0 0 0 9386024
0 0 0 9386024
0 0 0 9452075
0 0 0 9517351
0 0 0 9780264
0 0 0 9582374
0 0 0 9648167
-1.1493976 0.49206641 1.0401733 9451044
-1.1391727 0.49206641 1.0401733 9516067
-1.1289477 0.49206641 1.0401733 9713190
-1.0907546 0.47976476 1.014169 9712933
-0.83137333 0.36904982 0.78012997 9516067
-0.79319704 0.35538131 0.75123626 9647396
-0.80063897 0.36208659 0.76541048 9712933
-0.67798537 0.30952564 0.65430254 9647396
-0.67155355 0.30952564 0.65430254 9647395
-0.65456426 0.30461255 0.64391679 9646626
-0.66948807 0.31459984 0.66502881 9844002
-0.66295081 0.31459984 0.66502881 9581858
-0.71502191 0.3426891 0.72440636 9844262
-0.70790094 0.3426891 0.72440636 9909541
-0.67661518 0.33087224 0.69942683 9778468
-0.66973978 0.33087224 0.69942683 10040356
-0.67449361 0.33667701 0.71169752 10237476
0 0 0 10302756
0 0 0 10171683
0 0 0 10107173
0 0 0 10434596
0 0 0 10762534
-0.69333649 0.36904982 0.78012997 10893605
-0.68566781 0.36904982 0.78012997 10828583
-0.67799908 0.36904982 0.78012997 10828583
-0.67033035 0.36904982 0.78012997 10828071
-0.66266167 0.36904982 0.78012997 11418150
-0.74042678 0.41718674 0.88188601 11089956
-0.7480191 0.42645755 0.90148348 10959402
-0.73915744 0.42645755 0.90148348 11024422
-0.7824598 0.45691881 0.96587515 10893607
-0.79181802 0.46806318 0.98943311 10762535
-0.78209186 0.46806318 0.98943311 10433826
-0.77236569 0.46806318 0.98943311 10565413
-0.71064138 0.43614978 0.92197174 10303269
-0.75291336 0.46806318 0.98943311 10499877
-0.74318719 0.46806318 0.98943311 10762535
-0.73346102 0.46806318 0.98943311 11155748
-0.63134313 0.40831041 0.86312246 11287847
-0.71400869 0.46806318 0.98943311 11287077
-0.70428252 0.46806318 0.98943311 11483173
-0.69455636 0.46806318 0.98943311 11090213
-0.68483019 0.46806318 0.98943311 11353640
-0.67510396 0.46806318 0.98943311 11221541
0 0 0 11287332
0 0 0 11221796
0 0 0 11156004
0 0 0 11418406
0 0 0 11353127
0 0 0 11483686
0 0 0 11615783
0 0 0 11615527
-6.0225763 4.7976475 10.141689 11287847
-4.738307 3.8381181 8.1133518 11354410
-4.6585522 3.8381181 8.1133518 11418918
-3.2705696 2.7415128 5.7952509 11550502
-2.4994683 2.132288 4.5074177 11942693
-2.0087674 1.7445991 3.687887 11680807
-1.9725152 1.7445991 3.687887 11549735
-1.9362631 1.7445991 3.687887 11812136
-1.9000111 1.7445991 3.687887 11812136
-2.0501349 1.919059 4.0566759 11812136
-2.2336197 2.132288 4.5074177 11353127
-2.1893115 2.132288 4.5074177 11418662
-2.1450033 2.132288 4.5074177 11615526
-2.1006951 2.132288 4.5074177 11877414
-3.0845804 3.1984315 6.761126 11615270
-3.0181184 3.1984315 6.761126 11615781
-2.9516561 3.1984315 6.761126 11943207
-2.4730234 2.7415128 5.7952509 12271402
-2.4160559 2.7415128 5.7952509 12336678
-2.3590882 2.7415128 5.7952509 12140072
-2.3021207 2.7415128 5.7952509 12205865
-1.7462304 2.132288 4.5074177 12008741
-1.7019222 2.132288 4.5074177 11877415
-1.6576141 2.132288 4.5074177 11942951
-1.1169041 1.4761993 3.1205199 11812136
-0.88256127 1.1994119 2.5354223 11812391
-0.76234484 1.066144 2.2537088 12139559
-0.4758369 0.68537819 1.4488127 11614757
-0.34931514 0.5186646 1.0963988 11877157
-0.33853751 0.5186646 1.0963988 11943465
-0.31913459 0.50501555 1.0675462 12008487
-0.29320854 0.47976476 1.014169 11614757
-0.28323922 0.47976476 1.014169 12009000
-0.27326989 0.47976476 1.014169 12140326
-0.25687858 0.46806318 0.98943311 11944232
-0.24715243 0.46806318 0.98943311 12008743
-0.23177324 0.45691881 0.96587515 11877929
-0.21217507 0.43614978 0.92197174 12205863
-0.20311205 0.43614978 0.92197174 11943720
-0.18973683 0.42645755 0.90148348 11943721
-0.17694312 0.41718674 0.88188601 12074279
-0.16827415 0.41718674 0.88188601 11681063
-0.16315195 0.42645755 0.90148348 11483429
-0.15429033 0.42645755 0.90148348 11810596
-0.1454287 0.42645755 0.90148348 11811107
-0.13359824 0.41718674 0.88188601 12073768
-0.13060786 0.43614978 0.92197174 11811621
-0.11884384 0.42645755 0.90148348 11942695
-0.11509767 0.44629279 0.94341296 11680037
-0.10112059 0.42645755 0.90148348 11614245
-0.092258967 0.42645755 0.90148348 11549221
-0.07984852 0.40831041 0.86312246 11352613
-0.071363986 0.40831041 0.86312246 11352613
-0.062879458 0.40831041 0.86312246 11549479
-0.054394923 0.40831041 0.86312246 11483170
-0.044953924 0.39980394 0.84514076 11746086
-0.035180308 0.3838118 0.81133515 11482914
-0.028338382 0.39980394 0.84514076 11811364
-0.020456793 0.40831041 0.86312246 11811366
-0.011722839 0.39980394 0.84514076 11745830
-0.0028758463 0.33667701 0.71169752 11745568
0.004120172 0.33667701 0.71169752 11680550
0.012931079 0.39164469 0.82789302 12139559
0.01843564 0.3426891 0.72440636 12270632
0.02920753 0.39164469 0.82789302 12139811
0.03812379 0.39980394 0.84514076 11942693
0 0 0 11745827
0 0 0 11811622
0 0 0 12007973
0 0 0 11812136
0 0 0 11680035
0 0 0 11483684
0 0 0 11549221
0 0 0 11680552
0 0 0 11483941
0 0 0 11745314
0 0 0 11745568
0 0 0 11877416
0 0 0 11942693
0 0 0 11680294
0 0 0 11811368
0.91225678 2.132288 4.5074177 12205354
0.9565649 2.132288 4.5074177 11942436
0.81889606 1.7445991 3.687887 12008484
0.78388578 1.5992157 3.380563 11745830
0.89140022 1.7445991 3.687887 11811621
0.78493661 1.4761993 3.1205199 11877415
0.5049023 0.91383761 1.9317503 11680550
0.45840508 0.79960787 1.6902815 12205095
0.51820433 0.87229955 1.8439435 11811623
0.56186992 0.91383761 1.9317503 11812906
0.60990208 0.95952952 2.028338 11681319
0.62984073 0.95952952 2.028338 11746342
0.61883748 0.91383761 1.9317503 11681321
0.66971803 0.95952952 2.028338 12139561
0.68965667 0.95952952 2.028338 12074020
0.83481801 1.1288582 2.3862798 11811621
0.85827523 1.1288582 2.3862798 11548963
0.71378344 0.91383761 1.9317503 12008743
0.64117604 0.79960787 1.6902815 11942694
0.54437923 0.66174448 1.3988537 12073768
0.50580537 0.59970593 1.2677112 12073254
0.66338181 0.7676236 1.6226703 12074279
0.5307287 0.59970593 1.2677112 12337451
0.54319036 0.59970593 1.2677112 11811109
0.57357627 0.61905128 1.3086051 12008745
0.62688398 0.66174448 1.3988537 11877929
0.71455425 0.73809963 1.5602599 11746343
0.82509488 0.83437347 1.763772 12009258
0.84243286 0.83437347 1.763772 11943466
1.0985961 1.066144 2.2537088 11550251
1.1207502 1.066144 2.2537088 11419433
1.1429043 1.066144 2.2537088 11483943
1.2335911 1.1288582 2.3862798 11615787
1.3356138 1.1994119 2.5354223 11549738
1.3605372 1.1994119 2.5354223 11680296
1.3039628 1.1288582 2.3862798 11877416
1.1283071 0.95952952 2.028338 11614244
1.1482457 0.95952952 2.028338 11287332
1.1125565 0.91383761 1.9317503 11286308
1.0331504 0.83437347 1.763772 11090211
1.006718 0.79960787 1.6902815 11614757
1.0233335 0.79960787 1.6902815 11418405
1.0399491 0.79960787 1.6902815 11483943
1.2075025 0.91383761 1.9317503 11221030
1.430907 1.066144 2.2537088 11155748
1.4530611 1.066144 2.2537088 11417380
1.2069941 0.87229955 1.8439435 11024934
1.2251202 0.87229955 1.8439435 11023907
1.1396424 0.79960787 1.6902815 11024931
1.1562579 0.79960787 1.6902815 10828066
1.4074482 0.95952952 2.028338 10499876
1.4273869 0.95952952 2.028338 10369062
1.2061045 0.79960787 1.6902815 10433827
1.22272 0.79960787 1.6902815 10565155
1.2932198 0.83437347 1.763772 10433568
1.3105577 0.83437347 1.763772 11089957
1.3278956 0.83437347 1.763772 10827299
1.7189097 1.066144 2.2537088 10696226
1.7410638 1.066144 2.2537088 10893607
1.6704168 1.0100311 2.1350925 10696230
1.6914049 1.0100311 2.1350925 10761764
1.9138509 1.1288582 2.3862798 10827042
1.9373082 1.1288582 2.3862798 10630947
1.9607655 1.1288582 2.3862798 10368291
2.1082366 1.1994119 2.5354223 10237221
1.7963452 1.0100311 2.1350925 10368038
1.8173332 1.0100311 2.1350925 9909540
1.8383213 1.0100311 2.1350925 9909797
1.9626044 1.066144 2.2537088 10105893
2.1015089 1.1288582 2.3862798 9908771
4.0138249 2.132288 4.5074177 10367779
2.8094769 1.4761993 3.1205199 10236966
3.6921971 1.919059 4.0566759 10302245
3.7320745 1.919059 4.0566759 10302245
3.7719517 1.919059 4.0566759 10368292
1.7326494 0.87229955 1.8439435 10237223
1.7507756 0.87229955 1.8439435 10237223
1.853135 0.91383761 1.9317503 10236196
1.8721242 0.91383761 1.9317503 10433829
1.6547242 0.79960787 1.6902815 10040354
1.6044862 0.7676236 1.6226703 10302245
1.6204371 0.7676236 1.6226703 10171431
1.6363881 0.7676236 1.6226703 9975335
1.652339 0.7676236 1.6226703 9909542
1.6682899 0.7676236 1.6226703 9712936
1.7544174 0.79960787 1.6902815 9581352
1.7710329 0.79960787 1.6902815 9646632
1.7161427 0.7676236 1.6226703 10041386
1.8042641 0.79960787 1.6902815 10171429
2.3000586 1.0100311 2.1350925 9712936
0 0 0 9452071
0 0 0 9779240
0 0 0 9713962
0 0 0 9713960
11.423744 4.7976475 10.141689 9910567
11.523438 4.7976475 10.141689 9779238
9.2985048 3.8381181 8.1133518 9779240
9.3782597 3.8381181 8.1133518 9778983
9.4580145 3.8381181 8.1133518 9778985
9.5377693 3.8381181 8.1133518 9319718
9.6175232 3.8381181 8.1133518 9451561
9.697278 3.8381181 8.1133518 9451047
9.7770329 3.8381181 8.1133518 9516840
9.8567877 3.8381181 8.1133518 9844522
9.9365416 3.8381181 8.1133518 9451049
10.016296 3.8381181 8.1133518 9254952
0 0 0 9384743
0 0 0 9713193
0 0 0 9581865
0 0 0 9385257
0 0 0 9582122
0 0 0 9386026
0 0 0 9057831
0 0 0 9320233
0 0 0 9451048
0 0 0 9582890
0 0 0 9583146
0 0 0 9582116
0 0 0 9778983
0 0 0 9713958
0 0 0 9714471
0 0 0 9320485
-1.130632 0.48973408 1.014169 9188642
-1.1206627 0.48973408 1.014169 9254692
-1.1106933 0.48973408 1.014169 9451047
-0.95715123 0.4258557 0.88188601 9384995
-0.90896219 0.40811172 0.84514076 9516583
-0.83137333 0.37671852 0.78012997 9318432
-0.80816299 0.36961061 0.76541048 9580575
-0.88403887 0.40811172 0.84514076 9581086
-0.79311496 0.36961061 0.76541048 9712677
-0.73046178 0.34367305 0.71169752 9843749
-0.71099216 0.33774763 0.69942683 9909542
-0.71646976 0.34367305 0.71169752 9909540
-0.73527271 0.35617024 0.73757738 9910056
-0.75549483 0.36961061 0.76541048 9975333
-0.74797082 0.36961061 0.76541048 10237476
-0.70078003 0.34981003 0.72440636 10303014
-0.68148965 0.34367305 0.71169752 10106916
-0.67449361 0.34367305 0.71169752 10106403
-0.7764768 0.39978293 0.82789302 10237989
0 0 0 10303527
0 0 0 10631464
0 0 0 10894121
-0.86791116 0.46641338 0.96587515 10894121
-0.75111449 0.40811172 0.84514076 10762280
-0.69911224 0.38410515 0.79542661 10762533
-0.67799908 0.37671852 0.78012997 10697255
-0.67033035 0.37671852 0.78012997 10828071
-0.66266167 0.37671852 0.78012997 11155750
-0.69509453 0.39978293 0.82789302 10893349
-0.68695635 0.39978293 0.82789302 10565154
-0.67881811 0.39978293 0.82789302 10762019
-0.68465233 0.40811172 0.84514076 10827299
-0.72143424 0.43531916 0.90148348 10565156
-0.71257257 0.43531916 0.90148348 11024421
-0.71970439 0.44521278 0.92197174 10565154
-0.7271679 0.45556659 0.94341296 11156264
-0.75291336 0.47778934 0.98943311 10827813
-0.74318719 0.47778934 0.98943311 11024421
-0.62649792 0.40811172 0.84514076 10893605
-0.61819017 0.40811172 0.84514076 11287335
-0.62285858 0.41679496 0.86312246 10762534
-0.62773001 0.4258557 0.88188601 10696742
-0.69455636 0.47778934 0.98943311 11090727
-0.68483019 0.47778934 0.98943311 11156261
-0.67510396 0.47778934 0.98943311 11156006
0 0 0 11156002
0 0 0 11156261
0 0 0 11156005
0 0 0 11025188
0 0 0 11483941
0 0 0 11353127
0 0 0 11483941
0 0 0 10960167
-4.8180614 3.9178727 8.1133518 11288872
-3.9485886 3.2648938 6.761126 11287589
-4.6585522 3.9178727 8.1133518 11418920
-2.8617485 2.4486704 5.0708447 11418404
-2.4994683 2.1765959 4.5074177 12009000
-2.0087674 1.7808511 3.687887 11812392
-1.9725152 1.7808511 3.687887 11484709
-1.7749078 1.6324469 3.380563 11745830
-1.7416768 1.6324469 3.380563 11877929
-1.7084457 1.6324469 3.380563 11943465
-2.0102577 1.9589363 4.0566759 11616040
-2.1893115 2.1765959 4.5074177 11812388
-2.1450033 2.1765959 4.5074177 11811877
-2.1006951 2.1765959 4.5074177 11746342
-2.0563872 2.1765959 4.5074177 11812136
-2.012079 2.1765959 4.5074177 11746343
-2.9516561 3.2648938 6.761126 11877416
-2.8851941 3.2648938 6.761126 11943461
-2.4160559 2.7984803 5.7952509 11943206
-2.3590882 2.7984803 5.7952509 12009257
-2.3021207 2.7984803 5.7952509 11877927
-1.964509 2.4486704 5.0708447 11812134
-1.7019222 2.1765959 4.5074177 11681063
-1.6576141 2.1765959 4.5074177 11877929
-1.1169041 1.5068741 3.1205199 11746598
-0.88256127 1.2243352 2.5354223 11680549
-0.76234484 1.088298 2.2537088 11746085
-0.70123339 1.0310191 2.1350925 11746341
-0.34931514 0.52944225 1.0963988 11680550
-0.33853751 0.52944225 1.0963988 11942952
-0.31913459 0.51550955 1.0675462 12073511
-0.30072671 0.50229138 1.0401733 11680294
-0.29050177 0.50229138 1.0401733 12009253
-0.26660478 0.47778934 0.98943311 11811877
-0.25687858 0.47778934 0.98943311 12074533
-0.24715243 0.47778934 0.98943311 12140325
-0.22123809 0.44521278 0.92197174 11812391
-0.21217507 0.44521278 0.92197174 11943207
-0.19859844 0.43531916 0.90148348 11681320
-0.18561211 0.4258557 0.88188601 11943464
-0.17694312 0.4258557 0.88188601 11614757
-0.16827415 0.4258557 0.88188601 11877416
-0.15960518 0.4258557 0.88188601 11680806
-0.14464718 0.40811172 0.84514076 11549736
-0.13633941 0.40811172 0.84514076 11418918
-0.12803164 0.40811172 0.84514076 11681318
-0.12492926 0.4258557 0.88188601 11811109
-0.099036537 0.362766 0.75123626 11745316
-0.10998221 0.43531916 0.90148348 11680037
-0.094800554 0.40811172 0.84514076 11614759
-0.088333055 0.41679496 0.86312246 11548964
-0.07984852 0.41679496 0.86312246 11811622
-0.071363986 0.41679496 0.86312246 11548449
-0.062879458 0.41679496 0.86312246 11614756
-0.054394923 0.41679496 0.86312246 11483172
-0.037855938 0.34367305 0.71169752 11482916
-0.033188969 0.36961061 0.76541048 11482915
-0.027760049 0.39978293 0.82789302 11746085
-0.02003061 0.40811172 0.84514076 11548708
-0.011483598 0.39978293 0.82789302 11548964
-0.0033453722 0.39978293 0.82789302 11614242
0.0041937465 0.34981003 0.72440636 11745830
0.012931079 0.39978293 0.82789302 11876898
0.01843564 0.34981003 0.72440636 11876388
0.02920753 0.39978293 0.82789302 11942436
0.037345756 0.39978293 0.82789302 11679778
0 0 0 11483426
0 0 0 11680550
0 0 0 12008229
0 0 0 11614499
0 0 0 11417893
0 0 0 11746343
0 0 0 11548964
0 0 0 11418150
0 0 0 11614759
0 0 0 11548962
0 0 0 11812134
0 0 0 11614759
0 0 0 11812134
0 0 0 11746086
0 0 0 11811623
0.91225678 2.1765959 4.5074177 11745318
0.9565649 2.1765959 4.5074177 11614501
0.90078574 1.9589363 4.0566759 11614755
0.94066304 1.9589363 4.0566759 11877418
0.98054034 1.9589363 4.0566759 11746343
0.78493661 1.5068741 3.1205199 11812136
0.62370288 1.1523155 2.3862798 11942950
0.52389151 0.93282676 1.9317503 11811623
0.51820433 0.89042556 1.8439435 11876904
0.56186992 0.93282676 1.9317503 11614501
0.60990208 0.97946817 2.028338 11746856
0.59984827 0.93282676 1.9317503 11812392
0.54148281 0.81622344 1.6902815 12008486
0.63782668 0.93282676 1.9317503 11680550
0.65681589 0.93282676 1.9317503 11812136
0.70959538 0.97946817 2.028338 11811879
0.97271192 1.3059574 2.7044504 11745829
0.88173252 1.1523155 2.3862798 11483171
0.64117604 0.81622344 1.6902815 11680548
0.47839388 0.59361702 1.2292956 11943209
0 0 0 11877159
0.66338181 0.78357452 1.6226703 11942951
0.5307287 0.6121676 1.2677112 11614757
0.54319036 0.6121676 1.2677112 11942952
0.55565202 0.6121676 1.2677112 12007973
0.58643991 0.63191491 1.3086051 11811107
0.68808925 0.725532 1.5024725 11615271
0.72989166 0.75343704 1.5602599 12009257
0 0 0 12074281
1.0985961 1.088298 2.2537088 11812137
1.1207502 1.088298 2.2537088 11877929
1.1429043 1.088298 2.2537088 11484455
1.2335911 1.1523155 2.3862798 11746859
1.3356138 1.2243352 2.5354223 11352357
1.3605372 1.2243352 2.5354223 11549735
1.3039628 1.1523155 2.3862798 11680552
1.32742 1.1523155 2.3862798 11483944
1.2758286 1.088298 2.2537088 11615018
1.1681844 0.97946817 2.028338 11286562
1.1315457 0.93282676 1.9317503 11156261
1.006718 0.81622344 1.6902815 11156003
1.0233335 0.81622344 1.6902815 11221797
1.0399491 0.81622344 1.6902815 11154723
1.2075025 0.93282676 1.9317503 11287847
1.5150779 1.1523155 2.3862798 11089956
1.5385351 1.1523155 2.3862798 11024934
1.5619924 1.1523155 2.3862798 11090214
1.4973692 1.088298 2.2537088 11155748
1.5195233 1.088298 2.2537088 11155494
1.6323642 1.1523155 2.3862798 10893093
1.6558213 1.1523155 2.3862798 10499621
1.4273869 0.97946817 2.028338 10171940
1.3157504 0.89042556 1.8439435 9385254
1.3338765 0.89042556 1.8439435 9778472
1.3520025 0.89042556 1.8439435 10237476
1.5071415 0.97946817 2.028338 10499876
1.7965648 1.1523155 2.3862798 10565669
1.820022 1.1523155 2.3862798 10893607
1.8434793 1.1523155 2.3862798 10761508
1.7632179 1.088298 2.2537088 10499363
1.6914049 1.0310191 2.1350925 10631209
1.4145855 0.85171139 1.763772 10565412
1.37226 0.81622344 1.6902815 10827812
1.3888755 0.81622344 1.6902815 10630435
2.1082366 1.2243352 2.5354223 10893355
2.1331599 1.2243352 2.5354223 10565158
2.0311372 1.1523155 2.3862798 10171942
1.9404503 1.088298 2.2537088 10105636
1.9626044 1.088298 2.2537088 10237735
3.969517 2.1765959 4.5074177 10303012
4.0138249 2.1765959 4.5074177 9909027
4.0581331 2.1765959 4.5074177 9975080
3.6921971 1.9589363 4.0566759 9909288
3.7320745 1.9589363 4.0566759 9711909
3.7719517 1.9589363 4.0566759 9844263
2.1176829 1.088298 2.2537088 10041126
1.8341458 0.93282676 1.9317503 9974563
1.853135 0.93282676 1.9317503 10105893
1.8721242 0.93282676 1.9317503 10302757
1.7266687 0.85171139 1.763772 10106148
1.6044862 0.78357452 1.6226703 9844004
1.6204371 0.78357452 1.6226703 10237222
1.6363881 0.78357452 1.6226703 9974563
1.7211864 0.81622344 1.6902815 9843749
1.7378019 0.81622344 1.6902815 9975333
1.7544174 0.81622344 1.6902815 9844264
1.7710329 0.81622344 1.6902815 9909288
1.7161427 0.78357452 1.6226703 9778468
1.7320936 0.78357452 1.6226703 9712936
2.3000586 1.0310191 2.1350925 9580835
2.7562428 1.2243352 2.5354223 9188129
0 0 0 9778468
0 0 0 9582374
0 0 0 9712934
11.423744 4.8973408 10.141689 9516837
9.21875 3.9178727 8.1133518 9516070
9.2985048 3.9178727 8.1133518 9778726
9.3782597 3.9178727 8.1133518 9844520
9.4580145 3.9178727 8.1133518 9844265
9.5377693 3.9178727 8.1133518 9844523
9.6175232 3.9178727 8.1133518 9583405
9.697278 3.9178727 8.1133518 9387053
9.7770329 3.9178727 8.1133518 9319721
9.8567877 3.9178727 8.1133518 9451047
9.9365416 3.9178727 8.1133518 9647913
10.016296 3.9178727 8.1133518 9647913
10.096051 3.9178727 8.1133518 9450790
0 0 0 9384741
0 0 0 9648426
0 0 0 9648167
0 0 0 9582889
0 0 0 9517610
0 0 0 9582633
0 0 0 9320233
0 0 0 9516842
0 0 0 9451561
-7.9363189 3.3313558 6.761126 9910824
-1.1516864 0.48751551 0.98943311 9779495
0 0 0 9583143
0 0 0 9451814
-1.1225079 0.48751551 0.98943311 9582373
-1.0138677 0.44418079 0.90148348 9450016
-1.0050062 0.44418079 0.90148348 9255208
-0.97448921 0.43452469 0.88188601 9385254
-0.96582019 0.43452469 0.88188601 9646886
-0.91726995 0.41641948 0.84514076 9778470
-0.89041197 0.40792114 0.82789302 9581604
-0.86462826 0.39976272 0.81133515 9581604
-0.87413549 0.40792114 0.82789302 9581857
-0.86599725 0.40792114 0.82789302 9778468
-0.79311496 0.37713462 0.76541048 9581091
-0.73046178 0.35066906 0.71169752 9581091
-0.72346574 0.35066906 0.71169752 9844008
-0.71646976 0.35066906 0.71169752 9975333
-0.73527271 0.36342064 0.73757738 10106149
-0.75549483 0.37713462 0.76541048 10106919
-0.74797082 0.37713462 0.76541048 10106149
-0.75468624 0.38438725 0.78012997 10040610
-0.73292279 0.37713462 0.76541048 10171940
-0.6865381 0.356931 0.72440636 10171943
-0.71787477 0.37713462 0.76541048 10172199
-0.76833856 0.40792114 0.82789302 10565671
-0.79254925 0.42527947 0.86312246 10630949
-0.81891209 0.44418079 0.90148348 10763050
-0.77558017 0.42527947 0.86312246 10893863
-0.73578566 0.40792114 0.82789302 11090468
-0.71309447 0.39976272 0.81133515 10827812
-0.70511901 0.39976272 0.81133515 10828325
-0.68347406 0.39192423 0.79542661 10762277
-0.67565501 0.39192423 0.79542661 10369062
-0.68119264 0.39976272 0.81133515 10696228
-0.68695635 0.40792114 0.82789302 10631462
-0.67881811 0.40792114 0.82789302 10499621
-0.67067987 0.40792114 0.82789302 10499875
-0.66254163 0.40792114 0.82789302 10762535
-0.66803682 0.41641948 0.84514076 10827812
-0.77236569 0.48751551 0.98943311 10631203
-0.76263952 0.48751551 0.98943311 10631205
-0.71789414 0.46484038 0.94341296 10631464
-0.63480568 0.41641948 0.84514076 10697256
-0.61371231 0.40792114 0.82789302 10959398
-0.60557407 0.40792114 0.82789302 11090214
-0.59743583 0.40792114 0.82789302 11090468
-0.6015746 0.41641948 0.84514076 10959911
-0.61906105 0.43452469 0.88188601 11417894
-0.61039209 0.43452469 0.88188601 11287334
0 0 0 11090467
0 0 0 11156004
0 0 0 11222053
0 0 0 11091240
0 0 0 11222054
0 0 0 11352869
0 0 0 11352357
0 0 0 11090984
0 0 0 10959912
-3.0112882 2.498517 5.0708447 11288617
-2.6323926 2.2209041 4.5074177 11353383
-2.9115949 2.498517 5.0708447 11419431
-2.5437765 2.2209041 4.5074177 11549734
-2.0450194 1.8171033 3.687887 11681320
-1.84137 1.6656779 3.380563 11483941
-1.808139 1.6656779 3.380563 11615270
-1.7749078 1.6656779 3.380563 11680550
-1.7416768 1.6656779 3.380563 11483686
-1.7084457 1.6656779 3.380563 11812136
-1.6752145 1.6656779 3.380563 11549476
-1.7912548 1.8171033 3.687887 11484199
-1.930503 1.9988137 4.0566759 11747113
-2.1006951 2.2209041 4.5074177 11418920
-2.0563872 2.2209041 4.5074177 11746343
-2.012079 2.2209041 4.5074177 11614758
-1.9677709 2.2209041 4.5074177 11680550
-2.4730234 2.855448 5.7952509 11746343
-2.4160559 2.855448 5.7952509 11616040
-2.3590882 2.855448 5.7952509 12008744
-2.0143557 2.498517 5.0708447 12009256
-1.964509 2.498517 5.0708447 11812135
-1.7019222 2.2209041 4.5074177 11811619
-1.6576141 2.2209041 4.5074177 11745828
-1.6133059 2.2209041 4.5074177 12008486
-0.88256127 1.2492585 2.5354223 12140074
-0.72222143 1.0520072 2.1350925 11943207
-0.70123339 1.0520072 2.1350925 11877927
-0.39165637 0.60570109 1.2292956 12140072
-0.33853751 0.5402199 1.0963988 11943207
-0.31913459 0.5260036 1.0675462 11615270
-0.30864057 0.5260036 1.0675462 11549733
-0.30620456 0.5402199 1.0963988 11681318
-0.26660478 0.48751551 0.98943311 11614755
-0.25687858 0.48751551 0.98943311 11942951
-0.23030111 0.45427582 0.92197174 11418664
-0.22123809 0.45427582 0.92197174 11550246
-0.20295006 0.43452469 0.88188601 11682090
-0.19428109 0.43452469 0.88188601 11812904
-0.17787828 0.41641948 0.84514076 11616295
-0.16957051 0.41641948 0.84514076 11877929
-0.15797167 0.40792114 0.82789302 11616297
-0.14983343 0.40792114 0.82789302 11550504
-0.14464718 0.41641948 0.84514076 11548964
-0.13633941 0.41641948 0.84514076 11483684
-0.12803164 0.41641948 0.84514076 11614499
-0.11728053 0.40792114 0.82789302 11745315
-0.097235866 0.36342064 0.73757738 11548964
-0.091651849 0.37015069 0.75123626 11679521
-0.094800554 0.41641948 0.84514076 11418150
-0.086492784 0.41641948 0.84514076 11286564
-0.078185014 0.41641948 0.84514076 11548964
-0.069877237 0.41641948 0.84514076 11483170
-0.061569467 0.41641948 0.84514076 11614757
-0.044851959 0.35066906 0.71169752 11483171
-0.037855938 0.35066906 0.71169752 11548708
-0.030859921 0.35066906 0.71169752 11483171
-0.02566495 0.37713462 0.76541048 11745316
-0.018140931 0.37713462 0.76541048 11483173
-0.010048147 0.356931 0.72440636 11745828
-0.0029272006 0.356931 0.72440636 11548966
0.0041937465 0.356931 0.72440636 11483169
0.011314694 0.356931 0.72440636 11745828
0.01843564 0.356931 0.72440636 11417378
0.026021253 0.36342064 0.73757738 11548192
0.037345756 0.40792114 0.82789302 11745830
0 0 0 11811107
0 0 0 11745829
0 0 0 11548708
0 0 0 12008229
0 0 0 11744801
0 0 0 11613730
0 0 0 11614759
0 0 0 11155748
0 0 0 11548962
0 0 0 11943205
0 0 0 11614244
0 0 0 11615015
0 0 0 11548964
0 0 0 11614757
0.97644222 2.498517 5.0708447 11483169
0.91225678 2.2209041 4.5074177 11287334
0.78264397 1.8171033 3.687887 11810594
0.90078574 1.9988137 4.0566759 11942182
0.94066304 1.9988137 4.0566759 11811107
0.98054034 1.9988137 4.0566759 12008486
0.72886968 1.427724 2.8976254 11942949
0.53014749 0.99940687 2.028338 11548708
0.45840508 0.83283895 1.6902815 11746087
0.45601982 0.79952544 1.6226703 11876904
0.47197074 0.79952544 1.6226703 11483941
0.48792166 0.79952544 1.6226703 11811365
0.4343729 0.68924606 1.3988537 11746856
0.44812369 0.68924606 1.3988537 12140326
0.53577441 0.79952544 1.6226703 12008486
0.57471389 0.83283895 1.6902815 11548964
0.67580503 0.95181596 1.9317503 11417893
0.69479424 0.95181596 1.9317503 11615527
0.62456053 0.83283895 1.6902815 11680548
0.46630985 0.60570109 1.2292956 12009002
0.47839388 0.60570109 1.2292956 11549221
0 0 0 11680037
0 0 0 11877416
0.5307287 0.62462926 1.2677112 11746086
0.54319036 0.62462926 1.2677112 12074537
0.55565202 0.62462926 1.2677112 11877672
0.56811363 0.62462926 1.2677112 11745315
0.58057529 0.62462926 1.2677112 11745828
0.61216718 0.64477861 1.3086051 11943209
0 0 0 11615270
0 0 0 11418663
1.1207502 1.1104521 2.2537088 11942950
1.1429043 1.1104521 2.2537088 11811623
1.2335911 1.1757727 2.3862798 11614757
1.2570482 1.1757727 2.3862798 11287077
1.2805055 1.1757727 2.3862798 11680809
1.1083684 0.99940687 2.028338 11353384
1.074578 0.95181596 1.9317503 11156261
1.2758286 1.1104521 2.2537088 11221287
1.2979827 1.1104521 2.2537088 11221797
0.99010247 0.83283895 1.6902815 10959398
0.96644932 0.79952544 1.6226703 11024421
1.0233335 0.83283895 1.6902815 10893859
1.0399491 0.83283895 1.6902815 11024678
1.1025022 0.86904937 1.763772 11156005
1.430907 1.1104521 2.2537088 11155233
1.4530611 1.1104521 2.2537088 11286564
1.5619924 1.1757727 2.3862798 11155748
1.5854496 1.1757727 2.3862798 11089959
1.6089069 1.1757727 2.3862798 11154981
1.3875096 0.99940687 2.028338 10892580
1.2794983 0.90855163 1.8439435 10827812
1.359416 0.95181596 1.9317503 10828069
1.3157504 0.90855163 1.8439435 10303268
1.3338765 0.90855163 1.8439435 9910056
1.4163835 0.95181596 1.9317503 10106663
1.5071415 0.99940687 2.028338 10106147
1.7965648 1.1757727 2.3862798 10368290
1.820022 1.1757727 2.3862798 10630949
1.8434793 1.1757727 2.3862798 10696486
1.8669364 1.1757727 2.3862798 10499365
1.8903937 1.1757727 2.3862798 10565159
1.9138509 1.1757727 2.3862798 10696743
1.9373082 1.1757727 2.3862798 10828070
1.3888755 0.83283895 1.6902815 10433572
1.405491 0.83283895 1.6902815 10434085
2.0076799 1.1757727 2.3862798 10368036
1.9182963 1.1104521 2.2537088 10434085
1.9404503 1.1104521 2.2537088 10433571
1.766344 0.99940687 2.028338 10039843
1.9847585 1.1104521 2.2537088 10499878
4.0138249 2.2209041 4.5074177 10499363
4.0581331 2.2209041 4.5074177 10433830
4.1024413 2.2209041 4.5074177 10039589
4.1467495 2.2209041 4.5074177 9842721
4.1910577 2.2209041 4.5074177 10106403
2.0062258 1.0520072 2.1350925 10105890
2.0272138 1.0520072 2.1350925 9842977
1.853135 0.95181596 1.9317503 10040356
1.8721242 0.95181596 1.9317503 9975333
1.6547242 0.83283895 1.6902815 10105889
1.6044862 0.79952544 1.6226703 9909799
1.6204371 0.79952544 1.6226703 9778727
1.6363881 0.79952544 1.6226703 9713446
1.9670701 0.95181596 1.9317503 9713189
1.9860593 0.95181596 1.9317503 9778470
2.0050485 0.95181596 1.9317503 10040614
2.0240376 0.95181596 1.9317503 9844005
1.8653724 0.86904937 1.763772 9778726
2.2790704 1.0520072 2.1350925 9778468
2.5706537 1.1757727 2.3862798 9844261
2.7562428 1.2492585 2.5354223 9778213
4.4498658 1.9988137 4.0566759 9778725
4.4897432 1.9988137 4.0566759 9778725
5.0329118 2.2209041 4.5074177 9581861
5.07722 2.2209041 4.5074177 9253667
9.21875 3.9976275 8.1133518 9319461
9.2985048 3.9976275 8.1133518 9451047
9.3782597 3.9976275 8.1133518 9386024
9.4580145 3.9976275 8.1133518 9582887
9.5377693 3.9976275 8.1133518 9975333
12.021904 4.9970341 10.141689 9582120
9.697278 3.9976275 8.1133518 9582887
9.7770329 3.9976275 8.1133518 9647913
9.8567877 3.9976275 8.1133518 9516841
12.420677 4.9970341 10.141689 9648426
12.52037 4.9970341 10.141689 9582633
10.096051 3.9976275 8.1133518 9582633
0 0 0 9582633
0 0 0 9582375
0 0 0 9713960
0 0 0 9582887
0 0 0 9713959
0 0 0 9255208
0 0 0 9255208
0 0 0 9713450
0 0 0 9844263
-1.0822253 0.46333882 0.92197174 9844774
-1.0731623 0.46333882 0.92197174 9582633
-1.0640993 0.46333882 0.92197174 9582119
-1.0550363 0.46333882 0.92197174 9647912
-1.0227294 0.45304242 0.90148348 9450276
-0.99182713 0.44319367 0.88188601 9450531
-0.98315817 0.44319367 0.88188601 9319203
-0.97448921 0.44319367 0.88188601 9253668
-0.96582019 0.44319367 0.88188601 9450790
-0.91726995 0.42472726 0.84514076 9646884
-0.89041197 0.41605937 0.82789302 9646626
-0.88227373 0.41605937 0.82789302 9712161
-0.89234662 0.42472726 0.84514076 9581089
-0.88403887 0.42472726 0.84514076 9582372
-0.79311496 0.38465863 0.76541048 9647396
-0.74350572 0.36405194 0.72440636 9844006
-0.72346574 0.35766509 0.71169752 10106921
-0.74252313 0.37067106 0.73757738 9581604
-0.73527271 0.37067106 0.73757738 9516324
-0.75549483 0.38465863 0.76541048 9844518
-0.77730304 0.39974332 0.79542661 10040868
-0.80089146 0.41605937 0.82789302 10172195
-0.76166487 0.39974332 0.79542661 10434598
-0.72539878 0.38465863 0.76541048 10171940
-0.7316801 0.39205596 0.78012997 10303780
-0.76833856 0.41605937 0.82789302 10565154
-0.76020032 0.41605937 0.82789302 10565669
-0.75206214 0.41605937 0.82789302 10434083
-0.7594223 0.42472726 0.84514076 10697255
-0.73578566 0.41605937 0.82789302 10631460
-0.72764742 0.41605937 0.82789302 10499617
-0.71950924 0.41605937 0.82789302 10828069
-0.711371 0.41605937 0.82789302 10630949
-0.71788341 0.42472726 0.84514076 10369062
-0.70957565 0.42472726 0.84514076 10565413
-0.7012679 0.42472726 0.84514076 10565413
-0.67881811 0.41605937 0.82789302 10631462
-0.67067987 0.41605937 0.82789302 10696226
-0.66254163 0.41605937 0.82789302 10631206
-0.66803682 0.42472726 0.84514076 10434083
-0.659729 0.42472726 0.84514076 10631461
-0.76263952 0.49724168 0.98943311 10762535
-0.62998873 0.41605937 0.82789302 10762535
-0.62185049 0.41605937 0.82789302 10893864
-0.61371231 0.41605937 0.82789302 10762533
-0.60557407 0.41605937 0.82789302 10828325
-0.59743583 0.41605937 0.82789302 10893348
-0.6015746 0.42472726 0.84514076 10762533
-0.58115941 0.41605937 0.82789302 11024675
-0.58495909 0.42472726 0.84514076 10893605
-0.58892047 0.43376401 0.86312246 11221284
0 0 0 11221539
0 0 0 11221541
0 0 0 11221539
0 0 0 11287334
0 0 0 11221539
0 0 0 11155746
0 0 0 11221799
0 0 0 11156007
0 0 0 11352614
-2.6323926 2.2652123 4.5074177 11418918
-4.6585522 4.0773821 8.1133518 11483942
-2.5437765 2.2652123 4.5074177 11615530
-2.0450194 1.8533553 3.687887 11418409
-1.6997262 1.5682238 3.1205199 11287334
-1.6690514 1.5682238 3.1205199 11483941
-1.6383766 1.5682238 3.1205199 11548964
-1.7416768 1.698909 3.380563 11680807
-1.7084457 1.698909 3.380563 11877929
-1.6752145 1.698909 3.380563 11812136
-1.7912548 1.8533553 3.687887 11811882
-1.930503 2.038691 4.0566759 11287334
-2.1006951 2.2652123 4.5074177 11680551
-1.8507484 2.038691 4.0566759 11943209
-1.8108711 2.038691 4.0566759 11484711
-1.7709938 2.038691 4.0566759 11615526
-1.9234627 2.2652123 4.5074177 11812650
-2.114049 2.5483637 5.0708447 12074538
-2.0642023 2.5483637 5.0708447 12140072
-1.4649858 1.8533553 3.687887 12008486
-1.4287338 1.8533553 3.687887 11877416
-1.7019222 2.2652123 4.5074177 11943207
-1.6576141 2.2652123 4.5074177 11746598
-0.80665296 1.1326061 2.2537088 11877670
-0.70604903 1.0193455 2.028338 12008486
-0.68611038 1.0193455 2.028338 11877161
-0.66617173 1.0193455 2.028338 11877930
-0.36927602 0.58248311 1.1590502 11811875
-0.33853751 0.55099756 1.0963988 11745573
-0.32775986 0.55099756 1.0963988 11548963
-0.31698221 0.55099756 1.0963988 11614758
-0.30620456 0.55099756 1.0963988 11745571
-0.29542691 0.55099756 1.0963988 11745828
-0.25076243 0.48540258 0.96587515 11942693
-0.23030111 0.46333882 0.92197174 11484713
-0.22123809 0.46333882 0.92197174 11352613
-0.18671407 0.40773818 0.81133515 11877673
-0.18238634 0.41605937 0.82789302 11812649
-0.17424811 0.41605937 0.82789302 11746342
-0.16610989 0.41605937 0.82789302 11877929
-0.15797167 0.41605937 0.82789302 11287334
-0.14983343 0.41605937 0.82789302 11418150
-0.1416952 0.41605937 0.82789302 11746087
-0.13355698 0.41605937 0.82789302 11746341
-0.12541875 0.41605937 0.82789302 11614244
-0.11728053 0.41605937 0.82789302 11680035
-0.099036537 0.37753537 0.75123626 11877155
-0.10310832 0.42472726 0.84514076 11548708
-0.094800554 0.42472726 0.84514076 11352356
-0.088333055 0.43376401 0.86312246 11155748
-0.078185014 0.42472726 0.84514076 11351585
-0.071363986 0.43376401 0.86312246 11811365
-0.056833357 0.39205596 0.78012997 11549222
-0.048237007 0.38465863 0.76541048 11745315
-0.037855938 0.35766509 0.71169752 11548708
-0.033188969 0.38465863 0.76541048 11286564
-0.027204847 0.40773818 0.81133515 11547937
-0.018140931 0.38465863 0.76541048 11680550
-0.010230841 0.37067106 0.73757738 11352357
-0.0029804225 0.37067106 0.73757738 11155748
0.0041937465 0.36405194 0.72440636 11680037
0.011314694 0.36405194 0.72440636 11614244
0.01843564 0.36405194 0.72440636 12008740
0.027003186 0.38465863 0.76541048 12074536
0.037345756 0.41605937 0.82789302 11548708
0 0 0 11942439
0 0 0 11811622
0 0 0 11548966
0 0 0 11483429
0 0 0 11549222
0 0 0 11811109
0 0 0 11614242
0 0 0 11483684
0 0 0 11680035
0 0 0 11810594
0 0 0 11417891
0 0 0 11680806
0 0 0 11614500
0.7412765 2.038691 4.0566759 11680550
0.71013975 1.8533553 3.687887 11548966
0.74639189 1.8533553 3.687887 11549736
0.78264397 1.8533553 3.687887 11614755
0.81889606 1.8533553 3.687887 11483429
0.85514814 1.8533553 3.687887 11746341
0.81711692 1.698909 3.380563 11615014
0.72886968 1.4562078 2.8976254 11877157
0.53014749 1.0193455 2.028338 11614757
0.37936971 0.70299685 1.3988537 11614759
0.3931205 0.70299685 1.3988537 11418150
0.38062155 0.65764225 1.3086051 11680035
0.38118878 0.63709092 1.2677112 11746084
0.39365044 0.63709092 1.2677112 11680550
0.4061121 0.63709092 1.2677112 11877157
0.49608743 0.75507075 1.5024725 12007973
0.55172533 0.81547636 1.6226703 11680550
0.5913294 0.84945452 1.6902815 11877929
0.63437736 0.88638735 1.763772 11484711
0.62456053 0.84945452 1.6902815 11550247
0.48088205 0.63709092 1.2677112 11615784
0.49334371 0.63709092 1.2677112 11680807
0 0 0 11549734
0 0 0 11221539
0.5307287 0.63709092 1.2677112 11549479
0.54319036 0.63709092 1.2677112 11746089
0.53881401 0.6177851 1.2292956 11811622
0.55089808 0.6177851 1.2292956 12140074
0.56298208 0.6177851 1.2292956 12008490
0.61216718 0.65764225 1.3086051 11811882
0.74522913 0.78411192 1.5602599 11614502
