# .PCD v0.7 - Point Cloud Data file format
VERSION 0.7
FIELDS x y z rgb
SIZE 4 4 4 4
TYPE F F F U
COUNT 1 1 1 1
WIDTH 1217
HEIGHT 1
VIEWPOINT 0 0 0 1 0 0 0
POINTS 1217
DATA ascii
-0.51563537 -0.11305151 0.72440636 12155986
-0.49959317 -0.11106816 0.71169752 12090449
-0.49259713 -0.11106816 0.71169752 12353621
-0.47722867 -0.10915319 0.69942683 12484694
-0.47035328 -0.10915319 0.69942683 12155472
-0.46347788 -0.10915319 0.69942683 12812371
-0.44138238 -0.10551474 0.67611259 12615764
-0.42760935 -0.103785 0.66502881 10839866
-0.4210721 -0.103785 0.66502881 4991524
-0.40784881 -0.10211105 0.65430254 4597799
-0.39504528 -0.10049023 0.64391679 4269349
-0.39498514 -0.10211105 0.65430254 4007206
-0.38238582 -0.10049023 0.64391679 4072740
-0.37605608 -0.10049023 0.64391679 3743007
-0.36972636 -0.10049023 0.64391679 3414556
-0.36339661 -0.10049023 0.64391679 3414812
-0.3570669 -0.10049023 0.64391679 3283483
-0.35073715 -0.10049023 0.64391679 3217433
-0.34440744 -0.10049023 0.64391679 3020313
-0.33807769 -0.10049023 0.64391679 2428178
-0.33709875 -0.10211105 0.65430254 2034191
-0.32541823 -0.10049023 0.64391679 1246217
-0.31908849 -0.10049023 0.64391679 1509132
-0.31275877 -0.10049023 0.64391679 1180937
-0.30642903 -0.10049023 0.64391679 852743
-0.30009931 -0.10049023 0.64391679 1378316
-0.29850781 -0.10211105 0.65430254 1640459
-0.29207596 -0.10211105 0.65430254 2821905
-0.28564414 -0.10211105 0.65430254 2231055
-0.27921233 -0.10211105 0.65430254 2033421
-0.27278051 -0.10211105 0.65430254 3480094
-0.26634869 -0.10211105 0.65430254 4199447
-0.2641778 -0.103785 0.66502881 3084305
-0.25764054 -0.103785 0.66502881 2558732
-0.26409134 -0.10915319 0.69942683 1902088
-0.26172853 -0.11106816 0.71169752 786696
-0.25473252 -0.11106816 0.71169752 917766
-0.2477365 -0.11106816 0.71169752 721157
-0.24074048 -0.11106816 0.71169752 721157
-0.23374446 -0.11106816 0.71169752 786950
-0.2307975 -0.11305151 0.72440636 918025
-0.2277434 -0.11510699 0.73757738 983559
-0.22457621 -0.11723861 0.75123626 1378059
-0.22128946 -0.11945066 0.76541048 1837327
-0.21787633 -0.12174779 0.78012997 6175272
-0.21020761 -0.12174779 0.78012997 8804663
-0.21493924 -0.12920174 0.82789302 10185280
-0.20680101 -0.12920174 0.82789302 10973001
-0.19866279 -0.12920174 0.82789302 11958863
-0.19052456 -0.12920174 0.82789302 12352079
0 0 0 12155729
0 0 0 12418385
0 0 0 12024653
0 0 0 12417870
0 0 0 11958860
0 0 0 11826761
0 0 0 11695691
0 0 0 11564877
0 0 0 11565136
0 0 0 12089679
-0.70702851 -0.90441209 5.7952509 12023886
-0.50560302 -0.70343173 4.5074177 12286799
-0.51895672 -0.79136062 5.0708447 12682068
-0.46911007 -0.79136062 5.0708447 12813141
-0.41926345 -0.79136062 5.0708447 13404247
-0.42219064 -0.90441209 5.7952509 13732952
-0.28406242 -0.70343173 4.5074177 13469269
-0.21577886 -0.63308853 4.0566759 14390110
-0.17590155 -0.63308853 4.0566759 14522465
-0.13602424 -0.63308853 4.0566759 15112550
-0.096146934 -0.63308853 4.0566759 14850661
-0.062521815 -0.70343173 4.5074177 15244647
-0.018213693 -0.70343173 4.5074177 15047779
0.029356226 -0.79136062 5.0708447 15440995
0.079202853 -0.79136062 5.0708447 15573096
0.12904948 -0.79136062 5.0708447 15375715
0.15901878 -0.70343173 4.5074177 14851683
0.2033269 -0.70343173 4.5074177 15505763
0.24763502 -0.70343173 4.5074177 15112548
0.32843602 -0.79136062 5.0708447 14718308
0.43232301 -0.90441209 5.7952509 14456419
0.4892906 -0.90441209 5.7952509 12879184
0.54625815 -0.90441209 5.7952509 1770246
0.60322571 -0.90441209 5.7952509 2692112
0.66019332 -0.90441209 5.7952509 5582105
0.83668768 -1.0551475 6.761126 11497029
0.67736244 -0.79136062 5.0708447 6959903
0.83109605 -0.90441209 5.7952509 1049352
0.77705568 -0.79136062 5.0708447 1049098
0.94503123 -0.90441209 5.7952509 918535
1.0019988 -0.90441209 5.7952509 852743
1.0589664 -0.90441209 5.7952509 984329
0.97644222 -0.79136062 5.0708447 853259
1.0262889 -0.79136062 5.0708447 7422769
1.0761355 -0.79136062 5.0708447 9592125
1.2868366 -0.90441209 5.7952509 11564625
1.3438042 -0.90441209 5.7952509 12287058
1.2256753 -0.79136062 5.0708447 12091217
1.275522 -0.79136062 5.0708447 12288343
1.1781055 -0.70343173 4.5074177 12879966
1.2224137 -0.70343173 4.5074177 13338458
1.2667217 -0.70343173 4.5074177 13339226
1.3110299 -0.70343173 4.5074177 13535581
1.355338 -0.70343173 4.5074177 13535839
1.399646 -0.70343173 4.5074177 13733218
1.2995588 -0.63308853 4.0566759 13733473
1.3394361 -0.63308853 4.0566759 14061665
1.3793133 -0.63308853 4.0566759 13734243
1.4191908 -0.63308853 4.0566759 13996388
1.4590681 -0.63308853 4.0566759 13930849
1.3626775 -0.575535 3.687887 14062691
1.5388227 -0.63308853 4.0566759 14193763
1.7541111 -0.70343173 4.5074177 14127456
1.7984191 -0.70343173 4.5074177 14259812
1.3820454 -0.52757376 3.380563 14652517
1.5439379 -0.575535 3.687887 14390628
1.7382091 -0.63308853 4.0566759 14194018
1.6164421 -0.575535 3.687887 14259813
1.5149697 -0.52757376 3.380563 14391140
1.5482008 -0.52757376 3.380563 14128999
2.1085761 -0.70343173 4.5074177 14325096
1.9375957 -0.63308853 4.0566759 14260071
1.977473 -0.63308853 4.0566759 14260071
1.6811252 -0.52757376 3.380563 14456164
1.7143562 -0.52757376 3.380563 14324835
1.7475873 -0.52757376 3.380563 14128231
1.942711 -0.575535 3.687887 14128485
1.9789631 -0.575535 3.687887 13930852
2.0152152 -0.575535 3.687887 13668452
2.2566142 -0.63308853 4.0566759 13668194
2.2964914 -0.63308853 4.0566759 13799523
2.1239715 -0.575535 3.687887 13930592
1.9802049 -0.52757376 3.380563 13733216
2.0134361 -0.52757376 3.380563 13667681
2.2327278 -0.575535 3.687887 13471073
2.2689798 -0.575535 3.687887 13666653
2.3052318 -0.575535 3.687887 13405278
3.2195406 -0.79136062 5.0708447 13208157
2.9061222 -0.70343173 4.5074177 13470303
2.9504302 -0.70343173 4.5074177 13272924
2.9947383 -0.70343173 4.5074177 13338459
3.0390465 -0.70343173 4.5074177 13010524
2.7750192 -0.63308853 4.0566759 13338460
2.5589967 -0.575535 3.687887 12879196
2.5952487 -0.575535 3.687887 12617306
2.8946509 -0.63308853 4.0566759 12551774
2.9345284 -0.63308853 4.0566759 12682077
2.9744058 -0.63308853 4.0566759 12616025
3.0142829 -0.63308853 4.0566759 12287831
3.3935113 -0.70343173 4.5074177 11959641
3.4378195 -0.70343173 4.5074177 11630677
3.4821277 -0.70343173 4.5074177 11630678
2.6448267 -0.52757376 3.380563 10973267
2.4720535 -0.48699117 3.1205199 9855819
3.2535467 -0.63308853 4.0566759 8344383
5.4890399 -1.0551475 6.761126 6636083
2.777751 -0.52757376 3.380563 4664095
2.5947528 -0.48699117 3.1205199 3742995
2.6254277 -0.48699117 3.1205199 2823180
2.6561024 -0.48699117 3.1205199 2167049
2.0545943 -0.37240499 2.3862798 1838600
1.9626044 -0.35171586 2.2537088 1641480
2.1015089 -0.37240499 2.3862798 1312517
2.0069125 -0.35171586 2.2537088 1312521
2.0290666 -0.35171586 2.2537088 1378314
2.0512207 -0.35171586 2.2537088 1246732
2.0733747 -0.35171586 2.2537088 1115661
1.8859758 -0.31654426 2.028338 918282
1.6573169 -0.27525586 1.763772 1246477
1.4814255 -0.24349558 1.5602599 1114891
1.496763 -0.24349558 1.5602599 1049352
1.5121003 -0.24349558 1.5602599 1115915
1.5885353 -0.2532354 1.6226703 4141092
1.7440066 -0.27525586 1.763772 10381895
0 0 0 11038800
0 0 0 10776914
2.2949152 -0.35171586 2.2537088 11038293
2.4533675 -0.37240499 2.3862798 10973528
2.4768248 -0.37240499 2.3862798 10710356
3.2695994 -0.48699117 3.1205199 10579795
3.5752971 -0.52757376 3.380563 10448722
4.8113713 -0.70343173 4.5074177 10185550
4.8556795 -0.70343173 4.5074177 9922893
4.4099889 -0.63308853 4.0566759 10185810
4.4498658 -0.63308853 4.0566759 10382932
4.0815845 -0.575535 3.687887 10514004
4.5296206 -0.63308853 4.0566759 10251604
5.07722 -0.70343173 4.5074177 10185808
5.1215281 -0.70343173 4.5074177 10186581
4.6492524 -0.63308853 4.0566759 10120272
4.6891298 -0.63308853 4.0566759 10251597
4.2990971 -0.575535 3.687887 10251344
4.3353491 -0.575535 3.687887 10054224
4.0073013 -0.52757376 3.380563 10120017
4.4078536 -0.575535 3.687887 10119761
4.4441056 -0.575535 3.687887 10054481
4.4803576 -0.575535 3.687887 9988433
4.5166097 -0.575535 3.687887 9857874
6.2601852 -0.79136062 5.0708447 9791824
10.096051 -1.2661771 8.1133518 9857360
0 0 0 9857360
0 0 0 9988434
0 0 0 10119761
0 0 0 10250575
0 0 0 10250577
0 0 0 10711375
0 0 0 10842702
-3.7242663 -0.45631632 3.1205199 11696983
-3.6935916 -0.45631632 3.1205199 12025175
-3.6629167 -0.45631632 3.1205199 12091480
-3.6322417 -0.45631632 3.1205199 12222296
-3.601567 -0.45631632 3.1205199 12090713
-3.8684664 -0.49434265 3.380563 12222300
-4.1838932 -0.53928292 3.687887 12485729
-4.1476407 -0.53928292 3.687887 12092254
-4.1113887 -0.53928292 3.687887 12355168
-4.0751367 -0.53928292 3.687887 12027229
-4.0388846 -0.53928292 3.687887 12223584
-3.6690798 -0.49434265 3.380563 12485982
-3.6358488 -0.49434265 3.380563 12355422
-3.6026175 -0.49434265 3.380563 12224093
-3.8938763 -0.53928292 3.687887 12617565
-3.2641437 -0.45631632 3.1205199 13075291
-3.821372 -0.53928292 3.687887 12550230
-4.6262579 -0.6591236 4.5074177 11235142
-4.5819497 -0.6591236 4.5074177 9986883
-4.5376415 -0.6591236 4.5074177 9461827
-4.4933338 -0.6591236 4.5074177 9198655
-4.4490256 -0.6591236 4.5074177 9133376
-4.4047174 -0.6591236 4.5074177 9198399
-4.3604093 -0.6591236 4.5074177 9198656
-3.884491 -0.59321123 4.0566759 8739645
-4.2717929 -0.6591236 4.5074177 8870980
-4.2274847 -0.6591236 4.5074177 9068098
-4.183177 -0.6591236 4.5074177 10184777
-4.6562271 -0.74151397 5.0708447 11564625
-4.6063805 -0.74151397 5.0708447 12089937
-4.5565338 -0.74151397 5.0708447 11630413
-4.0059443 -0.6591236 4.5074177 12418131
-3.9616363 -0.6591236 4.5074177 11959377
-3.5255952 -0.59321123 4.0566759 12222036
-3.485718 -0.59321123 4.0566759 12154960
-3.4458406 -0.59321123 4.0566759 12090706
-3.4059634 -0.59321123 4.0566759 12090195
-2.8050716 -0.49434265 3.380563 12352853
-2.5586221 -0.45631632 3.1205199 12287058
-1.3145325 -0.23728448 1.6226703 12024657
-1.2486362 -0.22815816 1.5602599 11959125
-1.187621 -0.21970785 1.5024725 11631699
-1.0555664 -0.19773705 1.3522252 12025171
-0.78170556 -0.14830281 1.014169 12090452
-0.64311349 -0.12358566 0.84514076 12024915
-0.58597451 -0.11407908 0.78012997 12090707
-0.57830584 -0.11407908 0.78012997 11959635
-0.5598703 -0.11192664 0.76541048 12025424
-0.54211771 -0.10985392 0.75123626 11959633
-0.51563537 -0.10593057 0.72440636 12352338
-0.49097946 -0.10227779 0.69942683 12352849
-0.49259713 -0.10407215 0.71169752 12287058
-0.47722867 -0.10227779 0.69942683 12681048
-0.47035328 -0.10227779 0.69942683 12288600
-0.46347788 -0.10227779 0.69942683 12485210
-0.43414664 -0.097247735 0.66502881 12353107
-0.42760935 -0.097247735 0.66502881 12352845
-0.4210721 -0.097247735 0.66502881 5714467
-0.40784881 -0.095679224 0.65430254 4729639
-0.40141696 -0.095679224 0.65430254 4664363
-0.39498514 -0.095679224 0.65430254 4597801
-0.38855332 -0.095679224 0.65430254 4203813
-0.37605608 -0.094160505 0.64391679 3611419
-0.36972636 -0.094160505 0.64391679 3348247
-0.36339661 -0.094160505 0.64391679 3414040
-0.3570669 -0.094160505 0.64391679 3217432
-0.35073715 -0.094160505 0.64391679 3415067
-0.34440744 -0.094160505 0.64391679 3677212
-0.33807769 -0.094160505 0.64391679 3676955
-0.33174798 -0.094160505 0.64391679 2822420
-0.32541823 -0.094160505 0.64391679 1574666
-0.31908849 -0.094160505 0.64391679 1181194
-0.31275877 -0.094160505 0.64391679 984329
-0.30642903 -0.094160505 0.64391679 1115915
-0.30493963 -0.095679224 0.65430254 1181194
-0.29850781 -0.095679224 0.65430254 2362897
-0.29207596 -0.095679224 0.65430254 3020052
-0.28564414 -0.095679224 0.65430254 2164746
-0.27921233 -0.095679224 0.65430254 2100498
-0.27278051 -0.095679224 0.65430254 3611420
-0.26634869 -0.095679224 0.65430254 4264722
-0.2641778 -0.097247735 0.66502881 3083534
-0.25764054 -0.097247735 0.66502881 2164747
-0.26409134 -0.10227779 0.69942683 1638661
-0.26172853 -0.10407215 0.71169752 1246473
-0.25928131 -0.10593057 0.72440636 1049095
-0.2477365 -0.10407215 0.71169752 786950
-0.24074048 -0.10407215 0.71169752 918024
-0.23374446 -0.10407215 0.71169752 983815
-0.2307975 -0.10593057 0.72440636 786696
-0.2277434 -0.10785658 0.73757738 918536
-0.22457621 -0.10985392 0.75123626 1378059
-0.22128946 -0.11192664 0.76541048 2558479
-0.21787633 -0.11407908 0.78012997 8671802
-0.2186159 -0.11864224 0.81133515 10250311
-0.21493924 -0.12106351 0.82789302 8804937
-0.20680101 -0.12106351 0.82789302 8280908
-0.19468953 -0.11864224 0.81133515 8214857
-0.18671407 -0.11864224 0.81133515 8609099
0 0 0 8346180
0 0 0 8607807
0 0 0 8804154
0 0 0 9198138
0 0 0 9591864
0 0 0 10379322
0 0 0 10249276
0 0 0 10183233
0 0 0 11957584
0 0 0 12155213
0 0 0 12617047
-0.65006095 -0.84744453 5.7952509 13075543
-0.5930934 -0.84744453 5.7952509 13404508
-0.62548012 -0.98868531 6.761126 13536861
-0.5590179 -0.98868531 6.761126 13865053
-0.59106696 -1.1864225 8.1133518 14192477
-0.36522305 -0.84744453 5.7952509 11694658
-0.23975429 -0.6591236 4.5074177 14586976
-0.17590155 -0.59321123 4.0566759 14784354
-0.13602424 -0.59321123 4.0566759 14849888
-0.096146934 -0.59321123 4.0566759 14719587
-0.093782708 -0.98868531 6.761126 15113063
-0.020490404 -0.74151397 5.0708447 15375461
0.029356226 -0.74151397 5.0708447 15113313
0.079202853 -0.74151397 5.0708447 15638119
0.11471066 -0.6591236 4.5074177 15244388
0.15901878 -0.6591236 4.5074177 14850913
0.22874275 -0.74151397 5.0708447 15113318
0.31838787 -0.84744453 5.7952509 14588005
0.37535542 -0.84744453 5.7952509 14784866
0.43232301 -0.84744453 5.7952509 7158814
0.4892906 -0.84744453 5.7952509 1377287
0.4779759 -0.74151397 5.0708447 1050122
0.60322571 -0.84744453 5.7952509 1115915
0.57766914 -0.74151397 5.0708447 1180938
0.71716088 -0.84744453 5.7952509 1574156
0.67736244 -0.74151397 5.0708447 657417
0.83109605 -0.84744453 5.7952509 1114891
0.77705568 -0.74151397 5.0708447 853259
0.94503123 -0.84744453 5.7952509 918536
1.0019988 -0.84744453 5.7952509 983305
1.0589664 -0.84744453 5.7952509 918536
0.97644222 -0.74151397 5.0708447 918536
1.0262889 -0.74151397 5.0708447 4533023
1.0761355 -0.74151397 5.0708447 7424822
1.125982 -0.74151397 5.0708447 9329212
1.1758287 -0.74151397 5.0708447 11499087
1.2256753 -0.74151397 5.0708447 12418647
1.275522 -0.74151397 5.0708447 12484438
1.3253686 -0.74151397 5.0708447 12550744
1.3752153 -0.74151397 5.0708447 13273433
1.4250619 -0.74151397 5.0708447 12813398
1.3110299 -0.6591236 4.5074177 13470558
1.355338 -0.6591236 4.5074177 13405278
1.399646 -0.6591236 4.5074177 13602657
1.4439542 -0.6591236 4.5074177 14061923
1.4882623 -0.6591236 4.5074177 13733468
1.5325705 -0.6591236 4.5074177 13799009
1.7739882 -0.74151397 5.0708447 13996642
1.6211867 -0.6591236 4.5074177 14192481
1.4989454 -0.59321123 4.0566759 13865313
1.5388227 -0.59321123 4.0566759 14259302
1.5786999 -0.59321123 4.0566759 14325096
1.3488142 -0.49434265 3.380563 14193767
1.3820454 -0.49434265 3.380563 14389858
1.4152764 -0.49434265 3.380563 14127974
1.4485075 -0.49434265 3.380563 14193247
1.7780864 -0.59321123 4.0566759 14259041
1.8179637 -0.59321123 4.0566759 14325092
1.5482008 -0.49434265 3.380563 14521700
2.1085761 -0.6591236 4.5074177 14455396
1.4904583 -0.45631632 3.1205199 14258787
1.647894 -0.49434265 3.380563 14324323
1.6811252 -0.49434265 3.380563 13931364
1.7143562 -0.49434265 3.380563 13866596
1.6131576 -0.45631632 3.1205199 13865313
1.6438324 -0.45631632 3.1205199 13996642
1.8140495 -0.49434265 3.380563 13865311
2.0152152 -0.53928292 3.687887 13930079
2.0514672 -0.53928292 3.687887 14126944
2.0877194 -0.53928292 3.687887 13471071
1.9469738 -0.49434265 3.380563 13667167
1.9802049 -0.49434265 3.380563 13471074
2.0134361 -0.49434265 3.380563 13471073
2.0466671 -0.49434265 3.380563 13273438
2.2689798 -0.53928292 3.687887 13272669
2.3052318 -0.53928292 3.687887 13667172
2.3414841 -0.53928292 3.687887 13076061
2.61551 -0.59321123 4.0566759 13076061
2.6553872 -0.59321123 4.0566759 12944990
2.6952646 -0.59321123 4.0566759 12551254
2.7351418 -0.59321123 4.0566759 12089937
2.13463 -0.45631632 3.1205199 11892812
2.1653049 -0.45631632 3.1205199 10053187
2.1959798 -0.45631632 3.1205199 8212531
1.5235004 -0.31221643 2.1350925 6241059
1.4672642 -0.29660562 2.028338 4137744
1.4872029 -0.29660562 2.028338 2626822
2.3186791 -0.45631632 3.1205199 1772294
3.0541604 -0.59321123 4.0566759 1575688
3.0940375 -0.59321123 4.0566759 1509643
2.4107037 -0.45631632 3.1205199 1444108
2.2669942 -0.42372227 2.8976254 1181967
2.4720535 -0.45631632 3.1205199 1182478
2.5027282 -0.45631632 3.1205199 1313294
2.5334032 -0.45631632 3.1205199 1181967
2.5640779 -0.45631632 3.1205199 1313041
2.5947528 -0.45631632 3.1205199 1247249
2.437897 -0.42372227 2.8976254 1379091
1.9182963 -0.3295618 2.2537088 984334
1.9404503 -0.3295618 2.2537088 1050638
1.9626044 -0.3295618 2.2537088 1049868
1.9847585 -0.3295618 2.2537088 1181454
2.0069125 -0.3295618 2.2537088 1050638
2.0290666 -0.3295618 2.2537088 1181454
1.9432616 -0.31221643 2.1350925 984588
1.8660372 -0.29660562 2.028338 918539
1.7961674 -0.28248152 1.9317503 984073
1.4660881 -0.22815816 1.5602599 853002
1.4265579 -0.21970785 1.5024725 984074
1.4413272 -0.21970785 1.5024725 787468
1.4560966 -0.21970785 1.5024725 1049868
1.5274378 -0.22815816 1.5602599 3549476
1.6044862 -0.23728448 1.6226703 9792334
1.6879553 -0.24717133 1.6902815 10776398
0 0 0 10776911
1.9670701 -0.28248152 1.9317503 10645585
1.9860593 -0.28248152 1.9317503 10513743
2.2161064 -0.31221643 2.1350925 10711124
2.5002818 -0.34894776 2.3862798 10644818
3.0645404 -0.42372227 2.8976254 10513744
3.6085281 -0.49434265 3.380563 10579281
3.6417592 -0.49434265 3.380563 10383446
3.6749904 -0.49434265 3.380563 10448982
4.4498658 -0.59321123 4.0566759 10512977
2.8060894 -0.37075698 2.5354223 10512977
4.1178365 -0.53928292 3.687887 10185554
3.5149984 -0.45631632 3.1205199 9792336
4.609375 -0.59321123 4.0566759 9988943
4.6492524 -0.59321123 4.0566759 9923407
4.6891298 -0.59321123 4.0566759 9725256
4.2990971 -0.53928292 3.687887 10119759
3.9740701 -0.49434265 3.380563 10118991
4.0073013 -0.49434265 3.380563 10185554
4.4078536 -0.53928292 3.687887 10251602
4.4441056 -0.53928292 3.687887 10447952
4.4803576 -0.53928292 3.687887 9988686
4.9682708 -0.59321123 4.0566759 9857616
6.2601852 -0.74151397 5.0708447 9726289
10.096051 -1.1864225 8.1133518 9922641
0 0 0 9856848
0 0 0 9922897
0 0 0 9856846
0 0 0 9922637
0 0 0 10053968
0 0 0 10185804
0 0 0 10514767
-4.0346217 -0.46111158 3.380563 11564886
-4.0013905 -0.46111158 3.380563 11631447
-3.9681594 -0.46111158 3.380563 12222812
-3.6322417 -0.42564148 3.1205199 12157020
-3.601567 -0.42564148 3.1205199 12156763
-3.5708921 -0.42564148 3.1205199 12156507
-4.1838932 -0.50303078 3.687887 12222044
-3.8020041 -0.46111158 3.380563 12353628
-3.7687731 -0.46111158 3.380563 11828824
-3.7355418 -0.46111158 3.380563 12420191
-3.7023108 -0.46111158 3.380563 12223064
-3.6690798 -0.46111158 3.380563 12486238
-3.3561683 -0.42564148 3.1205199 12551774
-3.3254933 -0.42564148 3.1205199 12617567
-3.2948184 -0.42564148 3.1205199 12486238
-3.2641437 -0.42564148 3.1205199 12093280
-3.5029244 -0.46111158 3.380563 12157271
-3.4696932 -0.46111158 3.380563 11104074
-4.5819497 -0.61481547 4.5074177 9920578
-4.5376415 -0.61481547 4.5074177 9462085
-4.4933338 -0.61481547 4.5074177 9067583
-4.4490256 -0.61481547 4.5074177 9197885
-4.4047174 -0.61481547 4.5074177 9329725
-4.3604093 -0.61481547 4.5074177 9133629
-4.3161011 -0.61481547 4.5074177 9001791
-4.2717929 -0.61481547 4.5074177 9395266
-4.2274847 -0.61481547 4.5074177 9198657
-4.183177 -0.61481547 4.5074177 9854786
-4.1388688 -0.61481547 4.5074177 10775887
-4.0945606 -0.61481547 4.5074177 11630416
-4.0502524 -0.61481547 4.5074177 11762513
-4.0059443 -0.61481547 4.5074177 11499340
-3.9616363 -0.61481547 4.5074177 11828306
-3.5255952 -0.55333394 4.0566759 12089681
-3.485718 -0.55333394 4.0566759 11958867
-3.4458406 -0.55333394 4.0566759 12155219
-2.8383026 -0.46111158 3.380563 12155216
-2.5892968 -0.42564148 3.1205199 11959633
-2.5586221 -0.42564148 3.1205199 12025426
-1.3145325 -0.22133356 1.6226703 12024656
-1.2486362 -0.21282074 1.5602599 11958607
-1.2332988 -0.21282074 1.5602599 11630415
-1.130964 -0.19761924 1.4488127 11828050
-0.86856174 -0.15370387 1.1268544 12089936
-0.75291336 -0.13495949 0.98943311 11893329
-0.66240597 -0.12028997 0.88188601 12222037
-0.57830584 -0.10641037 0.78012997 12025430
-0.5598703 -0.10440262 0.76541048 12156246
-0.54211771 -0.10246924 0.75123626 12352853
-0.49785486 -0.09540239 0.69942683 12287830
-0.49097946 -0.09540239 0.69942683 12287060
-0.48410407 -0.09540239 0.69942683 12222807
-0.47722867 -0.09540239 0.69942683 12483409
-0.47035328 -0.09540239 0.69942683 12484953
-0.45562235 -0.093785405 0.68757218 12354395
-0.44138238 -0.092222311 0.67611259 12615765
-0.42760935 -0.090710476 0.66502881 12484691
-0.4210721 -0.090710476 0.66502881 9855297
-0.41453484 -0.090710476 0.66502881 4927018
-0.40141696 -0.089247398 0.65430254 4401701
-0.39498514 -0.089247398 0.65430254 3153437
-0.38855332 -0.089247398 0.65430254 2495256
-0.3821215 -0.089247398 0.65430254 2232598
-0.37568969 -0.089247398 0.65430254 2494742
-0.36925787 -0.089247398 0.65430254 2626584
-0.36282602 -0.089247398 0.65430254 3283227
-0.35073715 -0.087830774 0.64391679 3349277
-0.34440744 -0.087830774 0.64391679 3677216
-0.33807769 -0.087830774 0.64391679 3874079
-0.33174798 -0.087830774 0.64391679 3742492
-0.32541823 -0.087830774 0.64391679 2494483
-0.31908849 -0.087830774 0.64391679 1706254
-0.31275877 -0.087830774 0.64391679 1772045
-0.31137145 -0.089247398 0.65430254 1508873
-0.30493963 -0.089247398 0.65430254 1311753
-0.29850781 -0.089247398 0.65430254 1772815
-0.29207596 -0.089247398 0.65430254 3019282
-0.28564414 -0.089247398 0.65430254 2558220
-0.27921233 -0.089247398 0.65430254 3676959
-0.27278051 -0.089247398 0.65430254 4333087
-0.26634869 -0.089247398 0.65430254 3674128
-0.2641778 -0.090710476 0.66502881 3084048
-0.25764054 -0.090710476 0.66502881 2492940
-0.26409134 -0.09540239 0.69942683 1902346
-0.26172853 -0.097076125 0.71169752 1442567
-0.2639955 -0.10060616 0.73757738 983559
-0.25216034 -0.098809622 0.72440636 917766
-0.24074048 -0.097076125 0.71169752 917766
-0.23374446 -0.097076125 0.71169752 917512
-0.2307975 -0.098809622 0.72440636 786950
-0.2277434 -0.10060616 0.73757738 1049352
-0.22457621 -0.10246924 0.75123626 2759712
-0.22128946 -0.10440262 0.76541048 7093796
-0.21787633 -0.10641037 0.78012997 9987142
-0.2186159 -0.11066678 0.81133515 9986107
-0.21493924 -0.11292528 0.82789302 8608842
-0.20680101 -0.11292528 0.82789302 8216402
-0.19468953 -0.11066678 0.81133515 8281939
-0.18671407 -0.11066678 0.81133515 8216404
-0.18238634 -0.11292528 0.82789302 8019540
0 0 0 7954515
0 0 0 8150612
0 0 0 8216149
0 0 0 7756882
0 0 0 7954257
0 0 0 7624779
0 0 0 10515544
0 0 0 11828308
0 0 0 12550234
0 0 0 12681303
-0.75840443 -0.92222315 6.761126 12945758
-0.69194227 -0.92222315 6.761126 13208412
-0.62548012 -0.92222315 6.761126 13733213
-0.67082155 -1.1066679 8.1133518 14060890
-0.59106696 -1.1066679 8.1133518 14390111
-0.42609358 -0.92222315 6.761126 11497281
-0.26972356 -0.69166738 5.0708447 14324321
-0.19544616 -0.61481547 4.5074177 14784611
-0.22670706 -0.92222315 6.761126 14850148
-0.19229387 -1.1066679 8.1133518 14982243
-0.11253926 -1.1066679 8.1133518 14916965
-0.032784648 -1.1066679 8.1133518 15113059
0.033549972 -0.79047698 5.7952509 15244131
0.07040254 -0.61481547 4.5074177 15377255
0.1032396 -0.55333394 4.0566759 15244904
0.14311691 -0.55333394 4.0566759 15112798
0.2033269 -0.61481547 4.5074177 14916452
0.37145251 -0.92222315 6.761126 15113320
0.37535542 -0.79047698 5.7952509 14455649
0.43232301 -0.79047698 5.7952509 1640461
0.42812929 -0.69166738 5.0708447 1246474
0.4779759 -0.69166738 5.0708447 985099
0.52782255 -0.69166738 5.0708447 1049352
0.57766914 -0.69166738 5.0708447 918536
0.62751579 -0.69166738 5.0708447 852743
0.67736244 -0.69166738 5.0708447 1115145
0.72720903 -0.69166738 5.0708447 918282
0.77705568 -0.69166738 5.0708447 918536
0.82690233 -0.69166738 5.0708447 984329
1.0019988 -0.79047698 5.7952509 1180681
1.0589664 -0.79047698 5.7952509 1115145
1.1159339 -0.79047698 5.7952509 1049351
1.0262889 -0.69166738 5.0708447 3877156
1.0761355 -0.69166738 5.0708447 7292468
1.2868366 -0.79047698 5.7952509 8540988
1.3438042 -0.79047698 5.7952509 10251339
1.2256753 -0.69166738 5.0708447 11959120
1.275522 -0.69166738 5.0708447 12615512
1.3253686 -0.69166738 5.0708447 12615766
1.3752153 -0.69166738 5.0708447 13272154
1.4250619 -0.69166738 5.0708447 13076827
1.3110299 -0.61481547 4.5074177 13404250
1.355338 -0.61481547 4.5074177 13339229
1.399646 -0.61481547 4.5074177 13733216
1.4439542 -0.61481547 4.5074177 13601888
1.4882623 -0.61481547 4.5074177 13601629
1.5325705 -0.61481547 4.5074177 14258272
1.7739882 -0.69166738 5.0708447 14062433
1.6211867 -0.61481547 4.5074177 14128485
1.6654948 -0.61481547 4.5074177 13996642
1.5388227 -0.55333394 4.0566759 14258785
1.5786999 -0.55333394 4.0566759 14062436
1.2450594 -0.42564148 3.1205199 14390628
1.2757342 -0.42564148 3.1205199 14128226
1.3064091 -0.42564148 3.1205199 14324065
1.2415779 -0.39523849 2.8976254 14061922
1.2700616 -0.39523849 2.8976254 14258789
1.5149697 -0.46111158 3.380563 14259047
1.4291085 -0.42564148 3.1205199 13930852
1.4597833 -0.42564148 3.1205199 14126688
1.3839968 -0.39523849 2.8976254 14194019
1.647894 -0.46111158 3.380563 14192480
1.6811252 -0.46111158 3.380563 14127458
1.7143562 -0.46111158 3.380563 13865313
1.6131576 -0.42564148 3.1205199 13864802
1.6438324 -0.42564148 3.1205199 14126948
1.8140495 -0.46111158 3.380563 13799268
1.8472806 -0.46111158 3.380563 13602659
1.8805116 -0.46111158 3.380563 13536608
1.9137428 -0.46111158 3.380563 13340000
1.9469738 -0.46111158 3.380563 13273950
1.9802049 -0.46111158 3.380563 13535585
2.0134361 -0.46111158 3.380563 13011039
2.0466671 -0.46111158 3.380563 13339999
2.2689798 -0.50303078 3.687887 13009500
1.4916207 -0.32549053 2.3862798 9921094
1.2878163 -0.27666697 2.028338 8015680
1.3765841 -0.29122835 2.1350925 3875100
1.3975722 -0.29122835 2.1350925 2035987
1.4185603 -0.29122835 2.1350925 1641489
1.3024484 -0.26349232 1.9317503 1510419
1.3214376 -0.26349232 1.9317503 1313294
1.3404268 -0.26349232 1.9317503 1444367
1.359416 -0.26349232 1.9317503 1312524
1.3784052 -0.26349232 1.9317503 1247247
1.3973943 -0.26349232 1.9317503 1312781
1.4872029 -0.27666697 2.028338 1181454
1.5864646 -0.29122835 2.1350925 1115661
2.1815429 -0.39523849 2.8976254 1247247
2.2100267 -0.39523849 2.8976254 1181454
1.9586967 -0.34583369 2.5354223 1181709
1.98362 -0.34583369 2.5354223 1313040
2.4720535 -0.42564148 3.1205199 1247249
2.5027282 -0.42564148 3.1205199 1247247
2.5334032 -0.42564148 3.1205199 1247247
2.3809295 -0.39523849 2.8976254 1115663
2.4094131 -0.39523849 2.8976254 1050642
2.0076799 -0.32549053 2.3862798 1181712
1.9182963 -0.30740774 2.2537088 1116175
1.9404503 -0.30740774 2.2537088 1115919
1.9626044 -0.30740774 2.2537088 1312527
1.9847585 -0.30740774 2.2537088 1115663
2.0069125 -0.30740774 2.2537088 1181454
1.9222735 -0.29122835 2.1350925 1115915
1.8460985 -0.27666697 2.028338 1049867
1.7771782 -0.26349232 1.9317503 1114893
1.7145234 -0.25151539 1.8439435 919052
1.4660881 -0.21282074 1.5602599 1049868
1.4265579 -0.20493849 1.5024725 918795
1.4413272 -0.20493849 1.5024725 919051
1.4560966 -0.20493849 1.5024725 984589
1.470866 -0.20493849 1.5024725 3286051
1.6044862 -0.22133356 1.6226703 9856590
1.6204371 -0.22133356 1.6226703 10579792
1.7045708 -0.23055579 1.6902815 10579536
1.9670701 -0.26349232 1.9317503 10579025
1.8957839 -0.25151539 1.8439435 10448210
2.0050485 -0.26349232 1.9317503 10251602
2.2370944 -0.29122835 2.1350925 10119759
2.2580824 -0.29122835 2.1350925 10316366
2.5471964 -0.32549053 2.3862798 10381903
2.5706537 -0.32549053 2.3862798 10447440
2.594111 -0.32549053 2.3862798 10185041
2.617568 -0.32549053 2.3862798 10119505
2.6410253 -0.32549053 2.3862798 10185554
2.6644826 -0.32549053 2.3862798 10250062
2.6879399 -0.32549053 2.3862798 9988686
3.5456731 -0.42564148 3.1205199 9988173
4.226593 -0.50303078 3.687887 9988171
4.262845 -0.50303078 3.687887 9988686
4.2990971 -0.50303078 3.687887 10250573
4.3353491 -0.50303078 3.687887 10119761
4.3716011 -0.50303078 3.687887 9988431
4.4078536 -0.50303078 3.687887 10053453
4.8885164 -0.55333394 4.0566759 10381646
6.1604919 -0.69166738 5.0708447 10119759
5.5203009 -0.61481547 4.5074177 9988431
6.2601852 -0.69166738 5.0708447 10053201
6.3100319 -0.69166738 5.0708447 9988688
0 0 0 9857361
0 0 0 9791824
0 0 0 9857616
0 0 0 9857616
0 0 0 9660750
0 0 0 10251339
0 0 0 10712147
-4.8415465 -0.51345658 4.0566759 11302485
-4.8016691 -0.51345658 4.0566759 11827541
-4.3289013 -0.4667787 3.687887 11630677
-3.9349284 -0.42788047 3.380563 11894364
-3.601567 -0.3949666 3.1205199 11894365
-3.5708921 -0.3949666 3.1205199 11959389
-3.8352351 -0.42788047 3.380563 12222559
-4.1476407 -0.4667787 3.687887 12352601
-3.7687731 -0.42788047 3.380563 12418135
-3.7355418 -0.42788047 3.380563 12157793
-3.7023108 -0.42788047 3.380563 12288348
-3.6690798 -0.42788047 3.380563 12355427
-3.3561683 -0.3949666 3.1205199 12288863
-3.6026175 -0.42788047 3.380563 12551775
-3.5693865 -0.42788047 3.380563 12682073
-3.2641437 -0.3949666 3.1205199 12616538
-3.5029244 -0.42788047 3.380563 12551000
-3.4696932 -0.42788047 3.380563 11169351
-4.123755 -0.51345658 4.0566759 9986884
-4.5376415 -0.57050735 4.5074177 9396033
-4.4933338 -0.57050735 4.5074177 9001789
-4.4490256 -0.57050735 4.5074177 8804926
-3.9642456 -0.51345658 4.0566759 8935998
-4.3604093 -0.57050735 4.5074177 9067071
-4.3161011 -0.57050735 4.5074177 8935999
-4.2717929 -0.57050735 4.5074177 8673341
-4.2274847 -0.57050735 4.5074177 8935999
-4.183177 -0.57050735 4.5074177 9068098
-4.1388688 -0.57050735 4.5074177 9726280
-4.0945606 -0.57050735 4.5074177 10775371
-4.0502524 -0.57050735 4.5074177 11105102
-4.0059443 -0.57050735 4.5074177 11695952
-3.9616363 -0.57050735 4.5074177 11695695
-3.9173281 -0.57050735 4.5074177 11958867
-3.485718 -0.51345658 4.0566759 11893072
-3.4458406 -0.51345658 4.0566759 11762256
-2.8383026 -0.42788047 3.380563 11762255
-2.5892968 -0.3949666 3.1205199 11630928
-2.5586221 -0.3949666 3.1205199 11564624
-1.3145325 -0.20538263 1.6226703 11762000
-1.2486362 -0.1974833 1.5602599 12089682
-1.2332988 -0.1974833 1.5602599 11827532
-1.130964 -0.18337734 1.4488127 11958867
-1.0782145 -0.17705399 1.3988537 11828054
-0.7717362 -0.12836415 1.014169 12024919
-0.74318719 -0.12523331 0.98943311 11959637
-0.66826445 -0.11410146 0.90148348 12089683
-0.5598703 -0.096878596 0.76541048 12090451
-0.54211771 -0.095084555 0.75123626 12221522
-0.49785486 -0.088526994 0.69942683 12155988
-0.48265779 -0.087026544 0.68757218 12155988
-0.48410407 -0.088526994 0.69942683 12090196
-0.46914008 -0.087026544 0.68757218 12484435
-0.46238121 -0.087026544 0.68757218 12221778
-0.44802859 -0.085576095 0.67611259 12091221
-0.44138238 -0.085576095 0.67611259 12616020
-0.43473616 -0.085576095 0.67611259 12681303
-0.43534574 -0.087026544 0.68757218 12287829
-0.41453484 -0.08417321 0.66502881 6370598
-0.40141696 -0.08281558 0.65430254 2954259
-0.39498514 -0.08281558 0.65430254 1970197
-0.38855332 -0.08281558 0.65430254 2627613
-0.3821215 -0.08281558 0.65430254 2757656
-0.37568969 -0.08281558 0.65430254 2691864
-0.36925787 -0.08281558 0.65430254 2363926
-0.36282602 -0.08281558 0.65430254 2494997
-0.35073715 -0.081501044 0.64391679 3021599
-0.34440744 -0.081501044 0.64391679 3546655
-0.33807769 -0.081501044 0.64391679 3874592
-0.33174798 -0.081501044 0.64391679 3677212
-0.32541823 -0.081501044 0.64391679 3282711
-0.31908849 -0.081501044 0.64391679 2099727
-0.31275877 -0.081501044 0.64391679 1903118
-0.30642903 -0.081501044 0.64391679 1639946
-0.30493963 -0.08281558 0.65430254 1574668
-0.29850781 -0.08281558 0.65430254 2231313
-0.29207596 -0.08281558 0.65430254 2822161
-0.28564414 -0.08281558 0.65430254 3019029
-0.27921233 -0.08281558 0.65430254 3480351
-0.27278051 -0.08281558 0.65430254 4069656
-0.26634869 -0.08281558 0.65430254 2821390
-0.2641778 -0.08417321 0.66502881 3215634
-0.25764054 -0.08417321 0.66502881 3150097
-0.26409134 -0.088526994 0.69942683 1836807
-0.25721595 -0.088526994 0.69942683 983301
-0.2639955 -0.093355738 0.73757738 983302
-0.25216034 -0.09168867 0.72440636 852229
-0.2450394 -0.09168867 0.72440636 721158
-0.23791845 -0.09168867 0.72440636 852489
-0.2307975 -0.09168867 0.72440636 852489
-0.2277434 -0.093355738 0.73757738 1180937
-0.22881347 -0.096878596 0.76541048 2166803
-0.22128946 -0.096878596 0.76541048 8541241
-0.21787633 -0.098741651 0.78012997 8803898
-0.22307746 -0.10478706 0.82789302 8869687
-0.21941712 -0.10697012 0.84514076 9923918
-0.21110936 -0.10697012 0.84514076 8413268
-0.19866279 -0.10478706 0.82789302 8281941
-0.19052456 -0.10478706 0.82789302 8151123
0 0 0 8151637
0 0 0 8085587
0 0 0 8216146
0 0 0 8019796
0 0 0 8151123
0 0 0 7952976
0 0 0 9333336
0 0 0 10777687
0 0 0 11368275
0 0 0 12156244
-0.98984003 -1.0269132 8.1133518 12485209
-0.75840443 -0.85576093 6.761126 12879967
-0.69194227 -0.85576093 6.761126 13404508
-0.62548012 -0.85576093 6.761126 13667934
-0.5590179 -0.85576093 6.761126 13865311
-0.49255574 -0.85576093 6.761126 14258785
-0.42609358 -0.85576093 6.761126 10971966
-0.26972356 -0.64182073 5.0708447 14586978
-0.21987693 -0.64182073 5.0708447 14522469
-0.22670706 -0.85576093 6.761126 14586979
-0.16024488 -0.85576093 6.761126 14718562
-0.093782708 -0.85576093 6.761126 15047782
-0.02732054 -0.85576093 6.761126 15178341
0.039141633 -0.85576093 6.761126 15309670
0.063362285 -0.51345658 4.0566759 15113320
0.1032396 -0.51345658 4.0566759 15507560
0.14311691 -0.51345658 4.0566759 14916454
0.2033269 -0.57050735 4.5074177 15178341
0.27858937 -0.64182073 5.0708447 14719073
0.32843602 -0.64182073 5.0708447 14258270
0.37828264 -0.64182073 5.0708447 1443853
0.42812929 -0.64182073 5.0708447 1180938
0.4779759 -0.64182073 5.0708447 1180938
0.52782255 -0.64182073 5.0708447 1049352
0.57766914 -0.64182073 5.0708447 918535
0.62751579 -0.64182073 5.0708447 918536
0.67736244 -0.64182073 5.0708447 1181708
0.72720903 -0.64182073 5.0708447 1114888
0.77705568 -0.64182073 5.0708447 1378316
0.82690233 -0.64182073 5.0708447 1313294
0.87674892 -0.64182073 5.0708447 1773074
1.0589664 -0.73350936 5.7952509 1575695
1.1159339 -0.73350936 5.7952509 1247501
1.1729015 -0.73350936 5.7952509 2890524
1.0761355 -0.64182073 5.0708447 6373165
1.125982 -0.64182073 5.0708447 7884342
1.1758287 -0.64182073 5.0708447 9659721
1.2256753 -0.64182073 5.0708447 10381126
1.275522 -0.64182073 5.0708447 11762513
1.514707 -0.73350936 5.7952509 12156502
1.5716746 -0.73350936 5.7952509 12943962
1.4250619 -0.64182073 5.0708447 13404765
1.3110299 -0.57050735 4.5074177 13207646
1.355338 -0.57050735 4.5074177 13208156
1.399646 -0.57050735 4.5074177 13208668
1.4439542 -0.57050735 4.5074177 13536094
1.6742951 -0.64182073 5.0708447 13667680
1.5325705 -0.57050735 4.5074177 13930595
1.7739882 -0.64182073 5.0708447 13799266
1.6211867 -0.57050735 4.5074177 13799520
1.6654948 -0.57050735 4.5074177 14126686
1.5388227 -0.51345658 4.0566759 13996898
1.5786999 -0.51345658 4.0566759 14128485
1.4714338 -0.4667787 3.687887 14194021
1.2757342 -0.3949666 3.1205199 14062438
1.3064091 -0.3949666 3.1205199 14061411
1.3370839 -0.3949666 3.1205199 13996640
1.2700616 -0.36675468 2.8976254 14128225
1.2985455 -0.36675468 2.8976254 14127976
1.1611506 -0.32091036 2.5354223 14062433
1.2651454 -0.34230438 2.7044504 14061920
1.3839968 -0.36675468 2.8976254 14128228
1.5211331 -0.3949666 3.1205199 13931619
1.6811252 -0.42788047 3.380563 13865312
1.7143562 -0.42788047 3.380563 13865315
1.6131576 -0.3949666 3.1205199 13996645
1.7808183 -0.42788047 3.380563 13798749
1.8140495 -0.42788047 3.380563 13733214
1.8472806 -0.42788047 3.380563 13864802
1.8805116 -0.42788047 3.380563 13537120
1.9137428 -0.42788047 3.380563 13733216
1.9469738 -0.42788047 3.380563 13799009
1.9802049 -0.42788047 3.380563 13536094
2.0134361 -0.42788047 3.380563 13470303
0 0 0 13338460
0 0 0 12482902
1.334608 -0.27024031 2.1350925 2427916
1.2878163 -0.25672829 2.028338 1312780
1.3765841 -0.27024031 2.1350925 1246989
1.3276936 -0.25672829 2.028338 1247247
1.3476323 -0.25672829 2.028338 1312784
1.3024484 -0.24450313 1.9317503 1116431
1.3214376 -0.24450313 1.9317503 1247249
1.3404268 -0.24450313 1.9317503 1051153
1.359416 -0.24450313 1.9317503 1050638
1.3784052 -0.24450313 1.9317503 1050638
1.3973943 -0.24450313 1.9317503 1247247
1.4872029 -0.25672829 2.028338 1116433
1.5071415 -0.25672829 2.028338 1247504
1.6074528 -0.27024031 2.1350925 1181453
1.7189097 -0.28525367 2.2537088 1116173
1.9586967 -0.32091036 2.5354223 1181968
1.98362 -0.32091036 2.5354223 1247247
2.0085433 -0.32091036 2.5354223 1116431
2.0334666 -0.32091036 2.5354223 1247246
2.1956158 -0.34230438 2.7044504 1247247
2.2222006 -0.34230438 2.7044504 984847
2.1082366 -0.32091036 2.5354223 1181454
2.0076799 -0.30203328 2.3862798 1115918
1.9182963 -0.28525367 2.2537088 1181454
1.9404503 -0.28525367 2.2537088 1181454
1.9626044 -0.28525367 2.2537088 1115404
1.9847585 -0.28525367 2.2537088 984333
2.0069125 -0.28525367 2.2537088 1181453
1.82616 -0.25672829 2.028338 984843
1.758189 -0.24450313 1.9317503 984331
1.7771782 -0.24450313 1.9317503 918282
1.7961674 -0.24450313 1.9317503 984075
1.6573169 -0.22324198 1.763772 787466
1.4814255 -0.1974833 1.5602599 787466
1.4413272 -0.19016911 1.5024725 853259
1.4560966 -0.19016911 1.5024725 918282
1.470866 -0.19016911 1.5024725 3679267
1.5427752 -0.1974833 1.5602599 9658956
1.6204371 -0.20538263 1.6226703 10316877
1.7045708 -0.21394023 1.6902815 10513745
1.7211864 -0.21394023 1.6902815 10512976
1.6682899 -0.20538263 1.6226703 10578511
1.9139099 -0.23338935 1.8439435 10579281
1.932036 -0.23338935 1.8439435 10513746
2.0430269 -0.24450313 1.9317503 10513231
2.165117 -0.25672829 2.028338 10578764
2.1850557 -0.25672829 2.028338 10512972
2.3210466 -0.27024031 2.1350925 10513487
2.3420346 -0.27024031 2.1350925 10184782
2.2448716 -0.25672829 2.028338 10119249
2.2648103 -0.25672829 2.028338 9988177
2.284749 -0.25672829 2.028338 10118991
2.3046875 -0.25672829 2.028338 9594447
2.9057827 -0.32091036 2.5354223 9660240
3.607023 -0.3949666 3.1205199 9791568
3.9408391 -0.42788047 3.380563 9857358
3.9740701 -0.42788047 3.380563 9923407
4.8087616 -0.51345658 4.0566759 9792336
4.848639 -0.51345658 4.0566759 10054737
0 0 0 10054479
0 0 0 10120270
0 0 0 10250573
0 0 0 9791309
0 0 0 9791055
0 0 0 9857103
0 0 0 9659979
0 0 0 9594443
0 0 0 9660493
0 0 0 9726285
0 0 0 10119757
0 0 0 10841679
-4.8415465 -0.47357929 4.0566759 11236952
-4.8016691 -0.47357929 4.0566759 11892822
-4.3289013 -0.43052661 3.687887 11828825
-4.2926493 -0.43052661 3.687887 11829083
-4.2563972 -0.43052661 3.687887 11697242
-4.2201452 -0.43052661 3.687887 11762778
-4.1838932 -0.43052661 3.687887 11829083
-4.1476407 -0.43052661 3.687887 11894362
-4.1113887 -0.43052661 3.687887 11960155
-4.0751367 -0.43052661 3.687887 11828827
-4.0388846 -0.43052661 3.687887 12026718
-4.0026326 -0.43052661 3.687887 12026205
-3.6358488 -0.39464939 3.380563 12289379
-3.6026175 -0.39464939 3.380563 12288605
-3.5693865 -0.39464939 3.380563 12682589
-3.5361555 -0.39464939 3.380563 12813404
-3.5029244 -0.39464939 3.380563 12616792
-3.4696932 -0.39464939 3.380563 10907203
-3.7488678 -0.43052661 3.687887 9724222
-4.0838776 -0.47357929 4.0566759 9133117
-4.4933338 -0.52619922 4.5074177 9001276
-4.4490256 -0.52619922 4.5074177 8607290
-3.9642456 -0.47357929 4.0566759 8738622
-4.3604093 -0.52619922 4.5074177 8541754
-4.3161011 -0.52619922 4.5074177 8541756
-4.2717929 -0.52619922 4.5074177 8870205
-4.2274847 -0.52619922 4.5074177 8739133
-4.183177 -0.52619922 4.5074177 9002307
-4.1388688 -0.52619922 4.5074177 9396549
-4.0945606 -0.52619922 4.5074177 9921606
-4.0502524 -0.52619922 4.5074177 10776142
-4.0059443 -0.52619922 4.5074177 11368013
-3.9616363 -0.52619922 4.5074177 11565391
-3.9173281 -0.52619922 4.5074177 11368012
-3.8730199 -0.52619922 4.5074177 11367759
-3.8287117 -0.52619922 4.5074177 11433807
-3.4059634 -0.47357929 4.0566759 11499340
-2.5892968 -0.36429176 3.1205199 11695437
-2.3758633 -0.3382709 2.8976254 11499089
-2.053957 -0.29598704 2.5354223 11630672
-1.2486362 -0.18214588 1.5602599 11826509
-1.145206 -0.16913545 1.4488127 11958094
-1.130964 -0.16913545 1.4488127 11695695
-1.0782145 -0.1633032 1.3988537 11564625
-0.96467024 -0.14799352 1.2677112 11630672
-0.84640765 -0.13154981 1.1268544 12025428
-0.68345231 -0.10763165 0.92197174 12089166
-0.6743893 -0.10763165 0.92197174 11959377
-0.54211771 -0.087699868 0.75123626 12090964
-0.50658917 -0.083084084 0.71169752 12287059
-0.49097946 -0.081651598 0.69942683 11958863
-0.48410407 -0.081651598 0.69942683 12220754
-0.46914008 -0.080267675 0.68757218 12680785
-0.46238121 -0.080267675 0.68757218 12091219
-0.45562235 -0.080267675 0.68757218 12025430
-0.44138238 -0.078929879 0.67611259 12353881
-0.43473616 -0.078929879 0.67611259 12222037
-0.42808995 -0.078929879 0.67611259 12747608
-0.42144373 -0.078929879 0.67611259 11038789
-0.41479751 -0.078929879 0.67611259 2557443
-0.39498514 -0.076383755 0.65430254 1970197
-0.38855332 -0.076383755 0.65430254 2034961
-0.3821215 -0.076383755 0.65430254 1575439
-0.37568969 -0.076383755 0.65430254 1772048
-0.36925787 -0.076383755 0.65430254 2363669
-0.36282602 -0.076383755 0.65430254 1838354
-0.3563942 -0.076383755 0.65430254 2628126
-0.34440744 -0.075171314 0.64391679 3940130
-0.33807769 -0.075171314 0.64391679 3940899
-0.33174798 -0.075171314 0.64391679 3677210
-0.32541823 -0.075171314 0.64391679 3676697
-0.31908849 -0.075171314 0.64391679 2953489
-0.31275877 -0.075171314 0.64391679 1903116
-0.30642903 -0.075171314 0.64391679 1969424
-0.30009931 -0.075171314 0.64391679 1902605
-0.29850781 -0.076383755 0.65430254 2231564
-0.29207596 -0.076383755 0.65430254 3544342
-0.28564414 -0.076383755 0.65430254 3281941
-0.27921233 -0.076383755 0.65430254 3611420
-0.27278051 -0.076383755 0.65430254 3412497
-0.26634869 -0.076383755 0.65430254 3280912
-0.2641778 -0.077635951 0.66502881 3215377
-0.25764054 -0.077635951 0.66502881 3083791
-0.25961524 -0.080267675 0.68757218 2691346
-0.25721595 -0.081651598 0.69942683 1903116
-0.25928131 -0.084567726 0.72440636 1378059
-0.25216034 -0.084567726 0.72440636 918022
-0.2450394 -0.084567726 0.72440636 655367
-0.23791845 -0.084567726 0.72440636 852743
-0.2307975 -0.084567726 0.72440636 852489
-0.23196089 -0.087699868 0.75123626 1180684
-0.22457621 -0.087699868 0.75123626 1837325
-0.22554503 -0.091072939 0.78012997 13273176
-0.23121569 -0.096648835 0.82789302 14062180
-0.22772489 -0.098662347 0.84514076 13338970
0 0 0 9988164
0 0 0 8216914
0 0 0 8150612
0 0 0 8151636
0 0 0 8019795
0 0 0 8216403
0 0 0 8347988
0 0 0 8150866
0 0 0 8151125
0 0 0 8347734
0 0 0 9661786
-0.76818985 -0.59197408 5.0708447 10776917
-0.82096368 -0.67654181 5.7952509 11828826
-0.76399612 -0.67654181 5.7952509 12223066
-0.82486659 -0.78929877 6.761126 12616795
-0.75840443 -0.78929877 6.761126 12747863
-0.69194227 -0.78929877 6.761126 12944211
-0.62548012 -0.78929877 6.761126 13340770
-0.5590179 -0.78929877 6.761126 13733216
-0.49255574 -0.78929877 6.761126 13996124
-0.36522305 -0.67654181 5.7952509 10972221
-0.26972356 -0.59197408 5.0708447 14390628
-0.25128791 -0.67654181 5.7952509 14586465
-0.27204847 -0.94715858 8.1133518 14718565
-0.16024488 -0.78929877 6.761126 14849890
-0.093782708 -0.78929877 6.761126 14850657
-0.02732054 -0.78929877 6.761126 14982501
0.029356226 -0.59197408 5.0708447 15375464
0.063362285 -0.47357929 4.0566759 15243877
0.1032396 -0.47357929 4.0566759 15244129
0.14311691 -0.47357929 4.0566759 14720361
0.2033269 -0.52619922 4.5074177 15047273
0.24763502 -0.52619922 4.5074177 14653028
0.29194313 -0.52619922 4.5074177 13274459
0.43232301 -0.67654181 5.7952509 1377036
0.42812929 -0.59197408 5.0708447 1312270
0.4779759 -0.59197408 5.0708447 1707281
0.52782255 -0.59197408 5.0708447 2759708
0.57766914 -0.59197408 5.0708447 3743773
0.62751579 -0.59197408 5.0708447 4400422
0.67736244 -0.59197408 5.0708447 4203295
0.72720903 -0.59197408 5.0708447 4531742
0.77705568 -0.59197408 5.0708447 4071191
0.82690233 -0.59197408 5.0708447 4203295
0.87674892 -0.59197408 5.0708447 5254180
1.0589664 -0.67654181 5.7952509 2951430
1.1159339 -0.67654181 5.7952509 1575438
1.1729015 -0.67654181 5.7952509 1773072
1.2298691 -0.67654181 5.7952509 1773074
1.2868366 -0.67654181 5.7952509 1509902
1.1758287 -0.59197408 5.0708447 8147526
1.2256753 -0.59197408 5.0708447 9988171
1.275522 -0.59197408 5.0708447 10644812
1.514707 -0.67654181 5.7952509 12156501
1.5716746 -0.67654181 5.7952509 12419158
1.6286421 -0.67654181 5.7952509 13272667
1.3110299 -0.52619922 4.5074177 12813914
1.355338 -0.52619922 4.5074177 12945500
1.5746018 -0.59197408 5.0708447 13207643
1.6244484 -0.59197408 5.0708447 13536351
1.6742951 -0.59197408 5.0708447 13470819
1.7241417 -0.59197408 5.0708447 13798757
1.5768785 -0.52619922 4.5074177 14060641
1.6211867 -0.52619922 4.5074177 14325605
1.6654948 -0.52619922 4.5074177 13603424
1.7098029 -0.52619922 4.5074177 13995874
1.7541111 -0.52619922 4.5074177 14062693
1.6185772 -0.47357929 4.0566759 13996897
1.6584545 -0.47357929 4.0566759 14062438
1.8870354 -0.52619922 4.5074177 13930852
1.3370839 -0.36429176 3.1205199 13733729
1.2700616 -0.3382709 2.8976254 13668450
1.2119757 -0.31571952 2.7044504 13734756
1.1611506 -0.29598704 2.5354223 13865313
1.2651454 -0.31571952 2.7044504 13865054
1.3839968 -0.3382709 2.8976254 13996131
1.4124806 -0.3382709 2.8976254 13668707
1.4409643 -0.3382709 2.8976254 13930337
1.7143562 -0.39464939 3.380563 13668449
1.7475873 -0.39464939 3.380563 13668193
1.7808183 -0.39464939 3.380563 13667680
1.8140495 -0.39464939 3.380563 13799523
1.8472806 -0.39464939 3.380563 13339487
1.8805116 -0.39464939 3.380563 13535585
1.9137428 -0.39464939 3.380563 13601635
1.9469738 -0.39464939 3.380563 13600860
1.9802049 -0.39464939 3.380563 13733216
2.0134361 -0.39464939 3.380563 13208414
1.8892312 -0.36429176 3.1205199 13272671
1.3865988 -0.26309961 2.2537088 12877655
1.334608 -0.24925226 2.1350925 1772043
1.2878163 -0.23678964 2.028338 1116431
1.307755 -0.23678964 2.028338 1247504
1.3276936 -0.23678964 2.028338 1247762
1.3476323 -0.23678964 2.028338 1115663
1.3024484 -0.22551394 1.9317503 1116174
1.3214376 -0.22551394 1.9317503 1051152
1.3404268 -0.22551394 1.9317503 1313040
1.359416 -0.22551394 1.9317503 1050640
1.3784052 -0.22551394 1.9317503 853773
1.4672642 -0.23678964 2.028338 1181454
1.4872029 -0.23678964 2.028338 1181456
1.5071415 -0.23678964 2.028338 1115661
1.6074528 -0.24925226 2.1350925 1049868
1.6284407 -0.24925226 2.1350925 1181712
1.6494288 -0.24925226 2.1350925 1116433
1.8669364 -0.27857605 2.3862798 1181965
1.6914049 -0.24925226 2.1350925 1049869
1.7123929 -0.24925226 2.1350925 1181455
1.733381 -0.24925226 2.1350925 1247247
2.0833132 -0.29598704 2.5354223 1115663
1.9842227 -0.27857605 2.3862798 1050638
1.7963452 -0.24925226 2.1350925 985102
1.8173332 -0.24925226 2.1350925 1115661
1.8383213 -0.24925226 2.1350925 1115661
1.9626044 -0.26309961 2.2537088 919052
1.9847585 -0.26309961 2.2537088 853515
1.8062212 -0.23678964 2.028338 984586
1.82616 -0.23678964 2.028338 1049610
1.758189 -0.22551394 1.9317503 1115915
1.7771782 -0.22551394 1.9317503 984329
1.7961674 -0.22551394 1.9317503 984329
1.7326494 -0.21526331 1.8439435 984330
1.6048776 -0.19732469 1.6902815 787465
1.496763 -0.18214588 1.5602599 853259
1.4560966 -0.17539974 1.5024725 983304
1.5274378 -0.18214588 1.5602599 3940894
1.5427752 -0.18214588 1.5602599 9725515
1.6204371 -0.18943171 1.6226703 10316875
1.5734501 -0.18214588 1.5602599 10513231
1.5299435 -0.17539974 1.5024725 10381904
1.5447129 -0.17539974 1.5024725 10513232
1.5594822 -0.17539974 1.5024725 10447436
1.5742517 -0.17539974 1.5024725 10316624
2.0430269 -0.22551394 1.9317503 10120014
2.062016 -0.22551394 1.9317503 9988428
1.6185597 -0.17539974 1.5024725 10119756
2.2049944 -0.23678964 2.028338 10185036
2.2249329 -0.23678964 2.028338 10250573
2.2448716 -0.23678964 2.028338 10513746
2.1569622 -0.22551394 1.9317503 10185040
2.284749 -0.23678964 2.028338 10054227
2.1949403 -0.22551394 1.9317503 9987921
1.9371884 -0.19732469 1.6902815 10184530
1.5126225 -0.15276751 1.3086051 9988688
1.4778147 -0.14799352 1.2677112 10054481
3.9740701 -0.39464939 3.380563 10185552
