# .PCD v0.7 - Point Cloud Data file format
VERSION 0.7
FIELDS x y z rgb
SIZE 4 4 4 4
TYPE F F F U
COUNT 1 1 1 1
WIDTH 1227
HEIGHT 1
VIEWPOINT 0 0 0 1 0 0 0
POINTS 1227
DATA ascii
2.2891667 -0.72426355 2.3862798 11368790
2.312624 -0.72426355 2.3862798 11498839
2.4820864 -0.76953006 2.5354223 11236692
2.8651538 -0.8794629 2.8976254 11236947
3.6828115 -1.1193165 3.687887 11368790
3.7190635 -1.1193165 3.687887 11302743
5.163559 -1.5390601 5.0708447 11236950
5.2134056 -1.5390601 5.0708447 11172181
5.2632523 -1.5390601 5.0708447 11171411
5.3130989 -1.5390601 5.0708447 11105365
5.3629456 -1.5390601 5.0708447 11105364
6.186048 -1.7589258 5.7952509 10842964
5.4626389 -1.5390601 5.0708447 10711894
6.2999835 -1.7589258 5.7952509 10645331
6.3569508 -1.7589258 5.7952509 10842195
6.4139185 -1.7589258 5.7952509 10908500
9.0592413 -2.4624963 8.1133518 10908505
9.1389961 -2.4624963 8.1133518 10646103
5.7617188 -1.5390601 5.0708447 10448722
5.8115654 -1.5390601 5.0708447 10579538
5.210144 -1.3680534 4.5074177 10513489
5.2544522 -1.3680534 4.5074177 10646102
5.9611053 -1.5390601 5.0708447 10382416
5.3430686 -1.3680534 4.5074177 10447439
6.0607986 -1.5390601 5.0708447 10579538
8.1475267 -2.0520802 6.761126 10252113
9.8567877 -2.4624963 8.1133518 10054992
9.9365416 -2.4624963 8.1133518 10055250
0 0 0 10120276
0 0 0 9922895
0 0 0 10251858
0 0 0 10251345
0 0 0 10514005
0 0 0 10119760
0 0 0 10315855
0 0 0 13011550
0 0 0 13010781
-2.8479683 -0.70080632 2.3862798 13668963
-3.4297633 -0.85097909 2.8976254 14063208
-3.6629167 -0.91643906 3.1205199 14128488
-3.6322417 -0.91643906 3.1205199 14259816
-3.601567 -0.91643906 3.1205199 14259815
-3.5708921 -0.91643906 3.1205199 14456683
-3.8352351 -0.99280894 3.380563 14457193
-3.8020041 -0.99280894 3.380563 14195307
-3.7687731 -0.99280894 3.380563 14523243
-4.0751367 -1.0830643 3.687887 14457450
-4.0388846 -1.0830643 3.687887 14523243
-4.0026326 -1.0830643 3.687887 14392173
-3.9663804 -1.0830643 3.687887 14325608
-3.9301283 -1.0830643 3.687887 14130284
-3.8938763 -1.0830643 3.687887 13735526
-3.8576241 -1.0830643 3.687887 14390628
-3.821372 -1.0830643 3.687887 13733725
-3.78512 -1.0830643 3.687887 10578499
-3.4364622 -0.99280894 3.380563 10710861
-3.7126157 -1.0830643 3.687887 11959635
-3.6763637 -1.0830643 3.687887 12484437
-3.6401114 -1.0830643 3.687887 12025430
-3.9642456 -1.1913708 4.0566759 12091479
-4.3604093 -1.3237454 4.5074177 12090964
-4.3161011 -1.3237454 4.5074177 12287059
-3.8446138 -1.1913708 4.0566759 12287830
-3.1706135 -0.99280894 3.380563 12353623
-2.8960454 -0.91643906 3.1205199 12025687
-3.1041512 -0.99280894 3.380563 12091733
-3.0709202 -0.99280894 3.380563 12156243
-3.0376892 -0.99280894 3.380563 12155985
-3.2775905 -1.0830643 3.687887 12155474
-3.5654726 -1.1913708 4.0566759 12090453
-3.5255952 -1.1913708 4.0566759 12156246
-2.9047649 -0.99280894 3.380563 11696979
-2.6506467 -0.91643906 3.1205199 11762258
-2.6199718 -0.91643906 3.1205199 11434063
-2.5892968 -0.91643906 3.1205199 11500113
-2.3758633 -0.85097909 2.8976254 11892302
-2.3473794 -0.85097909 2.8976254 11564877
-1.9096788 -0.70080632 2.3862798 11499088
-1.8862215 -0.70080632 2.3862798 11367758
-1.3768258 -0.51798725 1.763772 11367503
-1.3028425 -0.49640447 1.6902815 11235917
-1.2347779 -0.47654831 1.6226703 11498573
-1.0507129 -0.4108175 1.3988537 11235917
-0.83533067 -0.33093634 1.1268544 11366731
-0.63134313 -0.25348315 0.86312246 11367243
-0.4574118 -0.18615168 0.63385558 11300683
-0.45118096 -0.18615168 0.63385558 10973515
-0.44495013 -0.18615168 0.63385558 11104844
-0.43871933 -0.18615168 0.63385558 11104332
-0.4324885 -0.18615168 0.63385558 10972746
-0.41969985 -0.18328781 0.62410396 10775366
-0.40121967 -0.17781654 0.605474 10118210
-0.39526781 -0.17781654 0.605474 10644296
-0.38931599 -0.17781654 0.605474 10315848
-0.38917267 -0.18051071 0.61464781 8803635
-0.39510351 -0.18615168 0.63385558 4727313
-0.40799758 -0.19530669 0.66502881 3019532
-0.42963299 -0.20901242 0.71169752 1968911
-0.43018404 -0.21274477 0.72440636 1706252
-0.41564095 -0.20901242 0.71169752 1443850
-0.40864491 -0.20901242 0.71169752 1312264
-0.4088212 -0.21274477 0.72440636 1115401
-0.40170023 -0.21274477 0.72440636 1246216
-0.39457929 -0.21274477 0.72440636 1246728
-0.34440744 -0.18910646 0.64391679 1377546
-0.38033739 -0.21274477 0.72440636 1443850
0 0 0 1640461
0 0 0 1575179
0 0 0 1049093
0 0 0 918279
0 0 0 655878
-0.31510425 -0.19856179 0.67611259 720903
-0.31909454 -0.20540875 0.69942683 983559
-0.31769669 -0.20901242 0.71169752 1114888
-0.31070065 -0.20901242 0.71169752 1049098
-0.30912793 -0.21274477 0.72440636 1049094
-0.43365106 -0.30547971 1.0401733 918279
-0.30580774 -0.22062422 0.75123626 983559
-0.29842305 -0.22062422 0.75123626 918536
-0.29103836 -0.22062422 0.75123626 1049351
0 0 0 1180681
0 0 0 1508875
0 0 0 2296849
0 0 0 3479314
0 0 0 6830881
0 0 0 7751717
0 0 0 7225378
0 0 0 4461570
0 0 0 10120259
0 0 0 11366476
0 0 0 11432523
0 0 0 11038538
-1.0532023 -1.1913708 4.0566759 10841673
-0.92120445 -1.0830643 3.687887 10776136
-0.74880588 -0.91643906 3.1205199 10512452
-0.71813107 -0.91643906 3.1205199 10776395
-0.63835216 -0.85097909 2.8976254 10250050
-0.50224453 -0.70080632 2.3862798 10117956
-0.4787873 -0.70080632 2.3862798 10118723
-0.45533007 -0.70080632 2.3862798 10117186
-0.45886487 -0.74460673 2.5354223 9593413
-0.46287099 -0.79424715 2.7044504 9461311
-0.50340706 -0.91643906 3.1205199 9592127
-0.47273225 -0.91643906 3.1205199 9001793
-0.52243143 -1.0830643 3.687887 8607033
-0.59421921 -1.3237454 4.5074177 8607547
-0.54991114 -1.3237454 4.5074177 9461827
-0.50560302 -1.3237454 4.5074177 9396032
-0.46129489 -1.3237454 4.5074177 10052161
-0.41698676 -1.3237454 4.5074177 10249540
-0.37267864 -1.3237454 4.5074177 10381898
-0.32837051 -1.3237454 4.5074177 10644810
-0.25565615 -1.1913708 4.0566759 10710860
-0.21577886 -1.1913708 4.0566759 11038796
-0.17590155 -1.1913708 4.0566759 11367760
-0.13602424 -1.1913708 4.0566759 11433036
-0.0874063 -1.0830643 3.687887 11761743
-0.051154207 -1.0830643 3.687887 11761484
-0.014902112 -1.0830643 3.687887 12024915
0.019570816 -0.99280894 3.380563 12418131
0.07040254 -1.3237454 4.5074177 12484947
0.11471066 -1.3237454 4.5074177 12288082
0.15901878 -1.3237454 4.5074177 12681815
0.1829942 -1.1913708 4.0566759 12681044
0.24763502 -1.3237454 4.5074177 12418641
0.29194313 -1.3237454 4.5074177 12484436
0.33625126 -1.3237454 4.5074177 12681815
0.34250343 -1.1913708 4.0566759 12549715
0.38238075 -1.1913708 4.0566759 12550229
0.42225805 -1.1913708 4.0566759 12484695
0.46213534 -1.1913708 4.0566759 12090706
0.50201267 -1.1913708 4.0566759 12222035
0.54188997 -1.1913708 4.0566759 12353364
0.64640808 -1.3237454 4.5074177 12287317
0.62164456 -1.1913708 4.0566759 12221780
0.66152191 -1.1913708 4.0566759 12024911
0.70139921 -1.1913708 4.0566759 11959892
0.82364053 -1.3237454 4.5074177 12156754
0.86794865 -1.3237454 4.5074177 12091221
0.91225678 -1.3237454 4.5074177 12155986
0.9565649 -1.3237454 4.5074177 12286802
1.000873 -1.3237454 4.5074177 12286545
1.0451812 -1.3237454 4.5074177 12353875
0.98054034 -1.1913708 4.0566759 12419416
1.0204177 -1.1913708 4.0566759 12287321
0.81561148 -0.91643906 3.1205199 12222292
0.84628636 -0.91643906 3.1205199 12287315
0.87696117 -0.91643906 3.1205199 12550488
1.3110299 -1.3237454 4.5074177 12615767
1.0165035 -0.99280894 3.380563 12878679
1.0497345 -0.99280894 3.380563 12813659
0.99966061 -0.91643906 3.1205199 12748379
1.0303354 -0.91643906 3.1205199 13141336
1.1494278 -0.99280894 3.380563 13272667
1.1826588 -0.99280894 3.380563 12815196
1.2158899 -0.99280894 3.380563 12946014
1.1530348 -0.91643906 3.1205199 13273694
1.1837097 -0.91643906 3.1205199 13536094
1.2143846 -0.91643906 3.1205199 13470303
1.2450594 -0.91643906 3.1205199 13864802
1.1846102 -0.85097909 2.8976254 13667939
1.2130941 -0.85097909 2.8976254 13865056
1.3370839 -0.91643906 3.1205199 14126688
1.4817386 -0.99280894 3.380563 13799520
1.5149697 -0.99280894 3.380563 14062689
1.5482008 -0.99280894 3.380563 13997155
1.5814319 -0.99280894 3.380563 14259301
1.076442 -0.66187268 2.2537088 14259300
1.4124806 -0.85097909 2.8976254 14521962
1.5518079 -0.91643906 3.1205199 14259044
1.5824827 -0.91643906 3.1205199 14587497
1.6131576 -0.91643906 3.1205199 14325355
1.6438324 -0.91643906 3.1205199 14522215
1.6745073 -0.91643906 3.1205199 14391398
1.7051822 -0.91643906 3.1205199 14390887
1.735857 -0.91643906 3.1205199 14390628
1.7665318 -0.91643906 3.1205199 14129514
1.9469738 -0.99280894 3.380563 14390628
1.9802049 -0.99280894 3.380563 14521703
2.0134361 -0.99280894 3.380563 13865572
2.0466671 -0.99280894 3.380563 14456166
2.0798981 -0.99280894 3.380563 13799266
2.1131291 -0.99280894 3.380563 13865826
1.9812558 -0.91643906 3.1205199 14061411
2.0119307 -0.91643906 3.1205199 14062696
2.2128224 -0.99280894 3.380563 13996645
2.2460537 -0.99280894 3.380563 13930852
2.2792847 -0.99280894 3.380563 13996388
2.13463 -0.91643906 3.1205199 13996390
1.5638313 -0.66187268 2.2537088 13536608
1.4273869 -0.59568542 2.028338 13732964
1.5235004 -0.62703723 2.1350925 13667428
2.0960915 -0.85097909 2.8976254 13207647
2.4786713 -0.99280894 3.380563 13536866
3.0142829 -1.1913708 4.0566759 13142623
3.0541604 -1.1913708 4.0566759 13142367
0 0 0 13010268
0 0 0 13076318
1.5868961 -0.59568542 2.028338 12485978
1.5303187 -0.56731939 1.9317503 12944477
1.5493079 -0.56731939 1.9317503 13141086
1.568297 -0.56731939 1.9317503 12747869
1.6666507 -0.59568542 2.028338 12682588
1.7753571 -0.62703723 2.1350925 12551262
1.7963452 -0.62703723 2.1350925 12682595
2.0311372 -0.70080632 2.3862798 12353625
2.0545943 -0.70080632 2.3862798 12157020
2.2079298 -0.74460673 2.5354223 12025687
2.2328532 -0.74460673 2.5354223 12352855
2.2577765 -0.74460673 2.5354223 12025435
2.2826998 -0.74460673 2.5354223 11828826
2.8401515 -0.91643906 3.1205199 11698013
3.1100619 -0.99280894 3.380563 11829084
3.1432929 -0.99280894 3.380563 11697240
2.9321761 -0.91643906 3.1205199 11434070
2.2657096 -0.70080632 2.3862798 11304025
2.2891667 -0.70080632 2.3862798 11893592
2.312624 -0.70080632 2.3862798 11630677
2.8366699 -0.85097909 2.8976254 11565656
2.8651538 -0.85097909 2.8976254 11302997
3.3759105 -0.99280894 3.380563 11499865
3.7190635 -1.0830643 3.687887 11695958
4.5898304 -1.3237454 4.5074177 11433043
4.6341386 -1.3237454 4.5074177 11367764
4.6784468 -1.3237454 4.5074177 10974036
4.722755 -1.3237454 4.5074177 11039316
5.3629456 -1.4892135 5.0708447 11104596
5.4127922 -1.4892135 5.0708447 10908246
5.4626389 -1.4892135 5.0708447 11039831
5.5124855 -1.4892135 5.0708447 11170644
5.5623322 -1.4892135 5.0708447 10711378
6.4139185 -1.7019582 5.7952509 10513743
6.4708862 -1.7019582 5.7952509 10907735
5.7118721 -1.4892135 5.0708447 10841940
5.7617188 -1.4892135 5.0708447 10580308
5.1658363 -1.3237454 4.5074177 10317651
5.210144 -1.3237454 4.5074177 10447954
5.2544522 -1.3237454 4.5074177 10710356
5.2987604 -1.3237454 4.5074177 10644563
4.3716011 -1.0830643 3.687887 10710612
8.0810642 -1.9856179 6.761126 10316626
9.7770329 -2.3827417 8.1133518 10448212
9.8567877 -2.3827417 8.1133518 10514006
9.9365416 -2.3827417 8.1133518 10448726
16.693827 -3.9712358 13.522252 10249805
0 0 0 10251860
0 0 0 9988686
0 0 0 10119759
0 0 0 10119760
0 0 0 10120274
0 0 0 10382161
0 0 0 13141084
0 0 0 13535842
-2.8479683 -0.67734909 2.3862798 13602403
-3.4297633 -0.82249528 2.8976254 14062696
-3.4012797 -0.82249528 2.8976254 13865316
-3.3727958 -0.82249528 2.8976254 13931624
-3.601567 -0.88576424 3.1205199 14129003
-3.5708921 -0.88576424 3.1205199 13997930
-3.5402174 -0.88576424 3.1205199 14194278
-3.8020041 -0.95957786 3.380563 13997926
-4.1113887 -1.0468122 3.687887 13932647
-4.0751367 -1.0468122 3.687887 14195309
-4.0388846 -1.0468122 3.687887 14390628
-3.6690798 -0.95957786 3.380563 14128228
-3.6358488 -0.95957786 3.380563 14194537
-3.6026175 -0.95957786 3.380563 14063210
-3.5693865 -0.95957786 3.380563 14194540
-3.8576241 -1.0468122 3.687887 13931363
-3.5029244 -0.95957786 3.380563 13734496
-3.78512 -1.0468122 3.687887 10972484
-3.7488678 -1.0468122 3.687887 10446920
-3.7126157 -1.0468122 3.687887 11695700
-3.6763637 -1.0468122 3.687887 12419158
-3.6401114 -1.0468122 3.687887 12090964
-3.6038594 -1.0468122 3.687887 12091221
-3.9243684 -1.1514935 4.0566759 12353621
-3.884491 -1.1514935 4.0566759 12484437
-3.2038445 -0.95957786 3.380563 12485207
-3.1706135 -0.95957786 3.380563 12353621
-2.8960454 -0.88576424 3.1205199 12419928
-3.1041512 -0.95957786 3.380563 12288082
-3.0709202 -0.95957786 3.380563 12287825
-3.0376892 -0.95957786 3.380563 12352592
-3.004458 -0.95957786 3.380563 12287056
-2.9712269 -0.95957786 3.380563 12286547
-2.9379959 -0.95957786 3.380563 12221783
-2.6813214 -0.88576424 3.1205199 11762254
-2.6506467 -0.88576424 3.1205199 12023888
-2.6199718 -0.88576424 3.1205199 12025173
-2.4043469 -0.82249528 2.8976254 12024915
-2.3758633 -0.82249528 2.8976254 12089937
-1.8257397 -0.63971859 2.2537088 11761743
-1.70866 -0.60604918 2.1350925 11696722
-1.3941637 -0.50064933 1.763772 11695952
-1.2666798 -0.4605974 1.6226703 11433296
-1.0782145 -0.39706671 1.3988537 11564882
-0.8574847 -0.3198593 1.1268544 11630415
-0.82353175 -0.31121445 1.0963988 11565135
-0.52757722 -0.2020164 0.71169752 11171407
-0.46364263 -0.17992085 0.63385558 11040334
-0.4574118 -0.17992085 0.63385558 11432780
-0.44423974 -0.17715284 0.62410396 11367246
-0.43146679 -0.1744687 0.61464781 10907210
-0.41291231 -0.16933727 0.59656996 10511940
-0.40704799 -0.16933727 0.59656996 11037511
-0.40717149 -0.1718647 0.605474 10183491
-0.40121967 -0.1718647 0.605474 10118469
-0.39526781 -0.1718647 0.605474 9986367
-0.39521471 -0.1744687 0.61464781 9460278
-0.40133435 -0.17992085 0.63385558 4660482
-0.41453484 -0.18876942 0.66502881 2428171
-0.421828 -0.19516839 0.68757218 1509643
-0.43730497 -0.20562382 0.72440636 1312266
-0.43018404 -0.20562382 0.72440636 1312523
-0.41564095 -0.2020164 0.71169752 1378058
-0.37568969 -0.18572475 0.65430254 1312523
-0.36925787 -0.18572475 0.65430254 984328
-0.36282602 -0.18572475 0.65430254 1049865
-0.33994526 -0.17715284 0.62410396 1378316
-0.33381027 -0.17715284 0.62410396 1443851
-0.33279523 -0.17992085 0.63385558 1312265
0 0 0 918024
0 0 0 918023
0 0 0 983303
-0.31780326 -0.18572475 0.65430254 917766
-0.31137145 -0.18572475 0.65430254 983559
-0.30493963 -0.18572475 0.65430254 918536
-0.30340138 -0.18876942 0.66502881 983558
-0.30181181 -0.19191557 0.67611259 983559
-0.31070065 -0.2020164 0.71169752 852231
-0.30370465 -0.2020164 0.71169752 852487
-0.29670861 -0.2020164 0.71169752 983559
-0.28971261 -0.2020164 0.71169752 852489
-0.2827166 -0.2020164 0.71169752 852489
-0.25348502 -0.18572475 0.65430254 1049351
-0.25110325 -0.18876942 0.66502881 1246731
-0.26172853 -0.2020164 0.71169752 1180424
0 0 0 1378314
0 0 0 2100238
0 0 0 2494217
0 0 0 2559753
0 0 0 2822928
0 0 0 2165002
0 0 0 4137500
0 0 0 10710856
0 0 0 11629902
0 0 0 11498573
0 0 0 11104586
-1.013325 -1.1514935 4.0566759 11104584
-0.74880588 -0.88576424 3.1205199 11038792
-0.71813107 -0.88576424 3.1205199 10776648
-0.55855817 -0.71968341 2.5354223 10841159
-0.50224453 -0.67734909 2.3862798 10775368
-0.40696922 -0.57574677 2.028338 10315587
-0.38703057 -0.57574677 2.028338 10184516
-0.43187281 -0.67734909 2.3862798 10249542
-0.43394157 -0.71968341 2.5354223 9790276
-0.50340706 -0.88576424 3.1205199 9593667
-0.55868351 -1.0468122 3.687887 9132864
-0.52243143 -1.0468122 3.687887 9002303
-0.44566441 -0.95957786 3.380563 9658179
-0.49492002 -1.1514935 4.0566759 9724482
-0.50560302 -1.2794372 4.5074177 10315590
-0.46129489 -1.2794372 4.5074177 10382408
-0.41698676 -1.2794372 4.5074177 10578503
-0.37267864 -1.2794372 4.5074177 10513226
-0.32837051 -1.2794372 4.5074177 11104845
-0.28406242 -1.2794372 4.5074177 11301453
-0.23975429 -1.2794372 4.5074177 11433553
-0.17590155 -1.1514935 4.0566759 11434063
-0.13602424 -1.1514935 4.0566759 12023885
-0.0874063 -1.0468122 3.687887 12155214
-0.051154207 -1.0468122 3.687887 12221522
-0.014902112 -1.0468122 3.687887 12221781
0.019570816 -0.95957786 3.380563 12614997
0.07040254 -1.2794372 4.5074177 12945240
0.11471066 -1.2794372 4.5074177 12878419
0.15901878 -1.2794372 4.5074177 12354387
0.1829942 -1.1514935 4.0566759 12485972
0.24763502 -1.2794372 4.5074177 13010004
0.26274881 -1.1514935 4.0566759 12681811
0.30262613 -1.1514935 4.0566759 12747863
0.34250343 -1.1514935 4.0566759 12878679
0.38238075 -1.1514935 4.0566759 12616022
0.46917561 -1.2794372 4.5074177 12812887
0.5134837 -1.2794372 4.5074177 12681299
0.50201267 -1.1514935 4.0566759 12483921
0.4926272 -1.0468122 3.687887 12549714
0.58176726 -1.1514935 4.0566759 12484181
0.62164456 -1.1514935 4.0566759 12419154
0.66152191 -1.1514935 4.0566759 12288342
0.70139921 -1.1514935 4.0566759 12483923
0.7412765 -1.1514935 4.0566759 12156500
0.86794865 -1.2794372 4.5074177 12222548
0.91225678 -1.2794372 4.5074177 12288086
0.9565649 -1.2794372 4.5074177 12287829
1.000873 -1.2794372 4.5074177 12483411
1.0451812 -1.2794372 4.5074177 12418646
0.98054034 -1.1514935 4.0566759 12550230
1.0204177 -1.1514935 4.0566759 12353875
0.81561148 -0.88576424 3.1205199 12549717
0.84628636 -0.88576424 3.1205199 12878166
0.87696117 -0.88576424 3.1205199 12484435
0.90763605 -0.88576424 3.1205199 12747095
0.93831086 -0.88576424 3.1205199 12878422
0.96898574 -0.88576424 3.1205199 13207130
0.99966061 -0.88576424 3.1205199 12878939
1.0303354 -0.88576424 3.1205199 12944990
1.0610102 -0.88576424 3.1205199 13470044
1.0916852 -0.88576424 3.1205199 13208160
1.2158899 -0.95957786 3.380563 13470555
1.1530348 -0.88576424 3.1205199 13470556
1.1837097 -0.88576424 3.1205199 13733473
1.2143846 -0.88576424 3.1205199 13602657
1.2450594 -0.88576424 3.1205199 13667681
1.1846102 -0.82249528 2.8976254 13800033
1.4152764 -0.95957786 3.380563 14127971
1.4485075 -0.95957786 3.380563 14127456
1.4817386 -0.95957786 3.380563 14062433
1.5149697 -0.95957786 3.380563 14259811
1.5482008 -0.95957786 3.380563 14390628
1.5814319 -0.95957786 3.380563 14194278
1.614663 -0.95957786 3.380563 14521189
1.5211331 -0.88576424 3.1205199 14718825
1.5518079 -0.88576424 3.1205199 14653030
1.5824827 -0.88576424 3.1205199 14587236
1.6131576 -0.88576424 3.1205199 14588262
1.6438324 -0.88576424 3.1205199 14522982
1.6745073 -0.88576424 3.1205199 14062693
1.8472806 -0.95957786 3.380563 14391913
1.735857 -0.88576424 3.1205199 14522986
1.7665318 -0.88576424 3.1205199 14325348
1.7972068 -0.88576424 3.1205199 14455399
1.8278816 -0.88576424 3.1205199 14259815
2.0134361 -0.95957786 3.380563 13930597
2.0466671 -0.95957786 3.380563 14258273
2.0798981 -0.95957786 3.380563 14061665
2.1131291 -0.95957786 3.380563 14128488
1.9812558 -0.88576424 3.1205199 13865579
2.0119307 -0.88576424 3.1205199 14061922
2.2128224 -0.95957786 3.380563 13996899
2.2460537 -0.95957786 3.380563 13865060
2.2792847 -0.95957786 3.380563 13930082
2.3125157 -0.95957786 3.380563 13864033
1.6558213 -0.67734909 2.3862798 13602922
1.6792786 -0.67734909 2.3862798 13406311
1.7027358 -0.67734909 2.3862798 13077603
2.4454401 -0.95957786 3.380563 12880737
2.704005 -1.0468122 3.687887 13143136
3.0142829 -1.1514935 4.0566759 13273439
3.3935113 -1.2794372 4.5074177 13076576
0 0 0 13339235
2.6115956 -0.95957786 3.380563 12813402
1.6704168 -0.60604918 2.1350925 12616793
1.5303187 -0.54833019 1.9317503 13075805
1.6267734 -0.57574677 2.028338 12813918
1.6467121 -0.57574677 2.028338 12681822
1.6666507 -0.57574677 2.028338 12682336
1.6865894 -0.57574677 2.028338 12484959
1.7963452 -0.60604918 2.1350925 12484189
2.0311372 -0.67734909 2.3862798 12288347
2.1830065 -0.71968341 2.5354223 12419677
2.7174523 -0.88576424 3.1205199 12419161
2.2328532 -0.71968341 2.5354223 12354143
2.2577765 -0.71968341 2.5354223 12090970
2.2826998 -0.71968341 2.5354223 11893852
2.8401515 -0.88576424 3.1205199 11763036
2.8708265 -0.88576424 3.1205199 11828060
3.1432929 -0.95957786 3.380563 11763291
3.1765239 -0.95957786 3.380563 11566937
2.962851 -0.88576424 3.1205199 11500376
2.4322398 -0.71968341 2.5354223 11500376
2.312624 -0.67734909 2.3862798 11368279
2.8366699 -0.82249528 2.8976254 11499607
3.0855503 -0.88576424 3.1205199 11630937
3.1162252 -0.88576424 3.1205199 11564889
3.4091415 -0.95957786 3.380563 11236435
3.7553158 -1.0468122 3.687887 11301716
4.6341386 -1.2794372 4.5074177 10908241
4.6784468 -1.2794372 4.5074177 11040082
4.722755 -1.2794372 4.5074177 10842706
4.7670631 -1.2794372 4.5074177 10842964
4.8113713 -1.2794372 4.5074177 10908244
5.4626389 -1.4393668 5.0708447 11104596
5.5124855 -1.4393668 5.0708447 10907474
5.5623322 -1.4393668 5.0708447 10711378
5.6121788 -1.4393668 5.0708447 10580051
5.6620255 -1.4393668 5.0708447 10580310
5.07722 -1.2794372 4.5074177 10645846
5.1215281 -1.2794372 4.5074177 10776404
5.1658363 -1.2794372 4.5074177 10580562
4.6891298 -1.1514935 4.0566759 10579281
4.7290072 -1.1514935 4.0566759 10645332
4.7688847 -1.1514935 4.0566759 10382157
4.0073013 -0.95957786 3.380563 10645585
4.0405321 -0.95957786 3.380563 10251858
4.0737634 -0.95957786 3.380563 10252115
9.8567877 -2.3029871 8.1133518 10120272
8.2804508 -1.9191557 6.761126 10119759
16.693827 -3.8383114 13.522252 10120017
0 0 0 10119759
0 0 0 10119759
0 0 0 10053966
0 0 0 9922382
0 0 0 10316883
0 0 0 10250831
0 0 0 13010524
0 0 0 13141854
-3.4582472 -0.79401153 2.8976254 13602405
-3.4297633 -0.79401153 2.8976254 13799784
-3.4012797 -0.79401153 2.8976254 13668711
-3.3727958 -0.79401153 2.8976254 13799781
-3.601567 -0.85508937 3.1205199 13800039
-3.5708921 -0.85508937 3.1205199 13669480
-3.5402174 -0.85508937 3.1205199 14128231
-3.5095425 -0.85508937 3.1205199 14063208
-3.7687731 -0.92634678 3.380563 13604712
-4.0751367 -1.0105602 3.687887 13800808
-4.0388846 -1.0105602 3.687887 14194024
-3.6690798 -0.92634678 3.380563 14259560
-3.6358488 -0.92634678 3.380563 14194023
-3.6026175 -0.92634678 3.380563 14062438
-3.5693865 -0.92634678 3.380563 13800036
-3.5361555 -0.92634678 3.380563 13800547
-3.5029244 -0.92634678 3.380563 13733469
-3.78512 -1.0105602 3.687887 11498310
-4.123755 -1.1116163 4.0566759 10381893
-4.0838776 -1.1116163 4.0566759 10907727
-3.6763637 -1.0105602 3.687887 12222296
-3.6401114 -1.0105602 3.687887 12353876
-3.3035378 -0.92634678 3.380563 12354133
-3.2703068 -0.92634678 3.380563 12484438
-3.2370756 -0.92634678 3.380563 12616538
-3.2038445 -0.92634678 3.380563 12156243
-3.1706135 -0.92634678 3.380563 12419416
-3.1373823 -0.92634678 3.380563 12550232
-3.1041512 -0.92634678 3.380563 12485207
-3.0709202 -0.92634678 3.380563 12485205
-3.0376892 -0.92634678 3.380563 12484947
-3.004458 -0.92634678 3.380563 12418898
-2.9712269 -0.92634678 3.380563 12287316
-2.7119963 -0.85508937 3.1205199 12286802
-2.6813214 -0.85508937 3.1205199 12353105
-2.6506467 -0.85508937 3.1205199 12221523
-2.8383026 -0.92634678 3.380563 12156759
-2.4043469 -0.79401153 2.8976254 12090452
-1.7506361 -0.58506113 2.1350925 12025169
-1.5649196 -0.52934104 1.9317503 11696720
-1.4115016 -0.48331136 1.763772 11630929
-1.1057161 -0.38331589 1.3988537 11762258
-0.98959357 -0.34738004 1.2677112 11630415
-0.8228479 -0.29253057 1.0675462 11499601
-0.5824424 -0.2097389 0.76541048 11564882
-0.54411918 -0.19850288 0.72440636 11695695
-0.492982 -0.18223216 0.66502881 11499086
-0.46364263 -0.17369002 0.63385558 11630417
-0.45037469 -0.17101787 0.62410396 11498318
-0.43750879 -0.16842668 0.61464781 11039308
-0.4187766 -0.16347297 0.59656996 10775109
-0.40692806 -0.16110379 0.587924 10511938
-0.40704799 -0.16347297 0.59656996 10447171
-0.40118366 -0.16347297 0.59656996 10117696
-0.40121967 -0.16591287 0.605474 9789505
-0.40125671 -0.16842668 0.61464781 8868659
-0.40756518 -0.17369002 0.63385558 5713172
-0.40133435 -0.17369002 0.63385558 2559499
-0.401375 -0.176447 0.64391679 1772300
-0.40799758 -0.18223216 0.66502881 1443850
-0.43730497 -0.19850288 0.72440636 1509645
-0.39492306 -0.18223216 0.66502881 1312523
-0.37605608 -0.176447 0.64391679 1049352
-0.36972636 -0.176447 0.64391679 1050122
-0.36339661 -0.176447 0.64391679 1246730
-0.34608021 -0.17101787 0.62410396 1575436
-0.33994526 -0.17101787 0.62410396 1509645
-0.33381027 -0.17101787 0.62410396 1180938
-0.32767531 -0.17101787 0.62410396 1180937
-0.3265644 -0.17369002 0.63385558 1049609
-0.32033357 -0.17369002 0.63385558 852742
-0.31410274 -0.17369002 0.63385558 852489
-0.31275877 -0.176447 0.64391679 918023
-0.30642903 -0.176447 0.64391679 1049352
-0.30493963 -0.17929293 0.65430254 1049352
-0.29850781 -0.17929293 0.65430254 983817
-0.29686409 -0.18223216 0.66502881 852488
-0.2951656 -0.18526936 0.67611259 918023
-0.29340959 -0.18840952 0.68757218 983560
-0.29670861 -0.19502038 0.71169752 786949
-0.28471756 -0.19165795 0.69942683 983559
-0.25991684 -0.17929293 0.65430254 983559
-0.25348502 -0.17929293 0.65430254 786950
-0.24705321 -0.17929293 0.65430254 918281
-0.24864209 -0.18526936 0.67611259 1049349
-0.25034055 -0.19165795 0.69942683 1246471
-0.24346517 -0.19165795 0.69942683 1640457
-0.24074048 -0.19502038 0.71169752 1838347
-0.23374446 -0.19502038 0.71169752 1640457
-0.2307975 -0.19850288 0.72440636 1443080
-0.23196089 -0.20585485 0.75123626 1705739
-0.22457621 -0.20585485 0.75123626 1969424
-0.22996747 -0.21796395 0.79542661 7620146
-0.2221484 -0.21796395 0.79542661 11103558
0 0 0 11367244
0 0 0 11629899
0 0 0 11564365
0 0 0 11039308
0 0 0 11235660
-0.55855817 -0.69476008 2.5354223 10972745
-0.31622806 -0.4117097 1.5024725 10776651
-0.30145869 -0.4117097 1.5024725 10644554
-0.32252544 -0.46317339 1.6902815 10381895
-0.36709192 -0.55580813 2.028338 10119239
-0.46287099 -0.74107742 2.7044504 10380612
0 0 0 10184516
0 0 0 9986883
-0.52243143 -1.0105602 3.687887 9462336
-0.41138253 -0.85508937 3.1205199 9789762
-0.38070768 -0.85508937 3.1205199 10315075
-0.35003284 -0.85508937 3.1205199 10447174
-0.41516539 -1.1116163 4.0566759 10841931
-0.41698676 -1.2351291 4.5074177 10906954
-0.37267864 -1.2351291 4.5074177 11235403
-0.32837051 -1.2351291 4.5074177 11301966
-0.28406242 -1.2351291 4.5074177 11630670
-0.23975429 -1.2351291 4.5074177 12024916
-0.17590155 -1.1116163 4.0566759 12024658
-0.1236584 -1.0105602 3.687887 12221780
-0.0874063 -1.0105602 3.687887 12484181
-0.051154207 -1.0105602 3.687887 12682073
-0.014902112 -1.0105602 3.687887 13010521
0.023484983 -1.1116163 4.0566759 12944727
0.063362285 -1.1116163 4.0566759 13469529
0.1032396 -1.1116163 4.0566759 13207131
0.14311691 -1.1116163 4.0566759 13141589
0.1829942 -1.1116163 4.0566759 12878935
0.24763502 -1.2351291 4.5074177 12748374
0.26274881 -1.1116163 4.0566759 13272924
0.30262613 -1.1116163 4.0566759 13141338
0.34250343 -1.1116163 4.0566759 13338712
0.38238075 -1.1116163 4.0566759 12747604
0.46917561 -1.2351291 4.5074177 12878168
0.5134837 -1.2351291 4.5074177 12746835
0.50201267 -1.1116163 4.0566759 12878421
0.4926272 -1.0105602 3.687887 12681815
0.52887928 -1.0105602 3.687887 12747350
0.62164456 -1.1116163 4.0566759 12747349
0.66152191 -1.1116163 4.0566759 12353107
0.70139921 -1.1116163 4.0566759 12812631
0.7412765 -1.1116163 4.0566759 12419669
0.7811538 -1.1116163 4.0566759 12681815
0.91225678 -1.2351291 4.5074177 12222548
0.9565649 -1.2351291 4.5074177 12419155
1.000873 -1.2351291 4.5074177 12681557
1.0451812 -1.2351291 4.5074177 12484181
1.0894892 -1.2351291 4.5074177 12550743
1.1337974 -1.2351291 4.5074177 12746578
0.81561148 -0.85508937 3.1205199 12551000
0.84628636 -0.85508937 3.1205199 12812889
0.76003295 -0.74107742 2.7044504 12747862
0.78661782 -0.74107742 2.7044504 12812891
0.81320274 -0.74107742 2.7044504 13075801
0.89977241 -0.79401153 2.8976254 13403998
0.92825621 -0.79401153 2.8976254 13076572
1.0303354 -0.85508937 3.1205199 13010781
1.0610102 -0.85508937 3.1205199 13339485
1.1826588 -0.92634678 3.380563 13405278
1.2158899 -0.92634678 3.380563 13535837
1.1530348 -0.85508937 3.1205199 13667682
1.1837097 -0.85508937 3.1205199 13668196
1.1276428 -0.79401153 2.8976254 13799010
1.1561265 -0.79401153 2.8976254 13995361
1.1846102 -0.79401153 2.8976254 14062174
1.3064091 -0.85508937 3.1205199 14259812
1.4485075 -0.92634678 3.380563 14258272
1.3677588 -0.85508937 3.1205199 14520931
1.5149697 -0.92634678 3.380563 14521192
1.5482008 -0.92634678 3.380563 14194538
1.5814319 -0.92634678 3.380563 14324835
1.614663 -0.92634678 3.380563 14390883
1.5211331 -0.85508937 3.1205199 14522213
1.4409643 -0.79401153 2.8976254 15046503
1.4694482 -0.79401153 2.8976254 14587237
1.6131576 -0.85508937 3.1205199 14391398
1.6438324 -0.85508937 3.1205199 14522212
1.6745073 -0.85508937 3.1205199 14652515
1.7051822 -0.85508937 3.1205199 14324577
1.735857 -0.85508937 3.1205199 14194278
1.7665318 -0.85508937 3.1205199 14193762
1.7972068 -0.85508937 3.1205199 14456936
1.8278816 -0.85508937 3.1205199 14521189
1.8585564 -0.85508937 3.1205199 14522214
2.0466671 -0.92634678 3.380563 14192997
2.0798981 -0.92634678 3.380563 14192227
2.1131291 -0.92634678 3.380563 14062699
1.9812558 -0.85508937 3.1205199 14062440
2.0119307 -0.85508937 3.1205199 13930854
2.2128224 -0.92634678 3.380563 14389606
2.2460537 -0.92634678 3.380563 13799010
2.2792847 -0.92634678 3.380563 13537127
2.13463 -0.85508937 3.1205199 13668194
1.6558213 -0.65389186 2.3862798 13340001
1.6792786 -0.65389186 2.3862798 13536869
1.8091568 -0.69476008 2.5354223 13470559
2.4454401 -0.92634678 3.380563 13208162
2.704005 -1.0105602 3.687887 13404509
2.740257 -1.0105602 3.687887 13272670
2.776509 -1.0105602 3.687887 13076576
3.8675468 -1.3895202 5.0708447 13142369
2.6115956 -0.92634678 3.380563 12879967
2.6448267 -0.92634678 3.380563 12616793
1.6914049 -0.58506113 2.1350925 13076577
1.7123929 -0.58506113 2.1350925 12419422
1.733381 -0.58506113 2.1350925 12747357
1.6666507 -0.55580813 2.028338 12550750
1.7753571 -0.58506113 2.1350925 12222812
2.0076799 -0.65389186 2.3862798 12354141
2.1580832 -0.69476008 2.5354223 12288348
2.1830065 -0.69476008 2.5354223 12221785
2.7174523 -0.85508937 3.1205199 12550494
2.2328532 -0.69476008 2.5354223 12419163
2.2577765 -0.69476008 2.5354223 12156250
2.2826998 -0.69476008 2.5354223 11763546
2.8401515 -0.85508937 3.1205199 11762263
3.1100619 -0.92634678 3.380563 11762781
3.1432929 -0.92634678 3.380563 11696471
3.1765239 -0.92634678 3.380563 11762779
3.8517065 -1.1116163 4.0566759 11893079
3.2429862 -0.92634678 3.380563 11631196
2.8081863 -0.79401153 2.8976254 11434329
3.0548756 -0.85508937 3.1205199 11237462
3.0855503 -0.85508937 3.1205199 11433303
3.3759105 -0.92634678 3.380563 11236181
3.4091415 -0.92634678 3.380563 11105107
3.7553158 -1.0105602 3.687887 11236691
4.6341386 -1.2351291 4.5074177 11236950
4.6784468 -1.2351291 4.5074177 11171157
4.722755 -1.2351291 4.5074177 10908755
4.7670631 -1.2351291 4.5074177 10842449
4.8113713 -1.2351291 4.5074177 10908501
5.4626389 -1.3895202 5.0708447 10842705
5.5124855 -1.3895202 5.0708447 11171157
5.5623322 -1.3895202 5.0708447 10907732
4.9886036 -1.2351291 4.5074177 10710869
5.0329118 -1.2351291 4.5074177 10579540
5.07722 -1.2351291 4.5074177 10645331
5.1215281 -1.2351291 4.5074177 10645330
5.1658363 -1.2351291 4.5074177 10579792
5.210144 -1.2351291 4.5074177 10646099
4.7290072 -1.1116163 4.0566759 10579538
4.3353491 -1.0105602 3.687887 10251345
3.6990473 -0.85508937 3.1205199 10120274
3.7297223 -0.85508937 3.1205199 10316883
4.0737634 -0.92634678 3.380563 10120021
9.8567877 -2.2232325 8.1133518 10318171
0 0 0 10054999
0 0 0 10186070
0 0 0 10186067
0 0 0 10120272
0 0 0 10054223
0 0 0 10053968
0 0 0 10250575
0 0 0 10316369
0 0 0 12813915
0 0 0 12946274
-3.4582472 -0.76552773 2.8976254 13143139
-3.4297633 -0.76552773 2.8976254 13471330
-3.6629167 -0.82441455 3.1205199 13209445
-3.3727958 -0.76552773 2.8976254 13143907
-3.601567 -0.82441455 3.1205199 13668198
-3.5708921 -0.82441455 3.1205199 13537379
-3.5402174 -0.82441455 3.1205199 13341286
-3.5095425 -0.82441455 3.1205199 13472102
-3.7687731 -0.8931157 3.380563 13800810
-3.7355418 -0.8931157 3.380563 13471844
-3.7023108 -0.8931157 3.380563 13800295
-3.6690798 -0.8931157 3.380563 13865575
-3.6358488 -0.8931157 3.380563 13799524
-3.6026175 -0.8931157 3.380563 13997929
-3.5693865 -0.8931157 3.380563 13734500
-3.5361555 -0.8931157 3.380563 13536864
-3.821372 -0.97430801 3.687887 13471583
-3.78512 -0.97430801 3.687887 11759936
-4.123755 -1.0717388 4.0566759 10381379
-4.0838776 -1.0717388 4.0566759 10447436
-4.0440001 -1.0717388 4.0566759 11500119
-3.6401114 -0.97430801 3.687887 12681816
-3.3035378 -0.8931157 3.380563 12681560
-3.2703068 -0.8931157 3.380563 12615769
-3.2370756 -0.8931157 3.380563 12813147
-3.2038445 -0.8931157 3.380563 12156501
-3.1706135 -0.8931157 3.380563 12550485
-3.1373823 -0.8931157 3.380563 12354645
-3.1041512 -0.8931157 3.380563 12550229
-3.0709202 -0.8931157 3.380563 12484946
-3.0376892 -0.8931157 3.380563 12288082
-3.004458 -0.8931157 3.380563 12025426
-2.9712269 -0.8931157 3.380563 12025686
-2.7119963 -0.82441455 3.1205199 12288344
-2.6813214 -0.82441455 3.1205199 12091220
-2.6506467 -0.82441455 3.1205199 12155732
-2.8383026 -0.8931157 3.380563 12156246
-1.4025358 -0.44655785 1.6902815 12156244
-1.1469685 -0.3695651 1.3988537 11762515
-1.0954437 -0.35724628 1.3522252 11828819
-1.0145168 -0.33491838 1.2677112 11828050
-1.0020552 -0.33491838 1.2677112 11959635
-0.83334196 -0.28203654 1.0675462 12089681
-0.58996642 -0.20221487 0.76541048 11761486
-0.55124015 -0.19138193 0.72440636 11893842
-0.50784457 -0.17862314 0.67611259 11893844
-0.46987346 -0.16745919 0.63385558 11499346
-0.45650968 -0.1648829 0.62410396 11696468
-0.45037469 -0.1648829 0.62410396 11564879
-0.42464092 -0.15760866 0.59656996 11236430
-0.41270739 -0.15532447 0.587924 10578759
-0.40692806 -0.15532447 0.587924 10578502
-0.40704799 -0.15760866 0.59656996 10184258
-0.40717149 -0.15996103 0.605474 9132857
-0.40729871 -0.16238466 0.61464781 7094819
-0.4074299 -0.1648829 0.62410396 4530184
-0.41403446 -0.17011727 0.64391679 2428427
-0.40133435 -0.16745919 0.63385558 1641229
-0.39510351 -0.16745919 0.63385558 1509387
-0.38289005 -0.1648829 0.62410396 1969424
-0.37675506 -0.1648829 0.62410396 1378060
-0.3706201 -0.1648829 0.62410396 1378317
-0.37605608 -0.17011727 0.64391679 1246730
-0.36972636 -0.17011727 0.64391679 1246730
-0.35221517 -0.1648829 0.62410396 1377547
-0.34083655 -0.16238466 0.61464781 984329
-0.33994526 -0.1648829 0.62410396 852487
-0.33381027 -0.1648829 0.62410396 852743
-0.32767531 -0.1648829 0.62410396 918023
-0.32154033 -0.1648829 0.62410396 983558
-0.32033357 -0.16745919 0.63385558 983305
-0.31908849 -0.17011727 0.64391679 984330
-0.31275877 -0.17011727 0.64391679 983559
-0.30642903 -0.17011727 0.64391679 852489
-0.30009931 -0.17011727 0.64391679 786951
-0.29850781 -0.1728611 0.65430254 721158
-0.29686409 -0.1756949 0.66502881 852489
-0.29032683 -0.1756949 0.66502881 786950
-0.28378958 -0.1756949 0.66502881 720901
-0.28665072 -0.18165065 0.68757218 720903
-0.27522695 -0.17862314 0.67611259 786696
-0.26858073 -0.17862314 0.67611259 721416
-0.25764054 -0.1756949 0.66502881 918024
-0.25110325 -0.1756949 0.66502881 852486
-0.24864209 -0.17862314 0.67611259 786693
-0.25034055 -0.18478255 0.69942683 1049094
-0.24346517 -0.18478255 0.69942683 1049351
-0.24074048 -0.18802437 0.71169752 1444108
-0.23374446 -0.18802437 0.71169752 1378057
-0.22674844 -0.18802437 0.71169752 1378057
-0.22367656 -0.19138193 0.72440636 1115145
-0.22049299 -0.19486161 0.73757738 1180679
-0.21719152 -0.19847016 0.75123626 3742485
-0.20980683 -0.19847016 0.75123626 8934454
-0.21432932 -0.21014488 0.79542661 10906952
0 0 0 11695694
0 0 0 11694408
0 0 0 11892302
0 0 0 11694923
-0.28828809 -0.3457222 1.3086051 11235917
-0.23076101 -0.28965914 1.0963988 11038540
-0.26256078 -0.3457222 1.3086051 11169867
-0.26691762 -0.3695651 1.3988537 11038540
-0.3059099 -0.44655785 1.6902815 10580044
0 0 0 10185284
0 0 0 10381381
0 0 0 10052416
0 0 0 9987394
-0.41138253 -0.82441455 3.1205199 9987909
-0.30932498 -0.66983676 2.5354223 10381127
-0.35003284 -0.82441455 3.1205199 10579787
-0.31935799 -0.82441455 3.1205199 10973004
-0.41698676 -1.1908211 4.5074177 11105103
-0.37267864 -1.1908211 4.5074177 11301967
-0.32837051 -1.1908211 4.5074177 11434063
-0.28406242 -1.1908211 4.5074177 12024142
-0.23975429 -1.1908211 4.5074177 12417874
-0.17590155 -1.0717388 4.0566759 12681556
-0.1236584 -0.97430801 3.687887 12681813
-0.0874063 -0.97430801 3.687887 13141595
-0.051154207 -0.97430801 3.687887 13076315
-0.016392324 -1.0717388 4.0566759 13404509
0.023484983 -1.0717388 4.0566759 13470295
0.063362285 -1.0717388 4.0566759 13930335
0.093854174 -0.97430801 3.687887 13535837
0.14311691 -1.0717388 4.0566759 13602139
0.2033269 -1.1908211 4.5074177 13667677
0.24763502 -1.1908211 4.5074177 13733468
0.26274881 -1.0717388 4.0566759 13733468
0.30262613 -1.0717388 4.0566759 13601887
0.34250343 -1.0717388 4.0566759 13404762
0.38238075 -1.0717388 4.0566759 13272919
0.42225805 -1.0717388 4.0566759 13142103
0.46213534 -1.0717388 4.0566759 12946012
0.50201267 -1.0717388 4.0566759 13010008
0.4926272 -0.97430801 3.687887 12747348
0.52887928 -0.97430801 3.687887 12747094
0.56513143 -0.97430801 3.687887 12748120
0.66152191 -1.0717388 4.0566759 12813144
0.70139921 -1.0717388 4.0566759 12616534
0.7412765 -1.0717388 4.0566759 12944471
0.7811538 -1.0717388 4.0566759 12682327
0.82103109 -1.0717388 4.0566759 12616021
0.86090839 -1.0717388 4.0566759 12747866
0.90078574 -1.0717388 4.0566759 12747351
1.0451812 -1.1908211 4.5074177 12746582
1.0894892 -1.1908211 4.5074177 12748120
1.1337974 -1.1908211 4.5074177 12748381
0.88357908 -0.8931157 3.380563 13075545
0.84628636 -0.82441455 3.1205199 13076315
0.76003295 -0.71449256 2.7044504 12749149
0.78661782 -0.71449256 2.7044504 12943961
0.81320274 -0.71449256 2.7044504 13076059
1.399646 -1.1908211 4.5074177 13011038
1.0829656 -0.8931157 3.380563 13207900
1.0303354 -0.82441455 3.1205199 13405792
1.1494278 -0.8931157 3.380563 13667682
1.1826588 -0.8931157 3.380563 14060382
1.3264254 -0.97430801 3.687887 13666907
1.0706751 -0.76552773 2.8976254 13864802
1.0991589 -0.76552773 2.8976254 13930850
1.1276428 -0.76552773 2.8976254 13996131
1.3488142 -0.8931157 3.380563 13864799
1.3820454 -0.8931157 3.380563 13930336
1.2130941 -0.76552773 2.8976254 14193763
1.2415779 -0.76552773 2.8976254 14455909
1.2700616 -0.76552773 2.8976254 14258276
1.1362273 -0.66983676 2.5354223 14456423
1.0928476 -0.63043463 2.3862798 14194277
1.1163049 -0.63043463 2.3862798 14587235
1.4904583 -0.82441455 3.1205199 14522212
1.5211331 -0.82441455 3.1205199 14325350
1.4409643 -0.76552773 2.8976254 14784359
1.1429043 -0.59541053 2.2537088 14456422
1.1037394 -0.56407309 2.1350925 14325604
1.6438324 -0.82441455 3.1205199 15113583
1.2805055 -0.63043463 2.3862798 14718312
1.7051822 -0.82441455 3.1205199 14325349
1.735857 -0.82441455 3.1205199 14588779
1.7665318 -0.82441455 3.1205199 14259810
1.7972068 -0.82441455 3.1205199 14522471
1.8278816 -0.82441455 3.1205199 14325604
1.8585564 -0.82441455 3.1205199 14456423
1.8892312 -0.82441455 3.1205199 14258272
2.0798981 -0.8931157 3.380563 14062952
2.1131291 -0.8931157 3.380563 13930849
2.1463604 -0.8931157 3.380563 13996899
2.1795914 -0.8931157 3.380563 13865316
2.2128224 -0.8931157 3.380563 13733728
2.2460537 -0.8931157 3.380563 13799011
1.8234277 -0.71449256 2.7044504 13405793
1.8500125 -0.71449256 2.7044504 13470814
1.8765974 -0.71449256 2.7044504 13602405
3.1719708 -1.1908211 4.5074177 13471073
2.8946509 -1.0717388 4.0566759 13273442
2.9345284 -1.0717388 4.0566759 13273702
2.704005 -0.97430801 3.687887 13142368
2.740257 -0.97430801 3.687887 12945758
2.776509 -0.97430801 3.687887 12814174
3.0940375 -1.0717388 4.0566759 12879968
2.6115956 -0.8931157 3.380563 13009758
2.6448267 -0.8931157 3.380563 12879969
2.6780577 -0.8931157 3.380563 12945502
3.615052 -1.1908211 4.5074177 12681816
3.6593602 -1.1908211 4.5074177 12551004
3.7036684 -1.1908211 4.5074177 12550236
4.2164731 -1.3396735 5.0708447 12354653
4.2663198 -1.3396735 5.0708447 12485212
3.8365927 -1.1908211 4.5074177 12157019
2.1830065 -0.66983676 2.5354223 12419934
2.2079298 -0.66983676 2.5354223 12288089
3.969517 -1.1908211 4.5074177 11894360
3.0103686 -0.8931157 3.380563 11894619
3.0435996 -0.8931157 3.380563 11893851
3.0768309 -0.8931157 3.380563 11828569
4.1467495 -1.1908211 4.5074177 11828056
3.1432929 -0.8931157 3.380563 11959644
3.4652989 -0.97430801 3.687887 11762521
4.2796736 -1.1908211 4.5074177 11695962
4.3239818 -1.1908211 4.5074177 11302741
3.9314611 -1.0717388 4.0566759 11434068
3.3094485 -0.8931157 3.380563 11696731
3.6465595 -0.97430801 3.687887 11696215
3.6828115 -0.97430801 3.687887 11433046
3.7190635 -0.97430801 3.687887 11235669
4.5898304 -1.1908211 4.5074177 11170131
4.6341386 -1.1908211 4.5074177 11171157
4.6784468 -1.1908211 4.5074177 11170644
4.722755 -1.1908211 4.5074177 10909527
4.7670631 -1.1908211 4.5074177 10777171
4.8113713 -1.1908211 4.5074177 10908755
5.4626389 -1.3396735 5.0708447 11039825
5.5124855 -1.3396735 5.0708447 10973778
4.4498658 -1.0717388 4.0566759 10580820
4.4897432 -1.0717388 4.0566759 10514773
5.0329118 -1.1908211 4.5074177 10318165
5.07722 -1.1908211 4.5074177 10449490
5.1215281 -1.1908211 4.5074177 10645072
5.1658363 -1.1908211 4.5074177 10841681
5.210144 -1.1908211 4.5074177 10710353
5.2544522 -1.1908211 4.5074177 10579540
5.2987604 -1.1908211 4.5074177 10579541
4.8087616 -1.0717388 4.0566759 10645333
4.0405321 -0.8931157 3.380563 10447182
4.0737634 -0.8931157 3.380563 10447954
6.1604919 -1.3396735 5.0708447 10120020
12.420677 -2.679347 10.141689 10513748
0 0 0 10448468
0 0 0 10448468
0 0 0 10709843
0 0 0 10512977
0 0 0 10317140
0 0 0 10119757
0 0 0 10053966
0 0 0 12879451
0 0 0 12945759
-3.4582472 -0.73704392 2.8976254 13340520
-3.4297633 -0.73704392 2.8976254 13471334
-3.6629167 -0.79373968 3.1205199 13537379
-3.6322417 -0.79373968 3.1205199 13274210
-3.601567 -0.79373968 3.1205199 13537382
-3.5708921 -0.79373968 3.1205199 13668710
-3.5402174 -0.79373968 3.1205199 13537124
-3.5095425 -0.79373968 3.1205199 13406310
-3.7687731 -0.85988462 3.380563 13537638
-3.7355418 -0.85988462 3.380563 13931112
-3.7023108 -0.85988462 3.380563 13602920
-4.0026326 -0.93805593 3.687887 13668198
-3.6358488 -0.85988462 3.380563 13864807
-3.6026175 -0.85988462 3.380563 13930854
-3.5693865 -0.85988462 3.380563 13538149
-3.8576241 -0.93805593 3.687887 13406563
-3.821372 -0.93805593 3.687887 13602139
-4.1636324 -1.0318615 4.0566759 11892295
-4.123755 -1.0318615 4.0566759 10643525
-4.0838776 -1.0318615 4.0566759 10381641
-4.0440001 -1.0318615 4.0566759 10645585
-3.6401114 -0.93805593 3.687887 12551002
-3.3035378 -0.85988462 3.380563 12813143
-3.2703068 -0.85988462 3.380563 12747864
-3.5313554 -0.93805593 3.687887 12354136
-3.2038445 -0.85988462 3.380563 12485465
-3.1706135 -0.85988462 3.380563 12485209
-3.1373823 -0.85988462 3.380563 12485209
-3.1041512 -0.85988462 3.380563 12352851
-3.0709202 -0.85988462 3.380563 12222035
-3.0376892 -0.85988462 3.380563 12352853
-3.004458 -0.85988462 3.380563 12484951
-2.9712269 -0.85988462 3.380563 12420184
-2.7119963 -0.79373968 3.1205199 12156501
-2.6813214 -0.79373968 3.1205199 12287059
-2.6506467 -0.79373968 3.1205199 12287058
-1.4191513 -0.42994231 1.6902815 12025428
-1.1607193 -0.35581431 1.3988537 12352851
-1.007942 -0.31268531 1.2292956 11828306
-0.96656799 -0.3034887 1.1931399 11893842
-0.87742001 -0.27888149 1.0963988 11828304
-0.82219917 -0.26457989 1.0401733 11762513
-0.70371097 -0.22930256 0.90148348 11958867
-0.55836105 -0.18426098 0.72440636 11696722
-0.54156929 -0.18102835 0.71169752 11828051
-0.4836615 -0.16378754 0.64391679 12024660
-0.46264464 -0.15874793 0.62410396 11630933
-0.45650968 -0.15874793 0.62410396 11892820
-0.43693069 -0.15400919 0.605474 11761234
-0.42464092 -0.15174435 0.59656996 11171922
-0.41270739 -0.14954515 0.587924 10710858
-0.40692806 -0.14954515 0.587924 10512456
-0.40704799 -0.15174435 0.59656996 9000502
-0.41969985 -0.15874793 0.62410396 7291175
-0.41356489 -0.15874793 0.62410396 4859927
-0.42714426 -0.16642928 0.65430254 2559756
-0.41403446 -0.16378754 0.64391679 1640458
-0.40133435 -0.16122836 0.63385558 1378317
-0.389025 -0.15874793 0.62410396 1640974
-0.38289005 -0.15874793 0.62410396 1641229
-0.37675506 -0.15874793 0.62410396 1444109
-0.37641102 -0.16122836 0.63385558 917765
-0.39485887 -0.17197692 0.67611259 1049352
-0.38184851 -0.16915762 0.66502881 917512
-0.35221517 -0.15874793 0.62410396 1049353
-0.34083655 -0.15634266 0.61464781 852489
-0.33994526 -0.15874793 0.62410396 786953
-0.33381027 -0.15874793 0.62410396 852489
-0.32767531 -0.15874793 0.62410396 852489
-0.3265644 -0.16122836 0.63385558 983305
-0.32033357 -0.16122836 0.63385558 786696
-0.31908849 -0.16378754 0.64391679 721157
-0.31275877 -0.16378754 0.64391679 655879
-0.3164759 -0.16915762 0.66502881 590342
-0.30493963 -0.16642928 0.65430254 786696
-0.29850781 -0.16642928 0.65430254 851975
-0.29207596 -0.16642928 0.65430254 983305
-0.28564414 -0.16642928 0.65430254 852489
-0.28378958 -0.16915762 0.66502881 720903
-0.28665072 -0.1748918 0.68757218 852743
-0.28471756 -0.17790715 0.69942683 721157
-0.27784213 -0.17790715 0.69942683 720901
-0.27096674 -0.17790715 0.69942683 851975
-0.26409134 -0.17790715 0.69942683 721159
-0.25721595 -0.17790715 0.69942683 917766
-0.25034055 -0.17790715 0.69942683 984329
-0.24346517 -0.17790715 0.69942683 1049351
-0.24074048 -0.18102835 0.71169752 1049352
-0.23374446 -0.18102835 0.71169752 1312266
-0.22674844 -0.18102835 0.71169752 1312264
-0.22367656 -0.18426098 0.72440636 786695
-0.22049299 -0.18761118 0.73757738 1114375
-0.21719152 -0.19108547 0.75123626 2231309
-0.20980683 -0.19108547 0.75123626 2821641
-0.21020761 -0.19843492 0.78012997 6961958
-0.20651025 -0.20232579 0.79542661 10908236
0 0 0 11564877
0 0 0 12023373
0 0 0 11499084
-0.24153866 -0.27888149 1.0963988 11563855
-0.21345393 -0.25796539 1.014169 11433293
-0.21998335 -0.27888149 1.0963988 11629902
-0.2418941 -0.32245672 1.2677112 10972742
-0.25316682 -0.35581431 1.3988537 10842444
0 0 0 10907463
0 0 0 10447173
0 0 0 10381124
0 0 0 10315845
-0.41138253 -0.79373968 3.1205199 10381896
-0.30932498 -0.64491343 2.5354223 10644297
-0.32503048 -0.73704392 2.8976254 10973002
-0.34597114 -0.85988462 3.380563 11235403
-0.37528807 -1.0318615 4.0566759 11433038
-0.33541077 -1.0318615 4.0566759 11498573
-0.32837051 -1.1465129 4.5074177 12221522
-0.28406242 -1.1465129 4.5074177 12352339
-0.23975429 -1.1465129 4.5074177 12418129
-0.19544616 -1.1465129 4.5074177 12812629
-0.1236584 -0.93805593 3.687887 13337945
-0.0874063 -0.93805593 3.687887 13404506
-0.056269631 -1.0318615 4.0566759 13799261
-0.016392324 -1.0318615 4.0566759 13536090
0.023484983 -1.0318615 4.0566759 13929303
0.063362285 -1.0318615 4.0566759 14061148
0.093854174 -0.93805593 3.687887 13930078
0.14311691 -1.0318615 4.0566759 13995352
0.16635837 -0.93805593 3.687887 13799009
0.24763502 -1.1465129 4.5074177 13470555
0.26274881 -1.0318615 4.0566759 13077850
0.33625126 -1.1465129 4.5074177 13864284
0.34250343 -1.0318615 4.0566759 13995098
0.38238075 -1.0318615 4.0566759 13864286
0.42225805 -1.0318615 4.0566759 13600090
0.46213534 -1.0318615 4.0566759 13207129
0.50201267 -1.0318615 4.0566759 13141336
0.4926272 -0.93805593 3.687887 12813655
0.52887928 -0.93805593 3.687887 13141590
0.56513143 -0.93805593 3.687887 13206877
0.60138351 -0.93805593 3.687887 12813402
0.70139921 -1.0318615 4.0566759 12812884
0.7412765 -1.0318615 4.0566759 12747352
0.71013975 -0.93805593 3.687887 12550742
0.74639189 -0.93805593 3.687887 12485205
0.78264397 -0.93805593 3.687887 12681303
0.90078574 -1.0318615 4.0566759 12615510
1.0451812 -1.1465129 4.5074177 12747352
1.0894892 -1.1465129 4.5074177 12878681
1.1337974 -1.1465129 4.5074177 12747861
1.1781055 -1.1465129 4.5074177 12878936
0.78583729 -0.73704392 2.8976254 12748633
0.76003295 -0.6879077 2.7044504 12878682
0.78661782 -0.6879077 2.7044504 13404251
0.93831086 -0.79373968 3.1205199 13272924
1.399646 -1.1465129 4.5074177 13274461
1.0829656 -0.85988462 3.380563 13535581
1.1161966 -0.85988462 3.380563 13338973
1.1494278 -0.85988462 3.380563 13471842
1.2901733 -0.93805593 3.687887 13734240
1.4590681 -1.0318615 4.0566759 13799263
1.0706751 -0.73704392 2.8976254 13799009
1.0991589 -0.73704392 2.8976254 14062436
1.3155832 -0.85988462 3.380563 14193505
1.3488142 -0.85988462 3.380563 14193251
1.3820454 -0.85988462 3.380563 14128485
1.3064091 -0.79373968 3.1205199 14521444
1.2415779 -0.73704392 2.8976254 14390886
