# .PCD v0.7 - Point Cloud Data file format
VERSION 0.7
FIELDS x y z rgb
SIZE 4 4 4 4
TYPE F F F U
COUNT 1 1 1 1
WIDTH 1300
HEIGHT 1
VIEWPOINT 0 0 0 1 0 0 0
POINTS 1300
DATA ascii
-1.2466985 0.4006058 1.5024725 1904652
-1.3304834 0.43265423 1.6226703 2101779
-1.3145325 0.43265423 1.6226703 2101262
-1.2985816 0.43265423 1.6226703 2101008
-1.0343796 0.34891471 1.3086051 2101266
-0.98959357 0.33801112 1.2677112 1970194
-0.9771319 0.33801112 1.2677112 2233366
-0.99578863 0.34891471 1.3086051 2627606
-0.982925 0.34891471 1.3086051 2957087
-1.0023967 0.36054519 1.3522252 2690833
-0.92728525 0.33801112 1.2677112 2494479
-0.91482359 0.33801112 1.2677112 4400153
-0.68751383 0.25753227 0.96587515 3213322
-0.66225141 0.25154316 0.94341296 1904404
-0.66852468 0.25753227 0.96587515 3481126
-0.67510396 0.26381356 0.98943311 6503481
-1.9486064 0.77259684 2.8976254 5054491
-1.9201226 0.77259684 2.8976254 2298132
-0.64592546 0.26381356 0.98943311 2299161
-0.6361993 0.26381356 0.98943311 4010026
-1.4269667 0.6009087 2.2537088 7421744
-1.8061875 0.77259684 2.8976254 8273708
-1.7777036 0.77259684 2.8976254 7748138
-1.7492199 0.77259684 2.8976254 7287591
-1.6060203 0.72109038 2.7044504 6105889
-1.2469229 0.56928188 2.1350925 4791831
-1.2259347 0.56928188 2.1350925 4266518
-1.3467051 0.63625622 2.3862798 4989471
-1.7304012 0.83202744 3.1205199 7225392
-2.4551601 1.2018174 4.5074177 8804413
-2.4108522 1.2018174 4.5074177 9592643
-2.366544 1.2018174 4.5074177 9526592
-2.9857316 1.5451937 5.7952509 9855813
-2.9287641 1.5451937 5.7952509 9856835
-2.8717964 1.5451937 5.7952509 9725251
-2.1893115 1.2018174 4.5074177 10185545
-0.77220118 0.43265423 1.6226703 10250307
-0.75625026 0.43265423 1.6226703 11103557
-0.74029934 0.43265423 1.6226703 11105098
-0.64673966 0.38629842 1.4488127 11367500
-0.63249773 0.38629842 1.4488127 11432264
-0.52458072 0.32776836 1.2292956 11367242
-0.45709166 0.29233393 1.0963988 11432008
-0.43456891 0.28464094 1.0675462 11826511
-0.41320115 0.27734247 1.0401733 11301707
-0.40297621 0.27734247 1.0401733 11433036
-0.38293248 0.2704089 1.014169 11627847
-0.36386648 0.26381356 0.98943311 9919032
-0.35414031 0.26381356 0.98943311 6895136
-0.32839489 0.25154316 0.94341296 4069395
-0.29196185 0.23013523 0.86312246 3544597
-0.27190682 0.22074196 0.82789302 4332057
-0.23934558 0.2003029 0.75123626 7745314
-0.21596357 0.1864889 0.69942683 10960427
-0.20908818 0.1864889 0.69942683 11747111
-0.20221278 0.1864889 0.69942683 12074793
-0.19876437 0.18976064 0.71169752 12140324
-0.19176835 0.18976064 0.71169752 12402981
-0.18477233 0.18976064 0.71169752 12730921
-0.17777631 0.18976064 0.71169752 12862246
-0.17078029 0.18976064 0.71169752 12599846
-0.14362621 0.16640548 0.62410396 12928039
-0.13749124 0.16640548 0.62410396 12927525
-0.13135627 0.16640548 0.62410396 12927785
-0.12148335 0.16143815 0.605474 12993577
-0.10320815 0.14421809 0.5408901 12796196
-0.095348544 0.14047214 0.52684098 12665382
-0.090169676 0.14047214 0.52684098 12796455
-0.089647837 0.14816926 0.555709 12469030
0 0 0 12599076
0 0 0 12271397
0 0 0 12467749
0 0 0 12534052
0 0 0 12599074
0 0 0 12664869
0 0 0 12861991
0 0 0 12796457
0 0 0 12664867
0 0 0 12993062
0 0 0 12664356
0 0 0 12795942
0 0 0 12664867
0 0 0 12533283
-0.01442811 0.27734247 1.0401733 12469030
-0.004098081 0.2704089 1.014169 12205604
0.0058712456 0.2704089 1.014169 12074533
0.016674286 0.28464094 1.0675462 11877668
0.027902592 0.29233393 1.0963988 11812134
0 0 0 11746595
0 0 0 11812388
0.054358903 0.26381356 0.98943311 11943207
0.064085074 0.26381356 0.98943311 12075045
0.073811248 0.26381356 0.98943311 12271651
0.085625857 0.2704089 1.014169 12729895
0.10334614 0.29233393 1.0963988 12862246
0.12419353 0.31812811 1.1931399 12664869
0.13592215 0.31812811 1.1931399 12665639
0.14765078 0.31812811 1.1931399 12861735
0.17480321 0.34891471 1.3086051 12992805
0 0 0 12664615
0 0 0 12337703
0 0 0 12599846
0 0 0 12008738
0 0 0 11811619
0 0 0 12009252
0 0 0 12664098
0 0 0 12795941
0 0 0 12730662
0 0 0 12534055
0 0 0 12664869
2.551044 2.7040889 10.141689 12533541
0.53014749 0.5408178 2.028338 12730406
0.52389151 0.51506454 1.9317503 12271910
0.54288071 0.51506454 1.9317503 12403498
0.56186992 0.51506454 1.9317503 12665637
0.58085907 0.51506454 1.9317503 12075047
0.59984827 0.51506454 1.9317503 12928041
0.64977938 0.5408178 2.028338 12403750
0.74413115 0.6009087 2.2537088 12600362
0.81136078 0.63625622 2.3862798 12861988
0.78843927 0.6009087 2.2537088 12927269
0.72953403 0.5408178 2.028338 12731430
0.71378344 0.51506454 1.9317503 12993067
0.6994648 0.49165255 1.8439435 12730408
0.71759081 0.49165255 1.8439435 12796713
0.67440712 0.45068148 1.6902815 12535084
0.66338181 0.43265423 1.6226703 12666409
0.51464599 0.32776836 1.2292956 12730921
0.52673 0.32776836 1.2292956 12468774
0.52296656 0.31812811 1.1931399 12272424
0.55089808 0.32776836 1.2292956 12861992
0.54642379 0.31812811 1.1931399 12402215
0.57506615 0.32776836 1.2292956 12403242
0.58715016 0.32776836 1.2292956 12665639
0.68188721 0.37297779 1.3988537 12403498
0.74716675 0.4006058 1.5024725 12337962
0.76193613 0.4006058 1.5024725 12075303
0.65534526 0.33801112 1.2677112 12337962
0.66780692 0.33801112 1.2677112 12140582
0.68026859 0.33801112 1.2677112 12140838
0.69273025 0.33801112 1.2677112 12205865
0.70519191 0.33801112 1.2677112 12008997
0.91859657 0.43265423 1.6226703 12206117
0.93454748 0.43265423 1.6226703 12009254
0.76653093 0.34891471 1.3086051 11943977
0.92927819 0.41601372 1.5602599 11943719
0.98240024 0.43265423 1.6226703 12075047
0.99835116 0.43265423 1.6226703 11812134
0.97529048 0.41601372 1.5602599 12205352
0.95393795 0.4006058 1.5024725 11681320
0.96870732 0.4006058 1.5024725 11222564
0.9834767 0.4006058 1.5024725 11680549
1.1230268 0.45068148 1.6902815 11353125
1.3024484 0.51506454 1.9317503 11353126
1.3214376 0.51506454 1.9317503 11680550
1.3404268 0.51506454 1.9317503 11353896
1.2412059 0.47027633 1.763772 11483941
1.2061045 0.45068148 1.6902815 11418920
1.22272 0.45068148 1.6902815 11222054
1.2393357 0.45068148 1.6902815 11418918
1.3105577 0.47027633 1.763772 11221287
1.3278956 0.47027633 1.763772 11090727
1.4063807 0.49165255 1.8439435 11091238
1.3625716 0.47027633 1.763772 10894886
1.4426327 0.49165255 1.8439435 10828583
1.4607588 0.49165255 1.8439435 10959912
1.5493079 0.51506454 1.9317503 10893605
1.568297 0.51506454 1.9317503 10828069
1.5872862 0.51506454 1.9317503 10762021
1.8739882 0.6009087 2.2537088 10763046
2.0076799 0.63625622 2.3862798 10696740
2.0311372 0.63625622 2.3862798 10696741
1.8383213 0.56928188 2.1350925 10893604
1.4719532 0.45068148 1.6902815 10565410
1.2759161 0.38629842 1.4488127 10697253
1.0946795 0.32776836 1.2292956 10631462
1.587965 0.47027633 1.763772 10434596
1.758189 0.51506454 1.9317503 10565668
0 0 0 10106403
0 0 0 10106404
0 0 0 10500133
2.0272138 0.56928188 2.1350925 10567979
2.0482018 0.56928188 2.1350925 10108970
2.06919 0.56928188 2.1350925 10108715
1.5885353 0.43265423 1.6226703 10042923
1.6044862 0.43265423 1.6226703 10043177
1.6204371 0.43265423 1.6226703 10371118
1.8595318 0.49165255 1.8439435 10108970
1.7211864 0.45068148 1.6902815 10044208
1.6041249 0.41601372 1.5602599 9846827
1.6194624 0.41601372 1.5602599 10043694
1.6347997 0.41601372 1.5602599 9978928
1.7876486 0.45068148 1.6902815 9911852
1.6654747 0.41601372 1.5602599 9780264
1.680812 0.41601372 1.5602599 9846829
1.6961495 0.41601372 1.5602599 9780782
2.7811661 0.67602223 2.5354223 9715245
2.9931619 0.72109038 2.7044504 9518379
3.0197468 0.72109038 2.7044504 9386539
3.0463316 0.72109038 2.7044504 9583655
3.5456731 0.83202744 3.1205199 9714471
2.9057827 0.67602223 2.5354223 9321255
2.930706 0.67602223 2.5354223 9847085
2.9556293 0.67602223 2.5354223 9716014
3.179256 0.72109038 2.7044504 9650221
3.005476 0.67602223 2.5354223 9781550
3.0303993 0.67602223 2.5354223 9912368
3.0553226 0.67602223 2.5354223 9781806
3.7910719 0.83202744 3.1205199 10044206
8.2804508 1.8027259 6.761126 9913644
8.3469133 1.8027259 6.761126 9978411
0 0 0 9912877
0 0 0 9518634
0 0 0 8992547
0 0 0 8929323
0 0 0 8667180
0 0 0 8737336
0 0 0 2366757
0 0 0 2235425
-0.93106657 0.21567556 0.78012997 2366496
-0.96033376 0.22430257 0.81133515 2431262
-0.95235831 0.22430257 0.81133515 2365212
-0.9837321 0.23364851 0.84514076 2299676
-0.99617803 0.23861976 0.86312246 2233629
-1.16054 0.28037825 1.014169 2037533
0 0 0 2168349
0 0 0 1906201
0 0 0 2036765
0 0 0 1444628
-1.306698 0.32985672 1.1931399 1445910
-1.6934215 0.43135113 1.5602599 1510928
-1.6780841 0.43135113 1.5602599 2034448
-1.6627467 0.43135113 1.5602599 1311240
-1.6474092 0.43135113 1.5602599 1049100
-1.7680777 0.46729702 1.6902815 1510417
-1.7514622 0.46729702 1.6902815 4272424
-1.6654528 0.44860515 1.6226703 5058334
-1.6495019 0.44860515 1.6226703 6503725
-2.7225847 0.74767524 2.7044504 6962732
-2.8885715 0.80108064 2.8976254 6503465
-3.6401114 1.0195571 3.687887 6766123
-3.6038594 1.0195571 3.687887 6831400
-3.2703068 0.93459404 3.380563 7029037
-3.2370756 0.93459404 3.380563 7226159
-4.8057671 1.4018911 5.0708447 7685420
0 0 0 7291183
0 0 0 6108714
0 0 0 4728349
0 0 0 2626060
-4.0502524 1.2461255 4.5074177 1838346
-2.1207941 0.65971345 2.3862798 1838865
-1.2294732 0.38672858 1.3988537 1773074
-1.2157224 0.38672858 1.3988537 1772817
-1.2019717 0.38672858 1.3988537 1969424
-1.2306573 0.40054032 1.4488127 1838610
-1.2164154 0.40054032 1.4488127 1772816
-1.2021735 0.40054032 1.4488127 1772816
-1.2319292 0.41537514 1.5024725 1903888
-1.2171597 0.41537514 1.5024725 1904403
-1.0145168 0.35047278 1.2677112 1904403
-0.97168988 0.33985236 1.2292956 2101782
-0.93138218 0.32985672 1.1931399 2496540
-0.84508705 0.30311158 1.0963988 10641219
-0.8343094 0.30311158 1.0963988 7417364
-0.82353175 0.30311158 1.0963988 6564391
-0.66826445 0.24922508 0.90148348 10511692
-0.65940285 0.24922508 0.90148348 11894621
-0.65054125 0.24922508 0.90148348 11432014
-0.64167958 0.24922508 0.90148348 9332298
-0.63281798 0.24922508 0.90148348 8083258
-0.62395638 0.24922508 0.90148348 4992023
-0.61509472 0.24922508 0.90148348 1639686
-0.64953548 0.26702687 0.96587515 1838867
-0.64004087 0.26702687 0.96587515 2035989
-0.63054627 0.26702687 0.96587515 3154470
-0.57964826 0.24922508 0.90148348 5386790
-0.5707866 0.24922508 0.90148348 8141608
-0.5497092 0.24380715 0.88188601 6630689
-0.51849693 0.23364851 0.84514076 7485995
-0.48017803 0.21990448 0.79542661 6565153
-0.43018404 0.20027016 0.72440636 4527890
-0.42306307 0.20027016 0.72440636 3280911
-0.41594213 0.20027016 0.72440636 2821134
-0.4088212 0.20027016 0.72440636 3084049
-1.2497342 0.62306273 2.2537088 3609364
0 0 0 4661277
-2.4108522 1.2461255 4.5074177 5646883
-3.0426991 1.6021613 5.7952509 7422759
-2.9857316 1.6021613 5.7952509 9264192
-2.9287641 1.6021613 5.7952509 9659462
-3.3504291 1.8691881 6.761126 9790274
-2.8148289 1.6021613 5.7952509 10381125
-0.68946534 0.40054032 1.4488127 10380358
-0.67522341 0.40054032 1.4488127 10905927
-0.63818908 0.38672858 1.3988537 10314043
-0.58415192 0.36177835 1.3086051 11299654
-0.53666472 0.33985236 1.2292956 10972742
-0.46786931 0.30311158 1.0963988 10380871
-0.44506294 0.29513496 1.0675462 10118471
-0.39318138 0.26702687 0.96587515 10315081
-0.39304501 0.27353972 0.98943311 9132612
-0.38331884 0.27353972 0.98943311 7289640
-0.37359267 0.27353972 0.98943311 5776921
-0.36386648 0.27353972 0.98943311 6106397
-0.32999438 0.25488928 0.92197174 7418921
-0.32093135 0.25488928 0.92197174 8600879
-0.28004503 0.22888018 0.82789302 10501678
-0.27190682 0.22888018 0.82789302 11616042
-0.22283897 0.19336429 0.69942683 12271398
-0.20876479 0.18691881 0.67611259 12402727
-0.20211858 0.18691881 0.67611259 12206376
-0.19547234 0.18691881 0.67611259 12993321
-0.18573064 0.18385458 0.66502881 12862244
-0.18217991 0.18691881 0.67611259 12271652
-0.1755337 0.18691881 0.67611259 12534311
-0.16888748 0.18691881 0.67611259 12533284
-0.15210119 0.17523639 0.63385558 12598819
-0.14362621 0.17254044 0.62410396 12666155
-0.13749124 0.17254044 0.62410396 12600360
-0.13135627 0.17254044 0.62410396 12927526
-0.123324 0.16992618 0.61464781 12796454
-0.11728198 0.16992618 0.61464781 12731176
-0.1079682 0.16492836 0.59656996 12730661
-0.10519795 0.16992618 0.61464781 12796197
0 0 0 12533025
0 0 0 12731432
0 0 0 12468776
0 0 0 12599592
0 0 0 12402467
-0.09892232 0.24380715 0.88188601 12467490
-0.094355762 0.25488928 0.92197174 12796455
0 0 0 12468260
0 0 0 12927528
0 0 0 12861733
0 0 0 12730921
0 0 0 12271909
0 0 0 12336674
0 0 0 12664615
0 0 0 12205606
-0.012504362 0.24922508 0.90148348 12074020
-0.004098081 0.28037825 1.014169 12074018
0.0058712456 0.28037825 1.014169 12009000
0.016674286 0.29513496 1.0675462 12074018
0 0 0 12270881
0 0 0 11812388
0.044632733 0.27353972 0.98943311 12139813
0.053064641 0.26702687 0.96587515 12271397
0.06255924 0.26702687 0.96587515 12271910
0.073811248 0.27353972 0.98943311 12337190
0.085625857 0.28037825 1.014169 12271399
0.10334614 0.30311158 1.0963988 12796455
0.12064515 0.32043228 1.1590502 12730660
0.13203867 0.32043228 1.1590502 12468006
0.14343219 0.32043228 1.1590502 12468006
0.16420907 0.33985236 1.2292956 13058598
0.18180226 0.35047278 1.2677112 12271910
0.2005305 0.36177835 1.3086051 12599076
0.26460874 0.44860515 1.6226703 12599331
0.3339996 0.53405374 1.9317503 12467493
0 0 0 12337190
0.27898347 0.40054032 1.4488127 12206117
0.29322538 0.40054032 1.4488127 12467746
0 0 0 12664870
0 0 0 12599592
0 0 0 12533541
0 0 0 12862248
2.0408354 2.243026 8.1133518 12599077
0.5049023 0.53405374 1.9317503 12468519
0.52389151 0.53405374 1.9317503 12271397
0.54288071 0.53405374 1.9317503 12533029
0.56186992 0.53405374 1.9317503 12534569
0.58085907 0.53405374 1.9317503 12402213
0.62984073 0.5607565 2.028338 12796454
0.64977938 0.5607565 2.028338 12665639
0.74413115 0.62306273 2.2537088 12206116
0.76628524 0.62306273 2.2537088 12469031
0.78843927 0.62306273 2.2537088 12469030
0.72953403 0.5607565 2.028338 12468776
0.71378344 0.53405374 1.9317503 12665385
0.6994648 0.50977856 1.8439435 12337703
0.65779161 0.46729702 1.6902815 12403239
0.64743084 0.44860515 1.6226703 12468776
0.51826704 0.35047278 1.2677112 12534571
0.48523766 0.32043228 1.1590502 12468520
0.52673 0.33985236 1.2292956 12402983
0.49391291 0.31153136 1.1268544 12337962
0.55089808 0.33985236 1.2292956 12009767
0.50211918 0.30311158 1.0963988 11878697
0.52714401 0.31153136 1.1268544 12207147
0.538221 0.31153136 1.1268544 12140072
0.58160967 0.32985672 1.1931399 12140585
0.63042194 0.35047278 1.2677112 12140585
0.6428836 0.35047278 1.2677112 12403496
0.65534526 0.35047278 1.2677112 12206117
0.66780692 0.35047278 1.2677112 12337448
0.68026859 0.35047278 1.2677112 12140326
0.67173839 0.33985236 1.2292956 12009254
0.68382239 0.33985236 1.2292956 12009767
0.69590646 0.33985236 1.2292956 12271398
0.68716723 0.32985672 1.1931399 11878440
0.76653093 0.36177835 1.3086051 11681320
0.77939463 0.36177835 1.3086051 11943461
0.9446156 0.43135113 1.5602599 12075306
0.95995307 0.43135113 1.5602599 11943461
0.87439829 0.38672858 1.3988537 11812388
0.88814908 0.38672858 1.3988537 11484453
0.96870732 0.41537514 1.5024725 11485224
0.9834767 0.41537514 1.5024725 11419431
1.0781058 0.44860515 1.6226703 11287845
1.1396424 0.46729702 1.6902815 11550504
1.3214376 0.53405374 1.9317503 11484711
1.3404268 0.53405374 1.9317503 11287332
1.189489 0.46729702 1.6902815 11353127
1.2061045 0.46729702 1.6902815 11156007
1.22272 0.46729702 1.6902815 10828071
1.2393357 0.46729702 1.6902815 10959652
1.3105577 0.4876143 1.763772 10762533
1.2725667 0.46729702 1.6902815 10631460
1.2891822 0.46729702 1.6902815 10828580
1.3625716 0.4876143 1.763772 10893860
1.4426327 0.50977856 1.8439435 10959398
1.4607588 0.50977856 1.8439435 11221544
1.5493079 0.53405374 1.9317503 11090214
1.0623949 0.36177835 1.3086051 11024421
1.0752585 0.36177835 1.3086051 10893863
1.163165 0.38672858 1.3988537 10696999
1.2640948 0.41537514 1.5024725 10499361
1.2788641 0.41537514 1.5024725 10499876
1.2936336 0.41537514 1.5024725 10631462
1.0093393 0.32043228 1.1590502 10565928
1.0207329 0.32043228 1.1590502 10500391
0.97633576 0.30311158 1.0963988 10434597
1.1067635 0.33985236 1.2292956 10172194
1.1188475 0.33985236 1.2292956 10499361
0 0 0 10302495
0 0 0 10041380
0 0 0 10303270
2.0272138 0.59026992 2.1350925 10567466
1.853135 0.53405374 1.9317503 10502699
1.3556761 0.38672858 1.3988537 10372655
1.3694268 0.38672858 1.3988537 10110001
1.3831778 0.38672858 1.3988537 10305325
1.0948899 0.30311158 1.0963988 10042923
1.1363807 0.31153136 1.1268544 9977130
1.3769491 0.37383762 1.3522252 9911080
1.4381809 0.38672858 1.3988537 9845544
1.4519317 0.38672858 1.3988537 9780264
1.5742517 0.41537514 1.5024725 9715241
1.589021 0.41537514 1.5024725 9846057
1.6037904 0.41537514 1.5024725 9912107
1.6185597 0.41537514 1.5024725 10043693
1.6961495 0.43135113 1.5602599 9781036
1.7114869 0.43135113 1.5602599 9716013
1.7268243 0.43135113 1.5602599 9781806
2.1569622 0.53405374 1.9317503 9845544
3.0463316 0.74767524 2.7044504 9583913
3.0729165 0.74767524 2.7044504 9780268
2.9057827 0.70094556 2.5354223 9714988
2.930706 0.70094556 2.5354223 9518379
3.377862 0.80108064 2.8976254 9518637
3.179256 0.74767524 2.7044504 9452587
2.2898865 0.53405374 1.9317503 9649966
2.3088756 0.53405374 1.9317503 9845549
2.7158425 0.62306273 2.2537088 9583915
4.1069946 0.93459404 3.380563 9518377
0 0 0 9518634
0 0 0 10043948
0 0 0 10241327
0 0 0 10110769
0 0 0 9978672
0 0 0 9650735
0 0 0 9127474
0 0 0 8668723
0 0 0 2957865
0 0 0 2957348
-1.4671351 0.3519364 1.2292956 2365982
-1.0216316 0.24710429 0.86312246 2431518
-1.0131471 0.24710429 0.86312246 2365211
-1.0046625 0.24710429 0.86312246 2430749
-1.1147707 0.27652147 0.96587515 2299422
-1.16054 0.29034758 1.014169 2299935
0 0 0 2234142
0 0 0 2300189
0 0 0 2233881
-1.3184266 0.34158534 1.1931399 1641486
-1.2341037 0.32260841 1.1268544 721159
-1.2949693 0.34158534 1.1931399 589829
-1.4074253 0.37464201 1.3086051 524296
-1.4907383 0.40047938 1.3988537 458759
-1.4769875 0.40047938 1.3988537 655625
-1.0880479 0.29779238 1.0401733 1641233
-1.0778229 0.29779238 1.0401733 4137253
-1.1565645 0.32260841 1.1268544 3610909
-1.1782156 0.33182579 1.1590502 5189154
-1.3173798 0.37464201 1.3086051 6831660
-1.4442858 0.4147822 1.4488127 6897452
-1.4300438 0.4147822 1.4488127 6830633
-1.3669811 0.40047938 1.3988537 6896940
-1.06064 0.31388924 1.0963988 7028526
-0.99602336 0.29779238 1.0401733 7357489
-3.2038445 0.96782517 3.380563 7553580
0 0 0 4992800
0 0 0 2100238
0 0 0 1838610
0 0 0 1904403
-1.1046141 0.3519364 1.2292956 1838610
-1.060397 0.34158534 1.1931399 1707536
-1.0486684 0.34158534 1.1931399 1641743
-1.0369397 0.34158534 1.1931399 1641488
-1.0252111 0.34158534 1.1931399 1772817
-1.1486135 0.38713005 1.3522252 1707281
-1.2164154 0.4147822 1.4488127 1772817
-1.2021735 0.4147822 1.4488127 1773072
-1.1879317 0.4147822 1.4488127 1838608
-1.0269785 0.36293444 1.2677112 1575951
-0.95483941 0.34158534 1.1931399 1444625
-0.94311076 0.34158534 1.1931399 2298645
-0.71970439 0.26395231 0.92197174 2891296
-0.69484931 0.25808671 0.90148348 3676962
-0.68598771 0.25808671 0.90148348 10772578
-0.66240597 0.25247613 0.88188601 8337963
-0.65373695 0.25247613 0.88188601 6035221
-0.64506799 0.25247613 0.88188601 6362388
-0.63639903 0.25247613 0.88188601 3676185
-0.64167958 0.25808671 0.90148348 4137502
-0.63281798 0.25808671 0.90148348 4858392
-0.61039209 0.25247613 0.88188601 4661778
-0.60172307 0.25247613 0.88188601 4657168
-0.60623312 0.25808671 0.90148348 1181452
-0.58438516 0.25247613 0.88188601 1773075
-0.54046828 0.23701841 0.82789302 5322297
-0.53233004 0.23701841 0.82789302 7091491
-0.55837822 0.25247613 0.88188601 6432797
-0.52680469 0.24195629 0.84514076 6697257
-0.48799708 0.22772357 0.79542661 6368801
-0.43730497 0.2073911 0.72440636 5250842
-0.42263696 0.20375268 0.71169752 3477519
-0.42306307 0.2073911 0.72440636 2427406
-0.41594213 0.2073911 0.72440636 2098955
-0.4088212 0.2073911 0.72440636 2755086
-0.40170023 0.2073911 0.72440636 3150355
-0.40175346 0.21116185 0.73757738 3084818
-0.40180868 0.21507226 0.75123626 3084819
-0.4176254 0.22772357 0.79542661 4397594
-0.40980631 0.22772357 0.79542661 5121054
-0.46593973 0.26395231 0.92197174 5055772
-0.55840492 0.32260841 1.1268544 5383962
0 0 0 5581341
-0.66569066 0.40047938 1.3988537 5777437
-0.67522341 0.4147822 1.4488127 4530972
-0.63818908 0.40047938 1.3988537 3675673
-0.58415192 0.37464201 1.3086051 4267548
-0.53666472 0.3519364 1.2292956 4464148
-0.48086569 0.32260841 1.1268544 3544594
-0.45709166 0.31388924 1.0963988 3610386
-0.39318138 0.27652147 0.96587515 4792600
-0.37476385 0.27009076 0.94341296 7416865
-0.35718346 0.26395231 0.92197174 10566700
-0.35621625 0.27009076 0.94341296 11550759
-0.33905742 0.26395231 0.92197174 11878181
-0.32266116 0.25808671 0.90148348 11812134
-0.30697781 0.25247613 0.88188601 11746082
-0.28004503 0.23701841 0.82789302 11877927
-0.25138554 0.21913022 0.76541048 12074533
-0.21541101 0.19356503 0.67611259 12205605
-0.20203045 0.18732101 0.65430254 12140326
-0.19559862 0.18732101 0.65430254 12271654
-0.1891668 0.18732101 0.65430254 12468776
-0.18273498 0.18732101 0.65430254 12665639
-0.17630315 0.18732101 0.65430254 12665639
-0.16717497 0.18434766 0.64391679 12731175
-0.15833202 0.18146722 0.63385558 12796712
-0.15210119 0.18146722 0.63385558 12862248
-0.14362621 0.17867541 0.62410396 12928041
-0.13749124 0.17867541 0.62410396 12730408
-0.13135627 0.17867541 0.62410396 12862248
-0.1252213 0.17867541 0.62410396 12468776
-0.11728198 0.1759682 0.61464781 12730917
-0.11123996 0.1759682 0.61464781 12862245
-0.11382074 0.19039184 0.66502881 12468517
0 0 0 12862248
0 0 0 12861992
0 0 0 12599589
0 0 0 12271397
0 0 0 12075047
-0.094800554 0.24195629 0.84514076 12272424
-0.090253338 0.25247613 0.88188601 12403237
-0.085292742 0.26395231 0.92197174 12337190
-0.076229714 0.26395231 0.92197174 12467490
0 0 0 12402465
0 0 0 12729635
0 0 0 12337192
0 0 0 12599074
0 0 0 11812134
0 0 0 12140324
-0.011253926 0.23227805 0.81133515 12074531
-0.0039981278 0.28326592 0.98943311 12205606
0.0057280441 0.28326592 0.98943311 11745830
0.015454216 0.28326592 0.98943311 11746343
0.025180388 0.28326592 0.98943311 12139559
0.034906559 0.28326592 0.98943311 12074279
0.044632733 0.28326592 0.98943311 12271910
0.054358903 0.28326592 0.98943311 12206117
0.064085074 0.28326592 0.98943311 12402983
0.073811248 0.28326592 0.98943311 12927012
0.085625857 0.29034758 1.014169 12271651
0.10334614 0.31388924 1.0963988 12796455
0.1172939 0.32260841 1.1268544 12664869
0.12837093 0.32260841 1.1268544 12730662
0.13944796 0.32260841 1.1268544 12731432
0.15052499 0.32260841 1.1268544 12730408
0.17110801 0.34158534 1.1931399 12402983
0.19426392 0.36293444 1.2677112 12336678
0.21339415 0.37464201 1.3086051 12205860
0.2504997 0.4147822 1.4488127 12271398
0.2647416 0.4147822 1.4488127 12271398
0.27898347 0.4147822 1.4488127 12468773
0.29322538 0.4147822 1.4488127 12402725
0.30746728 0.4147822 1.4488127 12599592
0 0 0 12402211
0 0 0 12468260
0 0 0 12599847
0.53706187 0.61125803 2.1350925 12271397
0.5049023 0.55304295 1.9317503 12402983
0.52389151 0.55304295 1.9317503 12271397
0.54288071 0.55304295 1.9317503 12139813
0.56186992 0.55304295 1.9317503 12664872
0.60990208 0.58069515 2.028338 12533542
0.62984073 0.58069515 2.028338 12402982
0.64977938 0.58069515 2.028338 12730663
0.63782668 0.55304295 1.9317503 12534311
0.68965667 0.58069515 2.028338 12730662
0.70959538 0.58069515 2.028338 12533799
0.69479424 0.55304295 1.9317503 12271910
0.71378344 0.55304295 1.9317503 12271397
0.64117604 0.48391259 1.6902815 12402728
0.63147992 0.4645561 1.6226703 12271911
0.57806325 0.4147822 1.4488127 12468777
0.47384414 0.33182579 1.1590502 12665897
0.47175884 0.32260841 1.1268544 12337191
0.51123798 0.34158534 1.1931399 12402214
0.49391291 0.32260841 1.1268544 12271912
0.55089808 0.3519364 1.2292956 12271397
0.50211918 0.31388924 1.0963988 12730919
0.51289684 0.31388924 1.0963988 12533540
0.538221 0.32260841 1.1268544 12272424
0.58160967 0.34158534 1.1931399 12140069
0.61131823 0.3519364 1.2292956 12140583
0.62340224 0.3519364 1.2292956 12271912
0.6354863 0.3519364 1.2292956 12205862
0.62852412 0.34158534 1.1931399 12469035
0.64025277 0.34158534 1.1931399 11813158
0.65198141 0.34158534 1.1931399 12074534
0.66371 0.34158534 1.1931399 12074534
0.69590646 0.3519364 1.2292956 12008486
0.68716723 0.34158534 1.1931399 12074279
0.74257684 0.36293444 1.2677112 12008740
0.77939463 0.37464201 1.3086051 11877671
0.87714303 0.4147822 1.4488127 12074281
0.89138496 0.4147822 1.4488127 11812134
0.97529048 0.44668856 1.5602599 11681062
0.95393795 0.43014452 1.5024725 11681318
0.96870732 0.43014452 1.5024725 11550504
0.9834767 0.43014452 1.5024725 11352354
0.99824607 0.43014452 1.5024725 11090468
1.0940567 0.4645561 1.6226703 11615784
1.1562579 0.48391259 1.6902815 11353127
1.1259586 0.4645561 1.6226703 11352868
1.1419095 0.4645561 1.6226703 11287334
1.1578604 0.4645561 1.6226703 11089955
1.22272 0.48391259 1.6902815 11353125
1.2393357 0.48391259 1.6902815 11156005
1.2559512 0.48391259 1.6902815 11090726
1.2725667 0.48391259 1.6902815 10828325
1.2891822 0.48391259 1.6902815 10761763
1.3057978 0.48391259 1.6902815 10762533
1.3799095 0.50495225 1.763772 11090214
1.3972476 0.50495225 1.763772 10762534
1.0167333 0.36293444 1.2677112 11024935
0.94097829 0.33182579 1.1590502 10893091
1.0100912 0.3519364 1.2292956 10696228
1.0881221 0.37464201 1.3086051 10630948
1.1009858 0.37464201 1.3086051 10565156
1.0790416 0.36293444 1.2677112 10630947
0.91916066 0.30562901 1.0675462 10500134
0.95478046 0.31388924 1.0963988 10631717
0.96555811 0.31388924 1.0963988 10630948
0.97633576 0.31388924 1.0963988 10696741
0.96113676 0.30562901 1.0675462 10433570
0.97163081 0.30562901 1.0675462 10499878
1.0663069 0.33182579 1.1590502 10368805
1.0777005 0.33182579 1.1590502 10107174
1.089094 0.33182579 1.1590502 10106919
1.0410017 0.31388924 1.0963988 10435880
1.0517793 0.31388924 1.0963988 10436650
1.0920725 0.32260841 1.1268544 10240296
1.1031495 0.32260841 1.1268544 10108714
1.0841123 0.31388924 1.0963988 10042410
1.066077 0.30562901 1.0675462 10305325
1.1056676 0.31388924 1.0963988 10109229
1.1802421 0.33182579 1.1590502 10109229
1.4381809 0.40047938 1.3988537 9977643
1.4519317 0.40047938 1.3988537 9846316
1.4656825 0.40047938 1.3988537 9715242
1.5322702 0.4147822 1.4488127 9583402
1.6037904 0.43014452 1.5024725 9845546
1.6185597 0.43014452 1.5024725 9715241
1.6333292 0.43014452 1.5024725 9714473
1.6480985 0.43014452 1.5024725 9779755
1.6628679 0.43014452 1.5024725 9648425
1.6776372 0.43014452 1.5024725 9648680
2.1759512 0.55304295 1.9317503 9714473
2.8808594 0.72586888 2.5354223 9583658
2.9057827 0.72586888 2.5354223 9649966
2.930706 0.72586888 2.5354223 9584174
2.9556293 0.72586888 2.5354223 9650481
3.179256 0.7742601 2.7044504 9518122
2.2898865 0.55304295 1.9317503 9781036
2.3088756 0.55304295 1.9317503 9584684
2.4442582 0.58069515 2.028338 9518886
0 0 0 9912106
0 0 0 9649706
0 0 0 9978415
0 0 0 10240815
0 0 0 9979183
0 0 0 10306095
0 0 0 9519409
0 0 0 9782066
0 0 0 9453872
0 0 0 3286054
0 0 0 3286054
-1.6138487 0.40042248 1.3522252 3351077
-1.4550511 0.36402044 1.2292956 3416870
-1.0131471 0.25558883 0.86312246 3023655
-1.0981196 0.27936453 0.94341296 2628900
-1.1147707 0.28601608 0.96587515 2300190
-1.16054 0.3003169 1.014169 2103324
0 0 0 2891555
0 0 0 2825503
0 0 0 2496797
0 0 0 1840407
-1.2341037 0.33368543 1.1268544 1313807
-1.2579702 0.34321928 1.1590502 786953
-1.3221267 0.36402044 1.2292956 786698
-1.3945616 0.38750565 1.3086051 919054
-1.0446985 0.29299209 0.98943311 1707281
-1.0103301 0.28601608 0.96587515 2101012
-1.0008355 0.28601608 0.96587515 1443853
-0.99134094 0.28601608 0.96587515 1706768
-0.98184633 0.28601608 0.96587515 2691093
-0.94973892 0.27936453 0.94341296 6371116
-0.94046515 0.27936453 0.94341296 7093804
-1.0266982 0.30801731 1.0401733 6765356
-1.0164732 0.30801731 1.0401733 6896940
-0.95716298 0.29299209 0.98943311 6962732
-0.90336996 0.27936453 0.94341296 6701614
-0.96115345 0.3003169 1.014169 3876122
0 0 0 1903116
0 0 0 1772817
0 0 0 1575695
-0.99597412 0.32466689 1.0963988 1838096
-0.98519647 0.32466689 1.0963988 1903633
-0.97441882 0.32466689 1.0963988 1707281
-0.96364117 0.32466689 1.0963988 1707281
-0.97933203 0.33368543 1.1268544 1772817
-0.99591941 0.34321928 1.1590502 1903888
-0.98452586 0.34321928 1.1590502 1773073
-1.03211 0.36402044 1.2292956 1642001
-1.0858341 0.38750565 1.3086051 1707024
-1.007942 0.36402044 1.2292956 1707281
-0.96656799 0.35331398 1.1931399 2167573
-0.90179282 0.33368543 1.1268544 1575435
-0.68225032 0.25558883 0.86312246 1245959
-0.67376578 0.25558883 0.86312246 3347739
-0.65142125 0.25026405 0.84514076 5510422
-0.65679675 0.25558883 0.86312246 2361355
-0.64831221 0.25558883 0.86312246 1838610
-0.63982767 0.25558883 0.86312246 2232598
-0.63134313 0.25558883 0.86312246 3152412
-0.62285858 0.25558883 0.86312246 4729642
-0.62773001 0.26114511 0.88188601 7086624
-0.63281798 0.26694834 0.90148348 10494234
-0.62395638 0.26694834 0.90148348 3743003
-0.58892047 0.25558883 0.86312246 3607049
-0.56834352 0.25026405 0.84514076 4531236
-0.54860646 0.24515665 0.82789302 7289652
-0.54046828 0.24515665 0.82789302 7025704
-0.53233004 0.24515665 0.82789302 5842460
-0.5241918 0.24515665 0.82789302 4528406
-0.45154688 0.21451205 0.72440636 6828839
-0.42910087 0.20711508 0.69942683 6039581
-0.42222548 0.20711508 0.69942683 4200468
-0.41535008 0.20711508 0.69942683 2493197
-0.41564095 0.21074869 0.71169752 1902348
-0.41594213 0.21451205 0.72440636 1704969
-0.4088212 0.21451205 0.72440636 2559249
-0.40170023 0.21451205 0.72440636 3280915
-0.40175346 0.21841227 0.73757738 3412755
-0.40180868 0.22245695 0.75123626 4858912
-0.4176254 0.23554265 0.79542661 5712416
-0.40980631 0.23554265 0.79542661 4792600
-0.46593973 0.27301535 0.92197174 3939097
0 0 0 3281421
0 0 0 3346704
0 0 0 3412754
0 0 0 2427405
0 0 0 2558988
0 0 0 4463642
-1.2649955 0.8580482 2.8976254 6629923
-0.66581404 0.46202597 1.5602599 8927020
-0.46978867 0.33368543 1.1268544 10633518
-0.39318138 0.28601608 0.96587515 11550504
-0.37476385 0.27936453 0.94341296 11681318
-0.35718346 0.27301535 0.92197174 11943718
-0.34812042 0.27301535 0.92197174 11680803
-0.33152279 0.26694834 0.90148348 12009254
-0.32266116 0.26694834 0.90148348 11878181
-0.30697781 0.26114511 0.88188601 11878181
-0.28004503 0.24515665 0.82789302 12009254
-0.23791845 0.21451205 0.72440636 11812388
-0.21541101 0.20021124 0.67611259 12008996
-0.20203045 0.19375283 0.65430254 12534312
-0.19559862 0.19375283 0.65430254 12271141
-0.1891668 0.19375283 0.65430254 12336677
-0.17983443 0.19067739 0.64391679 12140324
-0.16816609 0.18481039 0.62410396 12665637
-0.16203111 0.18481039 0.62410396 12795940
-0.15833202 0.18769805 0.63385558 12796710
-0.15210119 0.18769805 0.63385558 12928040
-0.14587036 0.18769805 0.63385558 12469287
-0.13749124 0.18481039 0.62410396 12599846
-0.13135627 0.18481039 0.62410396 12535334
-0.1252213 0.18481039 0.62410396 12665639
-0.11728198 0.18201022 0.61464781 12665895
-0.11295135 0.18481039 0.62410396 12731175
0 0 0 12599333
0 0 0 12927783
0 0 0 12337445
0 0 0 12468003
0 0 0 12665895
0 0 0 12469028
-0.10341879 0.27301535 0.92197174 12140068
-0.092258967 0.26694834 0.90148348 12337444
-0.085292742 0.27301535 0.92197174 12140324
-0.076229714 0.27301535 0.92197174 11943459
-0.079873905 0.32466689 1.0963988 12468006
0 0 0 12271397
0 0 0 12729635
0 0 0 12402465
0 0 0 12205858
-0.019621823 0.24515665 0.82789302 12074272
-0.011253926 0.24025351 0.81133515 12139811
-0.0038121683 0.27936453 0.94341296 12074531
0.0054616234 0.27936453 0.94341296 12271397
0.014735416 0.27936453 0.94341296 11549732
0.024580855 0.28601608 0.96587515 11877668
0.03407545 0.28601608 0.96587515 11548962
0.043570045 0.28601608 0.96587515 11878181
0.053064641 0.28601608 0.96587515 11877927
0.064085074 0.29299209 0.98943311 12402985
0.073811248 0.29299209 0.98943311 12599594
0.085625857 0.3003169 1.014169 12927014
0.09804634 0.30801731 1.0401733 12861221
0.1172939 0.33368543 1.1268544 12403235
0.12837093 0.33368543 1.1268544 12598820
0.14343219 0.34321928 1.1590502 12664356
0.1548257 0.34321928 1.1590502 12599076
0.17629309 0.36402044 1.2292956 12862504
0.18837713 0.36402044 1.2292956 12271395
0.21339415 0.38750565 1.3086051 12074788
0.2504997 0.4290241 1.4488127 12008483
0.2647416 0.4290241 1.4488127 12401956
0.27898347 0.4290241 1.4488127 12140579
0.29322538 0.4290241 1.4488127 12664870
0.30746728 0.4290241 1.4488127 12598822
0.47409773 0.63224608 2.1350925 12336421
0.49508578 0.63224608 2.1350925 12861733
0.75426179 0.92405194 3.1205199 12599331
0.78493661 0.92405194 3.1205199 12271651
0.5049023 0.57203215 1.9317503 12795940
0.52389151 0.57203215 1.9317503 12795681
0.54288071 0.57203215 1.9317503 12731177
0.58996344 0.6006338 2.028338 12861478
0.60990208 0.6006338 2.028338 12336933
0.62984073 0.6006338 2.028338 12403497
0.61883748 0.57203215 1.9317503 12665383
0.63782668 0.57203215 1.9317503 12534823
0.65681589 0.57203215 1.9317503 12730662
0.61703938 0.52229023 1.763772 12730408
0.63437736 0.52229023 1.763772 12730410
0.65171534 0.52229023 1.763772 12534566
0.64117604 0.5005281 1.6902815 12862248
0.63147992 0.48050702 1.6226703 12534313
0.50580537 0.3753961 1.2677112 12599846
0.46068183 0.33368543 1.1268544 12796201
0.47175884 0.33368543 1.1268544 12402985
0.48283589 0.33368543 1.1268544 12337190
0.48056388 0.32466689 1.0963988 12009254
0.50498992 0.33368543 1.1268544 12140840
0.51606697 0.33368543 1.1268544 12337447
0.52714401 0.33368543 1.1268544 12271911
0.55359876 0.34321928 1.1590502 12469033
0.61796027 0.3753961 1.2677112 12337190
0.63042194 0.3753961 1.2677112 12140324
0.62340224 0.36402044 1.2292956 12272424
0.59917283 0.34321928 1.1590502 12205862
0.61056632 0.34321928 1.1590502 12206119
0.62195987 0.34321928 1.1590502 12140072
0.65198141 0.35331398 1.1931399 12008999
0.66371 0.35331398 1.1931399 12009000
0.69590646 0.36402044 1.2292956 11943462
0.70799047 0.36402044 1.2292956 12140326
0 0 0 11746597
0 0 0 11221796
0 0 0 11156260
0.99835116 0.48050702 1.6226703 11418404
1.014302 0.48050702 1.6226703 11352353
0.99062788 0.46202597 1.5602599 11812388
0.96870732 0.44491389 1.5024725 11877666
0.9834767 0.44491389 1.5024725 11680289
0.99824607 0.44491389 1.5024725 11483427
1.0130155 0.44491389 1.5024725 11484454
1.0277848 0.44491389 1.5024725 11680292
1.0425543 0.44491389 1.5024725 11287332
1.1419095 0.48050702 1.6226703 11418148
1.1578604 0.48050702 1.6226703 11418150
1.22272 0.5005281 1.6902815 11090210
1.2393357 0.5005281 1.6902815 11025188
1.2057132 0.48050702 1.6226703 10696740
1.2216641 0.48050702 1.6226703 10762533
1.2891822 0.5005281 1.6902815 10893606
1.3057978 0.5005281 1.6902815 11090984
1.3224133 0.5005281 1.6902815 11024679
1.1081618 0.41423017 1.3988537 10893863
1.0167333 0.3753961 1.2677112 10565410
0.86669052 0.31612304 1.0675462 10893859
0.87718457 0.31612304 1.0675462 10762533
1.0541183 0.3753961 1.2677112 10763048
1.0665799 0.3753961 1.2677112 10630949
0.90866661 0.31612304 1.0675462 10632233
0.89559245 0.30801731 1.0401733 10237989
0.92965466 0.31612304 1.0675462 10369060
0.96555811 0.32466689 1.0963988 10696997
0.97633576 0.32466689 1.0963988 10499876
0.96113676 0.31612304 1.0675462 10565155
0.97163081 0.31612304 1.0675462 10368290
1.0366874 0.33368543 1.1268544 10171683
1.0777005 0.34321928 1.1590502 10237989
1.0588415 0.33368543 1.1268544 10171683
1.0410017 0.32466689 1.0963988 10303524
1.0517793 0.32466689 1.0963988 10240297
1.0080669 0.30801731 1.0401733 10174505
1.0182918 0.30801731 1.0401733 10305580
1.055583 0.31612304 1.0675462 10239275
1.066077 0.31612304 1.0675462 9845802
1.1363807 0.33368543 1.1268544 9911851
1.2149551 0.35331398 1.1931399 9846314
1.3902415 0.40042248 1.3522252 9715754
1.4519317 0.41423017 1.3988537 9518634
1.4656825 0.41423017 1.3988537 9847085
1.4794333 0.41423017 1.3988537 9912622
1.546512 0.4290241 1.4488127 10043951
1.5607539 0.4290241 1.4488127 9978157
1.5749959 0.4290241 1.4488127 9977645
1.5892377 0.4290241 1.4488127 10042925
1.0689864 0.28601608 0.96587515 9977132
1.0784811 0.28601608 0.96587515 9911338
1.0879756 0.28601608 0.96587515 10043179
1.2129934 0.31612304 1.0675462 9911337
1.2234875 0.31612304 1.0675462 9452589
0 0 0 9386796
0 0 0 9844776
0 0 0 9714473
0 0 0 9387048
0 0 0 9189671
0 0 0 9255976
0 0 0 9452839
0 0 0 9584425
0 0 0 9913392
0 0 0 9979185
0 0 0 9978927
0 0 0 9913647
0 0 0 9913392
0 0 0 9847600
0 0 0 9716016
0 0 0 3351075
0 0 0 3417640
-1.6138487 0.41371492 1.3522252 3351077
-1.4550511 0.37610447 1.2292956 3351591
-1.4005269 0.3650426 1.1931399 3351335
-1.242609 0.32661706 1.0675462 3154727
-1.418799 0.37610447 1.2292956 2826275
-1.4974709 0.40036929 1.3086051 2826275
0 0 0 2825505
0 0 0 2694175
0 0 0 2364954
-1.5457414 0.42798096 1.3988537 1839638
-1.4331527 0.40036929 1.3086051 1642259
-1.3342108 0.37610447 1.2292956 1247501
-1.3221267 0.37610447 1.2292956 853259
-1.2008727 0.34476247 1.1268544 1443854
-1.0198247 0.29551065 0.96587515 1443853
-0.96440601 0.28207836 0.92197174 853002
-0.93411314 0.27580994 0.90148348 1509646
-0.92525154 0.27580994 0.90148348 3480862
-0.91638994 0.27580994 0.90148348 5189420
-0.90752828 0.27580994 0.90148348 6372140
-0.91909093 0.28207836 0.92197174 6962731
-0.91002786 0.28207836 0.92197174 6634538
-0.92191756 0.28863832 0.94341296 6568745
-0.89190185 0.28207836 0.92197174 6372651
-0.88283885 0.28207836 0.92197174 3940886
-0.87377578 0.28207836 0.92197174 2496016
-0.86471277 0.28207836 0.92197174 1772815
-0.96534848 0.31824228 1.0401733 1903631
-0.93124545 0.31028622 1.014169 1772559
-0.92127615 0.31028622 1.014169 1707024
-0.98519647 0.33544454 1.0963988 1772817
-0.97441882 0.33544454 1.0963988 1641488
-0.93828225 0.32661706 1.0675462 1838353
-0.9277882 0.32661706 1.0675462 1772815
-0.94208586 0.33544454 1.0963988 1707279
-0.95717794 0.34476247 1.1268544 1641487
-0.97313237 0.3546128 1.1590502 1970195
-0.96173882 0.3546128 1.1590502 2430744
-0.69296008 0.25857183 0.84514076 1575437
-0.68465233 0.25857183 0.84514076 1114632
-0.66254163 0.25329486 0.82789302 1704715
-0.65440339 0.25329486 0.82789302 2164493
-0.64626521 0.25329486 0.82789302 1836300
-0.63812697 0.25329486 0.82789302 1640719
-0.64311349 0.25857183 0.84514076 1904404
-0.63480568 0.25857183 0.84514076 2429462
-0.63982767 0.26407334 0.86312246 3087648
-0.63134313 0.26407334 0.86312246 3942183
-0.60988241 0.25857183 0.84514076 6433831
-0.62773001 0.26981407 0.88188601 11290684
-0.61906105 0.26981407 0.88188601 4794396
-0.59740502 0.26407334 0.86312246 7159087
-0.56488293 0.25329486 0.82789302 7484970
-0.52462482 0.2386817 0.78012997 6894632
-0.51695609 0.2386817 0.78012997 6827811
-0.50928742 0.2386817 0.78012997 5317146
-0.44972709 0.21399048 0.69942683 3806225
-0.44285169 0.21399048 0.69942683 5186084
-0.42144373 0.20685746 0.67611259 6104862
-0.41479751 0.20685746 0.67611259 4659989
-0.4081513 0.20685746 0.67611259 2821389
-0.41535008 0.21399048 0.69942683 1573640
-0.41564095 0.21774471 0.71169752 1180424
-0.42350471 0.22566269 0.73757738 1507848
-0.41625428 0.22566269 0.73757738 2559506
-0.40900388 0.22566269 0.73757738 4990241
0 0 0 5844002
0 0 0 5449243
0 0 0 3806225
0 0 0 3412756
0 0 0 3346963
0 0 0 3347734
0 0 0 4399134
0 0 0 6500911
0 0 0 8993069
0 0 0 10893606
0 0 0 11549220
-2.2137423 1.5514311 5.0708447 12140326
-1.2365117 0.88653201 2.8976254 11877416
-0.65047657 0.47736341 1.5602599 11681318
-0.44631401 0.33544454 1.0963988 11943204
-0.39304501 0.30271825 0.98943311 11681318
-0.35718346 0.28207836 0.92197174 11746083
-0.34038442 0.27580994 0.90148348 11811877
-0.32431579 0.26981407 0.88188601 11615268
-0.3156468 0.26981407 0.88188601 12271397
-0.30697781 0.26981407 0.88188601 12205604
-0.28587931 0.25857183 0.84514076 12140326
-0.23791845 0.221633 0.72440636 11614755
-0.22674844 0.21774471 0.71169752 11943461
-0.20203045 0.20018464 0.65430254 11943459
-0.19559862 0.20018464 0.65430254 12075301
-0.18616416 0.19700712 0.64391679 12205605
-0.17430106 0.19094536 0.62410396 12074789
-0.16561811 0.18805224 0.61464781 12599846
-0.16203111 0.19094536 0.62410396 12139813
-0.15833202 0.19392888 0.63385558 12402984
-0.15210119 0.19392888 0.63385558 12336932
-0.14362621 0.19094536 0.62410396 12599847
-0.13142544 0.1825213 0.59656996 12469032
-0.12556113 0.1825213 0.59656996 12469030
-0.11969683 0.1825213 0.59656996 12535336
-0.11908633 0.19094536 0.62410396 12928039
-0.11295135 0.19094536 0.62410396 12797225
0 0 0 13059627
0 0 0 12928296
0 0 0 12337188
0 0 0 12402724
0 0 0 12533796
-0.12071219 0.30271825 0.98943311 12664867
-0.11098602 0.30271825 0.98943311 12795940
-0.10125985 0.30271825 0.98943311 12468260
-0.091533676 0.30271825 0.98943311 12927525
-0.081807502 0.30271825 0.98943311 12008225
-0.07388337 0.31028622 1.014169 12074533
0 0 0 12730662
0 0 0 12140065
0 0 0 12074020
0 0 0 12205606
-0.021365985 0.27580994 0.90148348 12599846
-0.012504362 0.27580994 0.90148348 12402213
-0.0038121683 0.28863832 0.94341296 12402213
0.0054616234 0.28863832 0.94341296 12270627
0.014735416 0.28863832 0.94341296 12336422
0.024009207 0.28863832 0.94341296 12008740
0.033282999 0.28863832 0.94341296 11877154
0.043570045 0.29551065 0.96587515 12140326
0.054358903 0.30271825 0.98943311 12271397
0.064085074 0.30271825 0.98943311 12074018
0.073811248 0.30271825 0.98943311 12140324
0.085625857 0.31028622 1.014169 12468005
0.095595188 0.31028622 1.014169 12009508
0.10556451 0.31028622 1.014169 12337187
0.12837093 0.34476247 1.1268544 12467747
0.14343219 0.3546128 1.1590502 12205345
0.16420907 0.37610447 1.2292956 12140066
0.18180226 0.38785776 1.2677112 12599332
0.23023872 0.45968327 1.5024725 12533538
0.26460874 0.49645793 1.6226703 12468514
0.25977746 0.45968327 1.5024725 12402213
0.27454683 0.45968327 1.5024725 12336420
0.27898347 0.443266 1.4488127 12206120
0.30408558 0.45968327 1.5024725 12140068
0 0 0 12271397
0 0 0 12140069
2.3516574 3.1028621 10.141689 12533284
1.0894892 1.3790499 4.5074177 12598563
1.1337974 1.3790499 4.5074177 12337442
0.81561148 0.95472682 3.1205199 12533282
0.52389151 0.5910213 1.9317503 12796200
0.54288071 0.5910213 1.9317503 12402209
0.58996344 0.62057245 2.028338 12402212
0.67766899 0.68952495 2.2537088 12534568
0.59984827 0.5910213 1.9317503 12599333
0.61883748 0.5910213 1.9317503 12468004
0.63782668 0.5910213 1.9317503 12403237
0.68965667 0.62057245 2.028338 12403237
0.61703938 0.53962815 1.763772 12271910
0.60794497 0.51714367 1.6902815 12075047
0.62456053 0.51714367 1.6902815 12206374
0.64117604 0.51714367 1.6902815 12665894
0.58470368 0.45968327 1.5024725 12599333
0.50580537 0.38785776 1.2677112 12664615
0.46068183 0.34476247 1.1268544 12862505
0.47175884 0.34476247 1.1268544 12796714
0.46978623 0.33544454 1.0963988 12926760
0.52296656 0.3650426 1.1931399 12402983
0.55089808 0.37610447 1.2292956 12206631
0.56298208 0.37610447 1.2292956 12205605
0.57506615 0.37610447 1.2292956 12205864
0.58715016 0.37610447 1.2292956 11813676
0.61796027 0.38785776 1.2677112 11747626
0.63042194 0.38785776 1.2677112 12075560
0.58777928 0.3546128 1.1590502 11681318
0.58252913 0.34476247 1.1268544 12075046
0.61056632 0.3546128 1.1590502 12009512
0.64025277 0.3650426 1.1931399 11943463
0.67173839 0.37610447 1.2292956 11943461
0.80593354 0.443266 1.4488127 12074533
0.82017547 0.443266 1.4488127 11943205
0 0 0 12074279
0.84865928 0.443266 1.4488127 11746598
0.86290115 0.443266 1.4488127 11550248
0.98240024 0.49645793 1.6226703 11090983
0.99835116 0.49645793 1.6226703 10763046
1.014302 0.49645793 1.6226703 11090467
0.99062788 0.47736341 1.5602599 11091236
0.96870732 0.45968327 1.5024725 11288101
0.94835252 0.443266 1.4488127 11483684
0.99824607 0.45968327 1.5024725 11418149
1.0130155 0.45968327 1.5024725 11483941
1.1100076 0.49645793 1.6226703 11549733
1.0053201 0.443266 1.4488127 11222050
0.92089474 0.40036929 1.3086051 11483941
0.96488363 0.41371492 1.3522252 11418404
1.1738113 0.49645793 1.6226703 11287331
1.1897622 0.49645793 1.6226703 11222054
1.2057132 0.49645793 1.6226703 10369063
1.1311704 0.45968327 1.5024725 10369060
0.93758708 0.37610447 1.2292956 10631204
0.94967109 0.37610447 1.2292956 11090983
1.0238038 0.40036929 1.3086051 10762533
1.0042716 0.38785776 1.2677112 11089701
0.9295848 0.3546128 1.1590502 10565926
0.8444677 0.31824228 1.0401733 10369058
0.87718457 0.32661706 1.0675462 10696995
1.0541183 0.38785776 1.2677112 10696739
1.0665799 0.38785776 1.2677112 10564900
0.88536751 0.31824228 1.0401733 10762535
0.85190499 0.30271825 0.98943311 10696742
0.90581739 0.31824228 1.0401733 10499617
0.99237925 0.34476247 1.1268544 10828067
1.0034562 0.34476247 1.1268544 10434595
0.98711342 0.33544454 1.0963988 10369060
1.0256103 0.34476247 1.1268544 10369060
1.0366874 0.34476247 1.1268544 10434083
1.0477644 0.34476247 1.1268544 10171938
1.0588415 0.34476247 1.1268544 10368805
1.0410017 0.33544454 1.0963988 9909540
1.0517793 0.33544454 1.0963988 9780264
1.0080669 0.31824228 1.0401733 10109229
1.0182918 0.31824228 1.0401733 10240303
1.055583 0.32661706 1.0675462 10240302
1.0948899 0.33544454 1.0963988 10175279
1.1363807 0.34476247 1.1268544 10043692
1.2149551 0.3650426 1.1931399 9977900
1.5447129 0.45968327 1.5024725 10173994
1.5594822 0.45968327 1.5024725 10174506
1.5180283 0.443266 1.4488127 9714984
1.5322702 0.443266 1.4488127 9846058
1.546512 0.443266 1.4488127 9648424
1.680812 0.47736341 1.5602599 9583657
1.5749959 0.443266 1.4488127 9649192
1.0594919 0.29551065 0.96587515 9714471
1.0689864 0.29551065 0.96587515 9911594
1.0784811 0.29551065 0.96587515 9780009
1.0879756 0.29551065 0.96587515 10043438
1.0974702 0.29551065 0.96587515 9715241
1.1069648 0.29551065 0.96587515 10108718
1.2339815 0.32661706 1.0675462 9847597
1.8916028 0.49645793 1.6226703 9976872
0 0 0 10173998
0 0 0 9779751
0 0 0 9648165
0 0 0 9780522
0 0 0 9518120
0 0 0 9453096
0 0 0 9714985
0 0 0 9518891
0 0 0 9585454
0 0 0 9912879
0 0 0 9978928
0 0 0 9913649
0 0 0 9650735
0 0 0 3351333
0 0 0 3417127
-1.3832989 0.36600631 1.1590502 3482665
-1.4122555 0.37677121 1.1931399 3220263
-1.4429671 0.38818851 1.2292956 3416872
-1.4755982 0.40031943 1.2677112 2957091
-1.5103345 0.41323295 1.3086051 2891298
0 0 0 2759969
0 0 0 2694176
0 0 0 2496798
-1.9663163 0.55696613 1.763772 2036761
-1.5457414 0.44173175 1.3988537 1642776
-1.5319906 0.44173175 1.3988537 1576984
-1.4202889 0.41323295 1.3086051 1511444
-1.3221267 0.38818851 1.2292956 1115915
-1.1376687 0.33711109 1.0675462 1378317
-0.97346908 0.29114139 0.92197174 2429977
-0.94297481 0.28467157 0.90148348 4072742
-0.91380632 0.27848306 0.88188601 5058346
-0.90513736 0.27848306 0.88188601 5714727
-0.8964684 0.27848306 0.88188601 6567975
-0.90752828 0.28467157 0.90148348 6700329
-0.89866668 0.28467157 0.90148348 6306343
-0.88980502 0.28467157 0.90148348 5122072
-0.88094342 0.28467157 0.90148348 3808272
-0.85312349 0.27848306 0.88188601 2034442
-0.84445453 0.27848306 0.88188601 1969424
-0.81800288 0.27255788 0.86312246 2101265
-0.82711655 0.27848306 0.88188601 2890521
-0.81844759 0.27848306 0.88188601 2429461
-0.82777369 0.28467157 0.90148348 1969424
-0.81891209 0.28467157 0.90148348 1641488
-0.81005043 0.28467157 0.90148348 1576463
-0.80118883 0.28467157 0.90148348 1707281
-0.79232717 0.28467157 0.90148348 1838608
-0.76643372 0.27848306 0.88188601 1773074
-0.77460396 0.28467157 0.90148348 1904143
-0.74909574 0.27848306 0.88188601 1903631
-0.69509453 0.26143309 0.82789302 1115915
-0.68695635 0.26143309 0.82789302 720903
-0.67881811 0.26143309 0.82789302 458760
-0.67067987 0.26143309 0.82789302 917768
-0.66254163 0.26143309 0.82789302 852491
-0.65440339 0.26143309 0.82789302 1049868
-0.64626521 0.26143309 0.82789302 1312524
-0.63812697 0.26143309 0.82789302 1444623
-0.64311349 0.26687959 0.84514076 2035990
-0.63480568 0.26687959 0.84514076 2759458
-0.63982767 0.27255788 0.86312246 4074545
-0.63134313 0.27255788 0.86312246 5059640
-0.62285858 0.27255788 0.86312246 5124397
-0.62773001 0.27848306 0.88188601 2492932
-0.63281798 0.28467157 0.90148348 5383196
-0.62395638 0.28467157 0.90148348 6301983
-0.56488293 0.26143309 0.82789302 5054750
-0.52462482 0.24635041 0.78012997 4989213
-0.50720221 0.24170227 0.76541048 4725785
-0.45660248 0.22086588 0.69942683 4397076
-0.44972709 0.22086588 0.69942683 2886668
