# .PCD v0.7 - Point Cloud Data file format
VERSION 0.7
FIELDS x y z rgb
SIZE 4 4 4 4
TYPE F F F U
COUNT 1 1 1 1
WIDTH 1378
HEIGHT 1
VIEWPOINT 0 0 0 1 0 0 0
POINTS 1378
DATA ascii
0 0 0 6172966
0 0 0 5975328
0 0 0 5383966
0 0 0 5253410
0 0 0 4465180
-1.3838845 2.6749816 13.522252 3020054
0 0 0 1640459
0 0 0 983817
0 0 0 983562
0 0 0 1115146
0 0 0 983561
0 0 0 1312269
0 0 0 1903634
0 0 0 3612191
0 0 0 6370353
0 0 0 9978159
0 0 0 11549992
0 0 0 12009767
0 0 0 12075306
0.47705629 2.6749816 13.522252 11682085
0.16635837 0.72954041 3.687887 12009767
0.18572626 0.6687454 3.380563 12074790
0.21895733 0.6687454 3.380563 12469289
0.23278932 0.61730343 3.1205199 12731432
0.31136674 0.72954041 3.687887 12928037
0.38238075 0.80249453 4.0566759 12797223
0.46917561 0.89166057 4.5074177 12861481
0.57766914 1.003118 5.0708447 12795942
0.62751579 1.003118 5.0708447 12927528
0.67736244 1.003118 5.0708447 12731178
0.96961206 1.3374908 6.761126 12928041
1.0360743 1.3374908 6.761126 12797225
1.3230438 1.6049891 8.1133518 12796455
1.4027984 1.6049891 8.1133518 13125418
0.92659557 1.003118 5.0708447 13387052
0.97644222 1.003118 5.0708447 12862246
1.1729015 1.1464206 5.7952509 12665639
2.152271 2.0062361 10.141689 12534569
1.5013094 1.3374908 6.761126 12862248
1.3438042 1.1464206 5.7952509 12862760
1.4007719 1.1464206 5.7952509 13190441
1.700696 1.3374908 6.761126 13059110
2.6507373 2.0062361 10.141689 13256747
2.2003446 1.6049891 8.1133518 13126189
1.2667217 0.89166057 4.5074177 12928552
1.1799269 0.80249453 4.0566759 13125418
1.2198042 0.80249453 4.0566759 12994861
1.0497345 0.6687454 3.380563 13257260
1.0829656 0.6687454 3.380563 13060395
1.0303354 0.61730343 3.1205199 13125420
1.0610102 0.61730343 3.1205199 12797995
0.83481801 0.47205555 2.3862798 12993319
0.81059337 0.44583029 2.2537088 12732456
0.8327474 0.44583029 2.2537088 12797736
0.85490143 0.44583029 2.2537088 12862504
0.78934997 0.40124726 2.028338 12864300
0.770751 0.38214022 1.9317503 12666665
0.75384295 0.3647702 1.8439435 12469802
0.67933273 0.32099777 1.6226703 12732461
0.69528365 0.32099777 1.6226703 12469804
0.71123457 0.32099777 1.6226703 12403750
0.64927274 0.28660515 1.4488127 12732202
0.64063483 0.27672222 1.3988537 12535339
0.65438563 0.27672222 1.3988537 12600616
0.66813642 0.27672222 1.3988537 12732202
0.76056653 0.30865172 1.5602599 12601903
0.84056258 0.3343727 1.6902815 12470062
0.79124135 0.30865172 1.5602599 12535339
0.74896598 0.28660515 1.4488127 12011306
0.76320785 0.28660515 1.4488127 11945516
0.77744979 0.28660515 1.4488127 11617321
0.8525911 0.30865172 1.5602599 11223335
0.9811365 0.34891063 1.763772 11420713
1.0438597 0.3647702 1.8439435 11420203
1.0619857 0.3647702 1.8439435 11616554
1.0331504 0.34891063 1.763772 11617580
1.0982379 0.3647702 1.8439435 11879209
1.1695241 0.38214022 1.9317503 11682602
1.1885133 0.38214022 1.9317503 11944746
1.1526159 0.3647702 1.8439435 11420201
1.170742 0.3647702 1.8439435 11223079
1.188868 0.3647702 1.8439435 10895402
1.2069941 0.3647702 1.8439435 10501928
1.3476323 0.40124726 2.028338 9978667
1.1891921 0.34891063 1.763772 9781803
1.20653 0.34891063 1.763772 9912874
1.2794983 0.3647702 1.8439435 10239787
1.359416 0.38214022 1.9317503 10370601
1.3784052 0.38214022 1.9317503 10632999
1.2758818 0.34891063 1.763772 10894632
1.2932198 0.34891063 1.763772 10436138
1.4353727 0.38214022 1.9317503 10370857
1.4543619 0.38214022 1.9317503 10567721
1.4733511 0.38214022 1.9317503 10632743
1.4923403 0.38214022 1.9317503 10567466
1.5113295 0.38214022 1.9317503 10566695
1.3972476 0.34891063 1.763772 10632745
1.4145855 0.34891063 1.763772 10500646
1.4319234 0.34891063 1.763772 10566952
1.4492614 0.34891063 1.763772 10566951
1.405491 0.3343727 1.6902815 10172709
1.4221066 0.3343727 1.6902815 10239019
1.4387221 0.3343727 1.6902815 10304814
1.5186132 0.34891063 1.763772 10567211
1.4719532 0.3343727 1.6902815 10041895
1.5532892 0.34891063 1.763772 10239015
1.7202107 0.38214022 1.9317503 10107173
1.7391998 0.38214022 1.9317503 9648678
1.605303 0.34891063 1.763772 9648678
1.5550309 0.3343727 1.6902815 9910567
1.5087806 0.32099777 1.6226703 10107690
1.5247315 0.32099777 1.6226703 10306608
1.6746548 0.34891063 1.763772 10110257
1.6214931 0.3343727 1.6902815 10372657
1.6381086 0.3343727 1.6902815 10044203
1.5885353 0.32099777 1.6226703 9782063
1.6713398 0.3343727 1.6902815 9782063
1.6879553 0.3343727 1.6902815 10044976
1.7786826 0.34891063 1.763772 9913392
1.7211864 0.3343727 1.6902815 9979183
1.8133585 0.34891063 1.763772 10110769
1.8306965 0.34891063 1.763772 9979184
1.932036 0.3647702 1.8439435 9847600
2.0430269 0.38214022 1.9317503 9847345
2.062016 0.38214022 1.9317503 9518380
2.0810053 0.38214022 1.9317503 9452587
2.3210466 0.42236552 2.1350925 9453614
3.4229739 0.61730343 3.1205199 9060141
0 0 0 9126702
0 0 0 8405292
0 0 0 7683882
0 0 0 7093805
0 0 0 6634799
0 0 0 6437937
0 0 0 6306351
0 0 0 5977642
12.021904 2.0062361 10.141689 5517350
0 0 0 5122594
0 0 0 5057571
0 0 0 4531742
0 0 0 4925729
0 0 0 4597536
0 0 0 4400672
0 0 0 4597281
0 0 0 4728097
0 0 0 4597281
0 0 0 4531488
0 0 0 5057830
0 0 0 4140332
0 0 0 4271148
-12.103866 2.1059294 10.141689 3942953
0 0 0 4008749
0 0 0 3481123
0 0 0 6571593
0 0 0 9136982
0 0 0 10251345
0 0 0 10054477
0 0 0 10382418
-9.0450563 1.6847436 8.1133518 10513744
-4.9807229 0.9359687 4.5074177 10644815
-4.4427733 0.84237182 4.0566759 10448976
-4.0026326 0.76579249 3.687887 10449489
-2.5664814 0.49551281 2.3862798 10646611
-2.0586386 0.40112939 1.9317503 10580562
-2.0396495 0.40112939 1.9317503 10580305
-2.1216934 0.42118591 2.028338 10908499
-2.335283 0.46798435 2.2537088 10842189
-2.3131289 0.46798435 2.2537088 10645321
-2.945539 0.60169411 2.8976254 8343601
-3.4032311 0.70197648 3.380563 6108706
-3.6763637 0.76579249 3.687887 3020557
-4.0041227 0.84237182 4.0566759 983558
-3.9642456 0.84237182 4.0566759 983305
-3.5676074 0.76579249 3.687887 2560021
-3.5313554 0.76579249 3.687887 2888722
-3.8446138 0.84237182 4.0566759 3151638
-3.8047364 0.84237182 4.0566759 3151638
-3.7648592 0.84237182 4.0566759 3020309
-4.1388688 0.9359687 4.5074177 3217429
-3.6851046 0.84237182 4.0566759 3151638
-4.0502524 0.9359687 4.5074177 2888723
-3.60535 0.84237182 4.0566759 2823187
-3.9616363 0.9359687 4.5074177 2757651
-4.4069939 1.0529647 5.0708447 2822674
-4.3571472 1.0529647 5.0708447 2625553
-4.3073006 1.0529647 5.0708447 2363151
-3.7844038 0.9359687 4.5074177 2035215
-3.7400956 0.9359687 4.5074177 1049608
-3.3262088 0.84237182 4.0566759 589829
-3.6514795 0.9359687 4.5074177 1837840
-3.2464542 0.84237182 4.0566759 1049352
-3.2065768 0.84237182 4.0566759 984074
-2.8788176 0.76579249 3.687887 1246477
-3.1268222 0.84237182 4.0566759 1116172
-3.0869448 0.84237182 4.0566759 984329
-3.0470676 0.84237182 4.0566759 1049098
-3.3413227 0.9359687 4.5074177 1246474
-3.2970145 0.9359687 4.5074177 1115145
-3.2527063 0.9359687 4.5074177 1115146
-3.2083981 0.9359687 4.5074177 2888985
-3.1640902 0.9359687 4.5074177 3083016
-3.119782 0.9359687 4.5074177 1444109
-3.459908 1.0529647 5.0708447 1641229
-3.4100614 1.0529647 5.0708447 2035987
-3.3602147 1.0529647 5.0708447 1707279
-3.3103681 1.0529647 5.0708447 1970194
-3.2605214 1.0529647 5.0708447 1969939
-3.2106748 1.0529647 5.0708447 2167575
-3.1608281 1.0529647 5.0708447 2824986
-3.1109815 1.0529647 5.0708447 3152667
-3.0611348 1.0529647 5.0708447 3546907
-3.0112882 1.0529647 5.0708447 1837836
-2.9614415 1.0529647 5.0708447 2822933
-2.9115949 1.0529647 5.0708447 3613216
-2.8617485 1.0529647 5.0708447 4269854
-2.8119018 1.0529647 5.0708447 4796197
-2.7620552 1.0529647 5.0708447 5125932
-2.7122085 1.0529647 5.0708447 5322540
-2.6623619 1.0529647 5.0708447 5189925
-2.6125152 1.0529647 5.0708447 5123876
-2.5626686 1.0529647 5.0708447 5978159
-2.5128219 1.0529647 5.0708447 6307627
-2.4629753 1.0529647 5.0708447 6897966
-2.4131286 1.0529647 5.0708447 7029294
-2.363282 1.0529647 5.0708447 6306604
-2.3134353 1.0529647 5.0708447 3549223
-2.2635887 1.0529647 5.0708447 2630693
-2.5299909 1.2033882 5.7952509 1709596
-2.4730234 1.2033882 5.7952509 1775139
-2.4160559 1.2033882 5.7952509 1511963
-2.3590882 1.2033882 5.7952509 1709597
-2.0143557 1.0529647 5.0708447 1708054
-0.39290181 0.21059296 1.014169 1643033
-0.34812042 0.19144812 0.92197174 1907481
-0.31741545 0.17922802 0.86312246 2300444
-0.3089309 0.17922802 0.86312246 1049098
-0.29418707 0.17549412 0.84514076 721157
-0.28004503 0.17191261 0.82789302 984075
-0.26646867 0.16847436 0.81133515 721673
-0.25849321 0.16847436 0.81133515 1115915
-0.2363375 0.15893807 0.76541048 852489
-0.22881347 0.15893807 0.76541048 1379091
-0.21719152 0.15599477 0.75123626 919566
-0.20231372 0.15042353 0.72440636 1247506
-0.19519277 0.15042353 0.72440636 1641233
0 0 0 4992813
0 0 0 7487799
-0.17382993 0.15042353 0.72440636 7881010
-0.12615815 0.11383402 0.54819942 7748656
-0.11915907 0.11231624 0.5408901 7420715
-0.11384209 0.11231624 0.5408901 7683120
-0.10999168 0.11383402 0.54819942 6894892
0 0 0 6763817
0 0 0 6434852
0 0 0 6434599
0 0 0 6368546
0 0 0 6171939
0 0 0 6040096
0 0 0 5646625
0 0 0 5712416
0 0 0 5515040
0 0 0 4924701
0 0 0 4005145
0 0 0 2363411
0 0 0 2167319
0 0 0 4401449
0 0 0 7684152
0 0 0 10569009
0 0 0 12338219
0 0 0 12140583
0 0 0 12402980
0 0 0 12009510
0 0 0 12337190
0 0 0 12205606
0 0 0 11878181
0.13010627 0.76579249 3.687887 11944743
0.15249516 0.70197648 3.380563 12205607
0.18572626 0.70197648 3.380563 11877927
0.21895733 0.70197648 3.380563 12009254
0.23278932 0.64797831 3.1205199 12140586
0.26346418 0.64797831 3.1205199 12795940
0.29413903 0.64797831 3.1205199 12730408
0.42225805 0.84237182 4.0566759 12271910
0.46213534 0.84237182 4.0566759 12535082
0.62751579 1.0529647 5.0708447 12730662
0.67736244 1.0529647 5.0708447 12600616
1.1635345 1.6847436 8.1133518 12861994
1.0360743 1.403953 6.761126 12796455
1.1025364 1.403953 6.761126 12731432
0.77933246 0.9359687 4.5074177 12993319
0.82364053 0.9359687 4.5074177 12666407
0.97644222 1.0529647 5.0708447 13059112
1.3683851 1.403953 6.761126 12797221
2.152271 2.1059294 10.141689 12993317
0.90078574 0.84237182 4.0566759 12928037
0.94066304 0.84237182 4.0566759 12666150
0.98054034 0.84237182 4.0566759 13059627
1.4577394 1.2033882 5.7952509 13125418
1.514707 1.2033882 5.7952509 13125161
1.5716746 1.2033882 5.7952509 12797226
1.2667217 0.9359687 4.5074177 12796968
1.0726607 0.76579249 3.687887 12862760
1.1089128 0.76579249 3.687887 12862506
1.0497345 0.70197648 3.380563 12797739
1.0829656 0.70197648 3.380563 12928811
1.0303354 0.64797831 3.1205199 12601129
0.98522377 0.60169411 2.8976254 12928041
0.83481801 0.49551281 2.3862798 12797225
0.85827523 0.49551281 2.3862798 12797484
0.8327474 0.46798435 2.2537088 12994602
0.85490143 0.46798435 2.2537088 13257259
0.83089465 0.44335356 2.1350925 12666666
0.770751 0.40112939 1.9317503 12535593
0.75384295 0.38289624 1.8439435 12666409
0.77196896 0.38289624 1.8439435 12863021
0.69528365 0.33694872 1.6226703 12732461
0.71123457 0.33694872 1.6226703 12535082
0.69921684 0.32398915 1.5602599 12666668
0.64063483 0.29047301 1.3988537 12928811
0.65438563 0.29047301 1.3988537 12731432
0.69199842 0.30084705 1.4488127 12666668
0.76056653 0.32398915 1.5602599 12666412
0.96064293 0.40112939 1.9317503 12535343
0.85717809 0.35098824 1.6902815 12535082
0.80657881 0.32398915 1.5602599 12535083
0.76320785 0.30084705 1.4488127 11944487
0.87074375 0.33694872 1.6226703 11812904
0.96379858 0.36624858 1.763772 11879464
1.074578 0.40112939 1.9317503 11879467
1.0935673 0.40112939 1.9317503 11943976
1.1681844 0.42118591 2.028338 11944492
1.1315457 0.40112939 1.9317503 11550503
1.1505349 0.40112939 1.9317503 11747111
1.1695241 0.40112939 1.9317503 11682089
1.1885133 0.40112939 1.9317503 11747367
1.2678777 0.42118591 2.028338 11354924
1.170742 0.38289624 1.8439435 11355437
1.307755 0.42118591 2.028338 11289644
1.3276936 0.42118591 2.028338 11223081
1.3476323 0.42118591 2.028338 11289131
1.2432462 0.38289624 1.8439435 11026987
1.3214376 0.40112939 1.9317503 11025959
1.3404268 0.40112939 1.9317503 10894375
1.359416 0.40112939 1.9317503 11091752
1.3784052 0.40112939 1.9317503 10631460
1.2758818 0.36624858 1.763772 10699050
1.3520025 0.38289624 1.8439435 10763304
1.4353727 0.40112939 1.9317503 10369321
1.4543619 0.40112939 1.9317503 10240042
1.4733511 0.40112939 1.9317503 10042148
1.4923403 0.40112939 1.9317503 10762789
1.5113295 0.40112939 1.9317503 10107430
1.4607588 0.38289624 1.8439435 10369832
1.4145855 0.36624858 1.763772 10304552
1.4319234 0.36624858 1.763772 10632230
1.515137 0.38289624 1.8439435 10500905
1.6062754 0.40112939 1.9317503 10633259
1.6252646 0.40112939 1.9317503 10173480
1.5012753 0.36624858 1.763772 10370091
1.5186132 0.36624858 1.763772 10370345
1.4719532 0.35098824 1.6902815 10435366
1.4885688 0.35098824 1.6902815 10107688
1.5706271 0.36624858 1.763772 9845544
1.587965 0.36624858 1.763772 9911337
1.605303 0.36624858 1.763772 10173739
1.622641 0.36624858 1.763772 10369831
1.6399789 0.36624858 1.763772 10173478
1.5247315 0.33694872 1.6226703 10372142
1.6746548 0.36624858 1.763772 10175789
1.6919928 0.36624858 1.763772 10372914
1.6381086 0.35098824 1.6902815 10241839
1.5885353 0.33694872 1.6226703 10635312
1.6713398 0.35098824 1.6902815 10700853
1.6879553 0.35098824 1.6902815 10175024
1.7045708 0.35098824 1.6902815 10305839
1.7211864 0.35098824 1.6902815 10108716
1.7378019 0.35098824 1.6902815 10043436
1.7544174 0.35098824 1.6902815 9781034
1.8480344 0.36624858 1.763772 9781034
2.0430269 0.40112939 1.9317503 9913390
2.062016 0.40112939 1.9317503 9716270
2.0810053 0.40112939 1.9317503 9782063
2.7562428 0.52648234 2.5354223 10240558
0 0 0 9912880
0 0 0 9454125
0 0 0 9717038
11.423744 2.1059294 10.141689 9848624
23.046875 4.2118587 20.283379 9716784
0 0 0 9914165
0 0 0 9717043
0 0 0 9389105
23.844421 4.2118587 20.283379 9062453
24.043808 4.2118587 20.283379 8996660
24.243195 4.2118587 20.283379 9062714
0 0 0 8799799
0 0 0 7749684
0 0 0 6172967
0 0 0 5319458
0 0 0 5057316
0 0 0 4859937
0 0 0 4860451
0 0 0 5057060
0 0 0 5516066
0 0 0 5976359
0 0 0 4205355
0 0 0 4139560
0 0 0 4007976
0 0 0 3811880
0 0 0 3286054
0 0 0 2758940
0 0 0 6441289
0 0 0 9399126
0 0 0 10513745
0 0 0 10579538
0 0 0 10710608
-8.9653015 1.7644982 8.1133518 10447952
-4.9364147 0.98027682 4.5074177 10448722
-2.5899386 0.51897001 2.3862798 10776142
-1.8969646 0.38358656 1.763772 10514252
-1.9650642 0.40102229 1.8439435 10711890
-1.9469382 0.40102229 1.8439435 10646353
-2.0206602 0.4201186 1.9317503 10712147
-2.2123733 0.46434161 2.1350925 10776653
-2.3131289 0.49013841 2.2537088 10578758
-2.7491696 0.588166 2.7044504 8343603
-3.4032311 0.73520756 3.380563 5912871
-4.0440001 0.88224912 4.0566759 3020815
-4.0041227 0.88224912 4.0566759 1312265
-3.9642456 0.88224912 4.0566759 721675
-3.9243684 0.88224912 4.0566759 2034704
-3.884491 0.88224912 4.0566759 2692114
-3.8446138 0.88224912 4.0566759 2954259
-3.8047364 0.88224912 4.0566759 2888723
-3.7648592 0.88224912 4.0566759 2691344
-4.1388688 0.98027682 4.5074177 2888723
-4.0945606 0.98027682 4.5074177 2691345
-4.0502524 0.98027682 4.5074177 2756883
-3.60535 0.88224912 4.0566759 2493713
-3.9616363 0.98027682 4.5074177 1902861
-3.9173281 0.98027682 4.5074177 1443080
-3.8730199 0.98027682 4.5074177 1114885
-3.8287117 0.98027682 4.5074177 983559
-3.4059634 0.88224912 4.0566759 786695
-3.366086 0.88224912 4.0566759 721158
-3.6957874 0.98027682 4.5074177 851972
-3.6514795 0.98027682 4.5074177 1837840
-3.6071713 0.98027682 4.5074177 1180680
-3.5628631 0.98027682 4.5074177 853002
-3.5185549 0.98027682 4.5074177 721675
-3.474247 0.98027682 4.5074177 984073
-3.4299388 0.98027682 4.5074177 1246987
-3.3856306 0.98027682 4.5074177 1049865
-3.3413227 0.98027682 4.5074177 853257
-3.2970145 0.98027682 4.5074177 853259
-3.2527063 0.98027682 4.5074177 1641232
-3.2083981 0.98027682 4.5074177 1509649
-3.1640902 0.98027682 4.5074177 1641489
-3.119782 0.98027682 4.5074177 3087645
-3.0754738 0.98027682 4.5074177 3152923
-3.0311658 0.98027682 4.5074177 3349784
-2.9868577 0.98027682 4.5074177 3415318
-3.3103681 1.1028113 5.0708447 3875611
-3.2605214 1.1028113 5.0708447 4138013
-3.2106748 1.1028113 5.0708447 4269347
-3.1608281 1.1028113 5.0708447 4138531
-3.1109815 1.1028113 5.0708447 4466978
-3.0611348 1.1028113 5.0708447 5387563
-3.0112882 1.1028113 5.0708447 5716524
-2.9614415 1.1028113 5.0708447 5979439
-2.9115949 1.1028113 5.0708447 6438443
-2.8617485 1.1028113 5.0708447 6963503
-2.8119018 1.1028113 5.0708447 6767151
-2.7620552 1.1028113 5.0708447 7030066
-2.7122085 1.1028113 5.0708447 7227441
-2.6623619 1.1028113 5.0708447 7096370
-2.6125152 1.1028113 5.0708447 7424310
-2.5626686 1.1028113 5.0708447 7227443
-2.5128219 1.1028113 5.0708447 7359029
-2.4629753 1.1028113 5.0708447 7884855
-2.4131286 1.1028113 5.0708447 8278070
-2.363282 1.1028113 5.0708447 7819062
-2.3134353 1.1028113 5.0708447 8147257
-2.2635887 1.1028113 5.0708447 8344378
-2.5299909 1.2603558 5.7952509 8082236
-2.4730234 1.2603558 5.7952509 7820609
-2.4160559 1.2603558 5.7952509 8081982
-0.66054475 0.35289964 1.6226703 8279872
-0.48832861 0.2673482 1.2292956 8213565
-0.39290181 0.22056228 1.014169 8410942
-0.37359267 0.21518271 0.98943311 8870719
-0.33152279 0.19605535 0.90148348 7620657
-0.3156468 0.19179328 0.88188601 984074
-0.30044636 0.18771257 0.86312246 786696
-0.28587931 0.18380189 0.84514076 983305
-0.26646867 0.17644982 0.81133515 918284
-0.25849321 0.17644982 0.81133515 787466
-0.24088246 0.1696633 0.78012997 524296
-0.23321375 0.1696633 0.78012997 852491
-0.21719152 0.16337946 0.75123626 1115663
-0.21787633 0.1696633 0.78012997 1378832
0 0 0 5124916
0 0 0 7356210
0 0 0 7355696
0 0 0 7683376
-0.1212429 0.1145778 0.52684098 7617583
-0.11606403 0.1145778 0.52684098 7224365
-0.11234418 0.1160854 0.53377312 6960425
-0.11149842 0.12085604 0.555709 7223340
0 0 0 6828839
0 0 0 6434597
0 0 0 6237470
0 0 0 5843231
0 0 0 6040095
0 0 0 5842973
0 0 0 5909025
0 0 0 5712416
0 0 0 6369574
-0.83033079 1.7644982 8.1133518 7354154
-1.8764403 4.4112453 20.283379 9190443
0 0 0 10829872
0 0 0 12008997
0 0 0 12205605
0 0 0 12534569
0 0 0 12664613
0 0 0 12730662
0 0 0 12862246
0 0 0 12337187
0 0 0 12402981
0 0 0 12009767
0 0 0 11418914
0 0 0 11746595
0.11008992 0.67865318 3.1205199 11746595
0.11437137 0.55140567 2.5354223 11747111
0.13929468 0.55140567 2.5354223 11812390
0.18767771 0.63017792 2.8976254 12206119
0.23278932 0.67865318 3.1205199 12402213
0.26346418 0.67865318 3.1205199 12402983
0.29413903 0.67865318 3.1205199 12927526
0.32481387 0.67865318 3.1205199 12534569
0.38511276 0.73520756 3.380563 12599592
0.45637512 0.80204457 3.687887 12664869
0.60209996 0.98027682 4.5074177 12664869
1.1635345 1.7644982 8.1133518 12533799
1.2432891 1.7644982 8.1133518 12928039
0.73502433 0.98027682 4.5074177 12796453
0.70139921 0.88224912 4.0566759 12730660
0.82364053 0.98027682 4.5074177 13059112
0.71013975 0.80204457 3.687887 12731430
0.91225678 0.98027682 4.5074177 12469030
0.71742362 0.73520756 3.380563 12402983
0.64341831 0.63017792 2.8976254 12534314
0.85514814 0.80204457 3.687887 12861995
0.98054034 0.88224912 4.0566759 12469032
1.0204177 0.88224912 4.0566759 12862246
1.060295 0.88224912 4.0566759 12796967
1.2224137 0.98027682 4.5074177 12731691
1.2667217 0.98027682 4.5074177 12993834
1.0726607 0.80204457 3.687887 12797482
1.0165035 0.73520756 3.380563 12797738
1.0497345 0.73520756 3.380563 12468776
0.92825621 0.63017792 2.8976254 13058598
0.83714753 0.55140567 2.5354223 12600875
0.81136078 0.51897001 2.3862798 12797225
0.83481801 0.51897001 2.3862798 13059627
0.85827523 0.51897001 2.3862798 12665641
0.8327474 0.49013841 2.2537088 12731689
0.85490143 0.49013841 2.2537088 12666151
0.78934997 0.44112456 2.028338 12797226
0.770751 0.4201186 1.9317503 12666409
0.7897402 0.4201186 1.9317503 12600872
0.80872941 0.4201186 1.9317503 12600361
0.79009503 0.40102229 1.8439435 12862764
0.71123457 0.35289964 1.6226703 12731948
0.62688398 0.30422381 1.3988537 12535595
0.64063483 0.30422381 1.3988537 12666410
0.65438563 0.30422381 1.3988537 12599592
0.69199842 0.31508896 1.4488127 12403753
0.76056653 0.33932659 1.5602599 12469549
0.80694008 0.35289964 1.6226703 12272428
0.822891 0.35289964 1.6226703 12534569
0.80657881 0.33932659 1.5602599 12403240
0.82191622 0.33932659 1.5602599 12469289
0.9464606 0.38358656 1.763772 11943207
1.0076076 0.40102229 1.8439435 12075047
1.0257336 0.40102229 1.8439435 12140840
1.0935673 0.4201186 1.9317503 12075304
1.1125565 0.4201186 1.9317503 12075304
1.1315457 0.4201186 1.9317503 11813161
1.1505349 0.4201186 1.9317503 12140582
1.1695241 0.4201186 1.9317503 11747113
1.1885133 0.4201186 1.9317503 12075306
1.2678777 0.44112456 2.028338 11812906
1.2878163 0.44112456 2.028338 11747885
1.307755 0.44112456 2.028338 11747883
1.1545161 0.38358656 1.763772 11814191
1.2251202 0.40102229 1.8439435 11617068
1.2432462 0.40102229 1.8439435 11420202
1.3214376 0.4201186 1.9317503 11091751
1.3404268 0.4201186 1.9317503 10698790
1.2976243 0.40102229 1.8439435 10567975
1.2585438 0.38358656 1.763772 10108968
1.2758818 0.38358656 1.763772 10108198
1.4163835 0.4201186 1.9317503 10567208
1.4353727 0.4201186 1.9317503 10697767
1.4543619 0.4201186 1.9317503 9779492
1.5470188 0.44112456 2.028338 10566181
1.4923403 0.4201186 1.9317503 10697255
1.5113295 0.4201186 1.9317503 10566441
1.5303187 0.4201186 1.9317503 10370345
1.4788848 0.40102229 1.8439435 10501161
1.4970108 0.40102229 1.8439435 10239015
1.6666507 0.44112456 2.028338 9779751
1.6062754 0.4201186 1.9317503 9452072
1.6252646 0.4201186 1.9317503 9321255
1.5012753 0.38358656 1.763772 9189926
1.5186132 0.38358656 1.763772 8993063
1.5359511 0.38358656 1.763772 9059369
1.5532892 0.38358656 1.763772 8993064
1.5706271 0.38358656 1.763772 9517607
1.587965 0.38358656 1.763772 9845284
1.605303 0.38358656 1.763772 9910561
1.622641 0.38358656 1.763772 10237987
1.6399789 0.38358656 1.763772 10501159
1.5247315 0.35289964 1.6226703 10502954
1.6746548 0.38358656 1.763772 10437678
1.6214931 0.36760378 1.6902815 10175023
1.6381086 0.36760378 1.6902815 10175793
1.6547242 0.36760378 1.6902815 10044463
1.6044862 0.35289964 1.6226703 9584426
1.6204371 0.35289964 1.6226703 9518632
1.7045708 0.36760378 1.6902815 9911850
1.7211864 0.36760378 1.6902815 10175022
1.7378019 0.36760378 1.6902815 9978413
1.7544174 0.36760378 1.6902815 10043694
1.7710329 0.36760378 1.6902815 9584687
1.8653724 0.38358656 1.763772 9977645
2.062016 0.4201186 1.9317503 9913135
2.1850557 0.44112456 2.028338 10175022
0 0 0 9977645
0 0 0 10240559
0 0 0 9978928
7.549367 1.4704151 6.761126 9913390
7.6158295 1.4704151 6.761126 9781547
9.21875 1.7644982 8.1133518 9715499
11.623131 2.2056227 10.141689 9715500
0 0 0 9649966
15.763356 2.9408302 13.522252 9651247
0 0 0 9783092
0 0 0 9783862
0 0 0 9782833
12.221291 2.2056227 10.141689 9979185
12.320984 2.2056227 10.141689 9848629
0 0 0 8601391
0 0 0 7420718
0 0 0 7224626
0 0 0 6305839
0 0 0 5977901
0 0 0 5910823
0 0 0 6831407
0 0 0 7817786
0 0 0 3876906
0 0 0 3811880
0 0 0 3745574
0 0 0 2760482
0 0 0 2299934
0 0 0 2496799
0 0 0 2890270
0 0 0 7558736
0 0 0 10120528
0 0 0 10317135
0 0 0 10514002
0 0 0 10579279
-5.5534663 1.152658 5.0708447 10513999
-2.5899386 0.5424273 2.3862798 10383183
-1.7452074 0.36885056 1.6226703 10644815
-1.8013088 0.38421932 1.6902815 10317390
-1.7846932 0.38421932 1.6902815 10317131
-1.928812 0.41914836 1.8439435 10579792
-2.0016711 0.43910778 1.9317503 10906701
-2.3131289 0.51229244 2.2537088 10579015
-2.5773466 0.57632899 2.5354223 8015671
-3.4032311 0.76843864 3.380563 5649955
-4.0440001 0.92212641 4.0566759 5321508
-3.6401114 0.83829671 3.687887 1049349
-3.6038594 0.83829671 3.687887 786696
-3.5676074 0.83829671 3.687887 1246731
-3.5313554 0.83829671 3.687887 1574922
-3.8446138 0.92212641 4.0566759 1246472
-3.8047364 0.92212641 4.0566759 983558
-4.183177 1.0245849 4.5074177 917765
-4.1388688 1.0245849 4.5074177 983815
-4.0945606 1.0245849 4.5074177 590341
-4.0502524 1.0245849 4.5074177 655623
-4.0059443 1.0245849 4.5074177 655623
-3.9616363 1.0245849 4.5074177 721159
-3.9173281 1.0245849 4.5074177 720905
-3.8730199 1.0245849 4.5074177 721161
-3.8287117 1.0245849 4.5074177 655625
-3.4059634 0.92212641 4.0566759 590087
-3.366086 0.92212641 4.0566759 655365
-3.3262088 0.92212641 4.0566759 1180680
-3.2863314 0.92212641 4.0566759 1640975
-3.2464542 0.92212641 4.0566759 1313037
-3.5628631 1.0245849 4.5074177 1575695
-3.5185549 1.0245849 4.5074177 1773074
-3.474247 1.0245849 4.5074177 2299418
-3.4299388 1.0245849 4.5074177 2430744
-3.3856306 1.0245849 4.5074177 1642771
-3.3413227 1.0245849 4.5074177 1115404
-2.9673131 0.92212641 4.0566759 1246988
-2.9274356 0.92212641 4.0566759 1706251
-3.2083981 1.0245849 4.5074177 3152665
-3.1640902 1.0245849 4.5074177 3678493
-3.119782 1.0245849 4.5074177 5914163
-3.0754738 1.0245849 4.5074177 6636598
-3.0311658 1.0245849 4.5074177 7489848
-2.9868577 1.0245849 4.5074177 7488562
-2.9425495 1.0245849 4.5074177 6766123
-3.2605214 1.152658 5.0708447 5845799
-3.2106748 1.152658 5.0708447 5386534
-3.1608281 1.152658 5.0708447 5912360
-3.1109815 1.152658 5.0708447 5979437
-3.0611348 1.152658 5.0708447 6964273
-3.0112882 1.152658 5.0708447 6833200
-2.6323926 1.0245849 4.5074177 7425336
-2.5880845 1.0245849 4.5074177 7161137
-2.5437765 1.0245849 4.5074177 7686707
-2.8119018 1.152658 5.0708447 7359540
-2.7620552 1.152658 5.0708447 7883320
-2.7122085 1.152658 5.0708447 8081208
-2.6623619 1.152658 5.0708447 8146487
-2.6125152 1.152658 5.0708447 8344377
-2.5626686 1.152658 5.0708447 8344376
-2.5128219 1.152658 5.0708447 8081465
-2.4629753 1.152658 5.0708447 8212530
-2.4131286 1.152658 5.0708447 8738617
-2.363282 1.152658 5.0708447 9001276
-2.3134353 1.152658 5.0708447 9395264
-2.2635887 1.152658 5.0708447 9460541
-2.2137423 1.152658 5.0708447 9461567
-2.1638956 1.152658 5.0708447 9264450
-0.67649567 0.36885056 1.6226703 9527620
-0.56943512 0.3179746 1.3988537 9461829
-0.44763461 0.25614622 1.1268544 9921605
-0.39290181 0.2305316 1.014169 10118724
-0.38293248 0.2305316 1.014169 10051904
-0.36386648 0.22490887 0.98943311 9658429
-0.32266116 0.20491697 0.90148348 2295555
-0.30697781 0.20046225 0.88188601 852489
-0.28587931 0.19210966 0.84514076 655370
-0.27190682 0.18818906 0.82789302 1838867
-0.25849321 0.18442528 0.81133515 786698
-0.24088246 0.177332 0.78012997 655880
-0.23321375 0.177332 0.78012997 458760
-0.22554503 0.177332 0.78012997 655882
-0.2221484 0.1808091 0.79542661 2035735
0 0 0 6961972
0 0 0 7224112
0 0 0 7421232
0 0 0 7552303
0 0 0 7814962
-0.11606403 0.11975667 0.52684098 7289388
-0.11234418 0.12133242 0.53377312 6829609
0 0 0 6565667
0 0 0 6566437
0 0 0 6303267
0 0 0 6237731
0 0 0 6565926
0 0 0 7877927
0 0 0 9715244
0 0 0 11551791
0 0 0 11878184
-0.65006095 1.3173233 5.7952509 12403241
-0.69194227 1.5368773 6.761126 12403497
-0.75057614 1.8442528 8.1133518 12533540
-0.8385269 2.305316 10.141689 12796714
0 0 0 12796967
0 0 0 12599848
0 0 0 12730662
0 0 0 12796201
0 0 0 12337444
0 0 0 12402980
0 0 0 12928041
0 0 0 12730660
0 0 0 12140324
0 0 0 12075560
0 0 0 11615781
0.089448057 0.57632899 2.5354223 11813158
0.11437137 0.57632899 2.5354223 11877927
0.13929468 0.57632899 2.5354223 11353123
0.16421801 0.57632899 2.5354223 11682088
0.23278932 0.709328 3.1205199 11681572
0.26346418 0.709328 3.1205199 12336420
0.29413903 0.709328 3.1205199 12599846
0.24838707 0.5424273 2.3862798 12598822
0.24322912 0.48532969 2.1350925 12796201
0.29530156 0.5424273 2.3862798 12795942
0.4926272 0.83829671 3.687887 12795940
0.64640808 1.0245849 4.5074177 12664615
0.62164456 0.92212641 4.0566759 12403496
0.73502433 1.0245849 4.5074177 12861735
0.5844993 0.76843864 3.380563 12795940
0.82364053 1.0245849 4.5074177 12402983
0.65096146 0.76843864 3.380563 12665385
0.68419254 0.76843864 3.380563 12730660
0.66223723 0.709328 3.1205199 12403237
0.64341831 0.65866166 2.8976254 12862248
0.78388578 0.76843864 3.380563 12664615
0.81711692 0.76843864 3.380563 12796455
0.850348 0.76843864 3.380563 12730149
0.81561148 0.709328 3.1205199 12862247
0.84628636 0.709328 3.1205199 12731177
0.87696117 0.709328 3.1205199 12862507
0.90763605 0.709328 3.1205199 12664614
0.93831086 0.709328 3.1205199 12796712
0.89977241 0.65866166 2.8976254 12796201
0.81222421 0.57632899 2.5354223 12797993
0.83714753 0.57632899 2.5354223 12731432
0.81136078 0.5424273 2.3862798 13059627
0.83481801 0.5424273 2.3862798 12797738
0.85827523 0.5424273 2.3862798 12666409
0.88173252 0.5424273 2.3862798 12666152
0.90518975 0.5424273 2.3862798 12797479
0.78934997 0.46106321 2.028338 12469289
0.770751 0.43910778 1.9317503 12338473
0.7897402 0.43910778 1.9317503 12404267
0.80872941 0.43910778 1.9317503 12731948
0.79009503 0.41914836 1.8439435 12797223
0.63503081 0.32933083 1.4488127 12666409
0.62688398 0.3179746 1.3988537 12666666
0.68808925 0.3415283 1.5024725 12601129
0.70285863 0.3415283 1.5024725 12469290
0.717628 0.3415283 1.5024725 12600619
0.76056653 0.354664 1.5602599 12271915
0.80694008 0.36885056 1.6226703 12009769
0.822891 0.36885056 1.6226703 12009765
0.83884192 0.36885056 1.6226703 12206374
0.85479283 0.36885056 1.6226703 12141353
0.98948157 0.41914836 1.8439435 12338218
1.0555888 0.43910778 1.9317503 12666155
1.074578 0.43910778 1.9317503 12140586
1.0935673 0.43910778 1.9317503 12009256
1.1125565 0.43910778 1.9317503 12009766
1.1315457 0.43910778 1.9317503 12141611
1.1505349 0.43910778 1.9317503 12009000
1.1695241 0.43910778 1.9317503 11616039
1.1885133 0.43910778 1.9317503 12074793
1.2678777 0.46106321 2.028338 11812904
1.3555961 0.48532969 2.1350925 12009256
1.2454808 0.43910778 1.9317503 11944232
1.2069941 0.41914836 1.8439435 11813420
1.2251202 0.41914836 1.8439435 11878186
1.2432462 0.41914836 1.8439435 11485226
1.3214376 0.43910778 1.9317503 11223338
1.3404268 0.43910778 1.9317503 11157545
1.2976243 0.41914836 1.8439435 11157545
1.2585438 0.4009245 1.763772 11550250
1.2758818 0.4009245 1.763772 11419690
1.4163835 0.43910778 1.9317503 11222567
1.4353727 0.43910778 1.9317503 11156261
1.4543619 0.43910778 1.9317503 11025445
1.5470188 0.46106321 2.028338 10894119
1.4923403 0.43910778 1.9317503 10238505
1.5113295 0.43910778 1.9317503 10501929
1.5303187 0.43910778 1.9317503 10304296
1.6267734 0.46106321 2.028338 10107689
1.6467121 0.46106321 2.028338 10238760
1.6666507 0.46106321 2.028338 10303782
1.6062754 0.43910778 1.9317503 10369573
1.6252646 0.43910778 1.9317503 10303780
1.6442538 0.43910778 1.9317503 10370343
1.6632431 0.43910778 1.9317503 10238760
1.6057671 0.41914836 1.8439435 10042150
1.6238931 0.41914836 1.8439435 9976102
1.5051843 0.38421932 1.6902815 9910311
1.5217998 0.38421932 1.6902815 9778468
1.605303 0.4009245 1.763772 9517864
1.622641 0.4009245 1.763772 9582887
1.6399789 0.4009245 1.763772 9976614
1.6573169 0.4009245 1.763772 10043434
1.6048776 0.38421932 1.6902815 9846825
1.6214931 0.38421932 1.6902815 10043436
1.6381086 0.38421932 1.6902815 9977901
1.6547242 0.38421932 1.6902815 10109744
1.6713398 0.38421932 1.6902815 10175023
1.6204371 0.36885056 1.6226703 10372145
1.6363881 0.36885056 1.6226703 10240559
1.652339 0.36885056 1.6226703 10306352
1.7378019 0.38421932 1.6902815 10372402
1.6842408 0.36885056 1.6226703 9847088
1.7710329 0.38421932 1.6902815 10108975
1.8653724 0.4009245 1.763772 10042923
1.9682881 0.41914836 1.8439435 9977643
2.1850557 0.46106321 2.028338 9912111
0 0 0 10240046
0 0 0 9976874
8.9794865 1.8442528 8.1133518 9845545
9.0592413 1.8442528 8.1133518 9977387
6.5278535 1.3173233 5.7952509 9649193
9.21875 1.8442528 8.1133518 9715758
9.2985048 1.8442528 8.1133518 9913390
9.3782597 1.8442528 8.1133518 9913392
11.822517 2.305316 10.141689 9847599
23.844421 4.6106319 20.283379 10043180
24.043808 4.6106319 20.283379 9453357
12.121597 2.305316 10.141689 9060141
9.7770329 1.8442528 8.1133518 9388592
12.320984 2.305316 10.141689 9716530
0 0 0 9782322
0 0 0 9324083
0 0 0 8470574
0 0 0 8732977
0 0 0 8076591
0 0 0 7551276
0 0 0 7617583
0 0 0 7684146
0 0 0 3614247
0 0 0 3745320
0 0 0 3153698
0 0 0 2496798
0 0 0 2300705
0 0 0 2168605
0 0 0 2431262
0 0 0 2824476
0 0 0 8084826
0 0 0 9989199
0 0 0 10578507
0 0 0 10513229
0 0 0 10447435
-1.6307021 0.35629767 1.5024725 10513229
-1.7452074 0.38480148 1.6226703 10776401
-1.7292565 0.38480148 1.6226703 10382412
-1.7846932 0.40083486 1.6902815 10579790
-1.928812 0.4372744 1.8439435 10382929
-1.910686 0.4372744 1.8439435 10317903
-2.3131289 0.53444654 2.2537088 10513227
-2.5773466 0.60125232 2.5354223 8673594
-3.4032311 0.80166972 3.380563 6569256
-3.3699999 0.80166972 3.380563 4992282
-3.3367689 0.80166972 3.380563 1312262
-3.6038594 0.87454879 3.687887 917512
-3.5676074 0.87454879 3.687887 590089
-3.884491 0.96200371 4.0566759 655882
-3.8446138 0.96200371 4.0566759 786696
-3.8047364 0.96200371 4.0566759 721160
-4.183177 1.0688931 4.5074177 786953
-4.1388688 1.0688931 4.5074177 786954
-4.0945606 1.0688931 4.5074177 721162
-4.0502524 1.0688931 4.5074177 984073
-4.0059443 1.0688931 4.5074177 1181708
-3.9616363 1.0688931 4.5074177 1116685
-3.9173281 1.0688931 4.5074177 1707793
-3.8730199 1.0688931 4.5074177 2232340
-3.4458406 0.96200371 4.0566759 2429205
-3.4059634 0.96200371 4.0566759 2627096
-3.366086 0.96200371 4.0566759 2824470
-3.3262088 0.96200371 4.0566759 2956058
-3.2863314 0.96200371 4.0566759 3219743
-3.2464542 0.96200371 4.0566759 3284507
-3.5628631 1.0688931 4.5074177 3415064
-3.5185549 1.0688931 4.5074177 4598818
-3.474247 1.0688931 4.5074177 5321251
-3.4299388 1.0688931 4.5074177 5451294
-3.3856306 1.0688931 4.5074177 6043434
-3.0071902 0.96200371 4.0566759 6700597
-2.4727607 0.80166972 3.380563 7028275
-2.4395297 0.80166972 3.380563 7225392
-2.8875585 0.96200371 4.0566759 7423023
-3.1640902 1.0688931 4.5074177 7750960
-3.119782 1.0688931 4.5074177 7751474
-3.0754738 1.0688931 4.5074177 8014386
-3.0311658 1.0688931 4.5074177 7883312
-2.9868577 1.0688931 4.5074177 7619888
-2.9425495 1.0688931 4.5074177 7356717
-3.2605214 1.2025046 5.0708447 7291182
-3.6693425 1.3742909 5.7952509 6963245
-3.612375 1.3742909 5.7952509 6832688
-3.5554073 1.3742909 5.7952509 6898736
-3.0611348 1.2025046 5.0708447 6964273
-2.6767008 1.0688931 4.5074177 7292980
-2.6323926 1.0688931 4.5074177 7949367
-2.5880845 1.0688931 4.5074177 7686965
-2.5437765 1.0688931 4.5074177 7753011
-2.4994683 1.0688931 4.5074177 8080951
-2.7620552 1.2025046 5.0708447 8212792
-2.7122085 1.2025046 5.0708447 8672826
-2.6623619 1.2025046 5.0708447 8409912
-2.6125152 1.2025046 5.0708447 8475963
-2.5626686 1.2025046 5.0708447 8541499
-2.5128219 1.2025046 5.0708447 8541756
-2.4629753 1.2025046 5.0708447 9067584
-2.4131286 1.2025046 5.0708447 9199167
-2.363282 1.2025046 5.0708447 9395773
-2.0563872 1.0688931 4.5074177 9987912
-2.012079 1.0688931 4.5074177 10381128
-1.041761 0.56588453 2.3862798 9922628
-0.82434112 0.45809698 1.9317503 9988677
-0.60401398 0.34357274 1.4488127 10381382
-0.51605058 0.30062616 1.2677112 10446407
-0.44763461 0.26722327 1.1268544 10577991
-0.39290181 0.24050093 1.014169 10644295
-0.37359267 0.23463504 0.98943311 10512196
-0.36386648 0.23463504 0.98943311 10249795
-0.33766866 0.22372179 0.94341296 9463106
-0.30697781 0.20913123 0.88188601 1573634
-0.29830885 0.20913123 0.88188601 852489
-0.27757153 0.20041743 0.84514076 1378833
-0.25849321 0.19240074 0.81133515 1576212
-0.24088246 0.18500072 0.78012997 786696
-0.23321375 0.18500072 0.78012997 655621
-0.22996747 0.18862817 0.79542661 1181968
0 0 0 5519161
0 0 0 7159600
0 0 0 7486509
0 0 0 7552560
0 0 0 7552817
0 0 0 7354926
0 0 0 7419176
0 0 0 6894630
0 0 0 7484709
0 0 0 9057829
0 0 0 11025962
0 0 0 12272170
0 0 0 12272682
0 0 0 13059367
0 0 0 12796711
0 0 0 12928553
0 0 0 12731432
-0.45504269 0.96200371 4.0566759 12993319
-0.5930934 1.3742909 5.7952509 12731434
-0.53612578 1.3742909 5.7952509 12665637
-0.67082155 1.9240074 8.1133518 12926757
-0.73883367 2.4050093 10.141689 12664867
0 0 0 12796455
0 0 0 12862246
0 0 0 12796455
0 0 0 12665385
0 0 0 12861481
0 0 0 13058598
-0.011708803 0.68714547 2.8976254 12337190
0.016774986 0.68714547 2.8976254 12009254
0.079202853 1.2025046 5.0708447 11877668
0.12904948 1.2025046 5.0708447 11484963
0.089448057 0.60125232 2.5354223 11614755
0.11437137 0.60125232 2.5354223 11483939
0.13929468 0.60125232 2.5354223 11681320
0 0 0 12008486
0 0 0 12075047
0.26346418 0.74000287 3.1205199 12402983
0.29413903 0.74000287 3.1205199 12402985
0.21112902 0.48100185 2.028338 12337705
0.24322912 0.50631773 2.1350925 12731178
0.26421717 0.50631773 2.1350925 12665639
0.31875879 0.56588453 2.3862798 12599592
0.44751328 0.74000287 3.1205199 12272172
0.51803714 0.80166972 3.380563 12731178
0.73502433 1.0688931 4.5074177 12796971
0.77933246 1.0688931 4.5074177 12468260
0.82364053 1.0688931 4.5074177 12796455
0.65096146 0.80166972 3.380563 12731178
0.63156235 0.74000287 3.1205199 12795941
0.66223723 0.74000287 3.1205199 12534053
0.6929121 0.74000287 3.1205199 12927784
0.78388578 0.80166972 3.380563 12730665
0.75426179 0.74000287 3.1205199 12927785
0.72886968 0.68714547 2.8976254 12730919
0.75735348 0.68714547 2.8976254 12862249
0.84628636 0.74000287 3.1205199 12534311
0.87696117 0.74000287 3.1205199 12600617
0.84280485 0.68714547 2.8976254 12928041
0.87128866 0.68714547 2.8976254 12665385
0.8397876 0.64133579 2.7044504 12534823
0.81222421 0.60125232 2.5354223 12928039
0.83714753 0.60125232 2.5354223 12862248
0.81136078 0.56588453 2.3862798 12863018
0.83481801 0.56588453 2.3862798 12403242
0.85827523 0.56588453 2.3862798 12600876
0.88173252 0.56588453 2.3862798 12469546
0.90518975 0.56588453 2.3862798 12666411
0.92864698 0.56588453 2.3862798 12403496
0.770751 0.45809698 1.9317503 12796969
0.7897402 0.45809698 1.9317503 12665896
0.80872941 0.45809698 1.9317503 12731178
0.62078893 0.34357274 1.4488127 12731178
0.53881401 0.29151624 1.2292956 12468776
0.55089808 0.29151624 1.2292956 12271653
0.58057529 0.30062616 1.2677112 12403494
0.67775649 0.34357274 1.4488127 12337962
0.69199842 0.34357274 1.4488127 12468777
0.7062403 0.34357274 1.4488127 12075047
0.695638 0.33172539 1.3988537 11747363
0.7347241 0.34357274 1.4488127 12272682
0.80657881 0.37000144 1.5602599 12403755
0.82191622 0.37000144 1.5602599 12338217
0.87074375 0.38480148 1.6226703 12338216
1.0555888 0.45809698 1.9317503 11878694
1.074578 0.45809698 1.9317503 12075046
1.0935673 0.45809698 1.9317503 12140585
1.1125565 0.45809698 1.9317503 11878181
1.1315457 0.45809698 1.9317503 11944487
1.1505349 0.45809698 1.9317503 12074533
1.1695241 0.45809698 1.9317503 11550247
1.1885133 0.45809698 1.9317503 11615529
1.334608 0.50631773 2.1350925 11222311
1.2264916 0.45809698 1.9317503 11550247
1.188868 0.4372744 1.8439435 11616040
1.2069941 0.4372744 1.8439435 11615525
1.2251202 0.4372744 1.8439435 11877928
1.1891921 0.41826245 1.763772 11812136
1.2613722 0.4372744 1.8439435 11681577
1.2794983 0.4372744 1.8439435 11419947
1.2412059 0.41826245 1.763772 11419432
1.2585438 0.41826245 1.763772 11615784
1.22272 0.40083486 1.6902815 11549736
1.2932198 0.41826245 1.763772 11353384
1.1593395 0.37000144 1.5602599 11091239
1.3882545 0.4372744 1.8439435 10763046
1.4733511 0.45809698 1.9317503 10829354
1.4923403 0.45809698 1.9317503 10828583
1.5113295 0.45809698 1.9317503 10894374
1.5303187 0.45809698 1.9317503 10894632
1.6267734 0.48100185 2.028338 10959912
1.6467121 0.48100185 2.028338 11025191
1.5872862 0.45809698 1.9317503 10828326
1.4665993 0.41826245 1.763772 10828328
1.4839373 0.41826245 1.763772 10631976
1.5695151 0.4372744 1.8439435 10238758
1.5876411 0.4372744 1.8439435 10041638
1.6057671 0.4372744 1.8439435 9582372
1.429026 0.38480148 1.6226703 9713960
1.4449769 0.38480148 1.6226703 9845287
1.4609278 0.38480148 1.6226703 10369577
1.5384154 0.40083486 1.6902815 10172195
1.622641 0.41826245 1.763772 10173222
1.7961674 0.45809698 1.9317503 10237987
1.6573169 0.41826245 1.763772 10436136
1.7507756 0.4372744 1.8439435 10503728
1.6214931 0.40083486 1.6902815 10240815
1.6381086 0.40083486 1.6902815 10307378
1.6547242 0.40083486 1.6902815 10241072
1.6713398 0.40083486 1.6902815 10044207
1.6879553 0.40083486 1.6902815 9913134
1.6363881 0.38480148 1.6226703 9518891
1.652339 0.38480148 1.6226703 9387305
1.6682899 0.38480148 1.6226703 9518891
1.7544174 0.40083486 1.6902815 9649967
1.7710329 0.40083486 1.6902815 9781038
1.9501621 0.4372744 1.8439435 9846571
1.9682881 0.4372744 1.8439435 9977901
3.9728284 0.87454879 3.687887 9977645
0 0 0 9912109
0 0 0 9913135
4.9886036 1.0688931 4.5074177 9847599
5.0329118 1.0688931 4.5074177 9978671
5.07722 1.0688931 4.5074177 9716268
5.7617188 1.2025046 5.0708447 9650478
5.8115654 1.2025046 5.0708447 9846059
9.3782597 1.9240074 8.1133518 9387048
9.4580145 1.9240074 8.1133518 9715243
9.5377693 1.9240074 8.1133518 9845546
9.6175232 1.9240074 8.1133518 9650220
9.697278 1.9240074 8.1133518 9912878
9.7770329 1.9240074 8.1133518 9913135
12.320984 2.4050093 10.141689 9847855
0 0 0 9847856
0 0 0 9847856
0 0 0 9126702
0 0 0 11293757
0 0 0 11822416
0 0 0 10705221
0 0 0 9127218
0 0 0 8471087
0 0 0 3548712
0 0 0 2825760
0 0 0 2628383
0 0 0 2562850
0 0 0 2431523
-0.84319896 0.17890732 0.72440636 2299935
-0.97542435 0.2087252 0.84514076 2299419
0 0 0 2496545
0 0 0 3415069
0 0 0 8280654
0 0 0 9858128
0 0 0 10120270
0 0 0 10513745
-1.7611583 0.4007524 1.6226703 10250573
-1.7452074 0.4007524 1.6226703 9855299
-1.7292565 0.4007524 1.6226703 8605748
-1.7133056 0.4007524 1.6226703 7555377
-1.6973547 0.4007524 1.6226703 9200715
-1.7514622 0.4174504 1.6902815 10187344
-2.0818162 0.5009405 2.028338 10054731
-2.2909749 0.55660057 2.2537088 9328955
-3.4032311 0.8349008 3.380563 6832937
-3.3699999 0.8349008 3.380563 4201744
-3.3367689 0.8349008 3.380563 1640201
-3.3035378 0.8349008 3.380563 1114889
-3.5676074 0.91080087 3.687887 1180937
-3.884491 1.001881 4.0566759 1575695
-3.8446138 1.001881 4.0566759 2101010
-3.8047364 1.001881 4.0566759 2495768
-4.183177 1.1132011 4.5074177 2956061
-4.1388688 1.1132011 4.5074177 2890268
-4.0945606 1.1132011 4.5074177 3349534
-4.0502524 1.1132011 4.5074177 3349274
-4.0059443 1.1132011 4.5074177 3743773
-3.9616363 1.1132011 4.5074177 3546651
-3.9173281 1.1132011 4.5074177 3350042
-3.485718 1.001881 4.0566759 3351069
-2.8715336 0.8349008 3.380563 3679263
-2.8383026 0.8349008 3.380563 4991780
-3.0600781 0.91080087 3.687887 6240300
-3.0238259 0.91080087 3.687887 7620663
-2.9875739 0.91080087 3.687887 7620405
-2.9513218 0.91080087 3.687887 7817527
-3.2065768 1.001881 4.0566759 7423023
-3.1666996 1.001881 4.0566759 7159597
-3.474247 1.1132011 4.5074177 7028266
-3.4299388 1.1132011 4.5074177 7160106
-2.7700613 0.91080087 3.687887 7094569
-2.3132234 0.77067769 3.1205199 6831400
-1.9782085 0.66792065 2.7044504 7027497
-2.2518735 0.77067769 3.1205199 7158824
-2.4062984 0.8349008 3.380563 6896938
-2.847681 1.001881 4.0566759 6174502
-3.119782 1.1132011 4.5074177 5715751
-3.0754738 1.1132011 4.5074177 4336929
-3.0311658 1.1132011 4.5074177 3483933
-2.6881719 1.001881 4.0566759 3022866
-2.9425495 1.1132011 4.5074177 2561809
-3.2605214 1.2523513 5.0708447 4599591
-3.6693425 1.4312586 5.7952509 6437162
-3.612375 1.4312586 5.7952509 6503466
-3.1109815 1.2523513 5.0708447 6635823
-2.721009 1.1132011 4.5074177 6898480
-1.1471574 0.47708619 1.9317503 7227441
-1.1281682 0.47708619 1.9317503 7359544
-1.7917508 0.77067769 3.1205199 8147255
-2.5437765 1.1132011 4.5074177 8344377
-2.4994683 1.1132011 4.5074177 8607546
-2.4551601 1.1132011 4.5074177 8738875
-2.4108522 1.1132011 4.5074177 8870204
-2.366544 1.1132011 4.5074177 8673853
-2.3222358 1.1132011 4.5074177 8870721
-2.2779276 1.1132011 4.5074177 9329471
-2.5128219 1.2523513 5.0708447 9461314
-2.4629753 1.2523513 5.0708447 9526850
-2.1450033 1.1132011 4.5074177 9921345
-2.1006951 1.1132011 4.5074177 10644296
-1.5422902 0.8349008 3.380563 10709578
-0.90543556 0.5009405 2.028338 10774596
-0.84333032 0.47708619 1.9317503 10643525
-0.69244659 0.4007524 1.6226703 10775370
-0.60401398 0.35781464 1.4488127 10775366
-0.47181767 0.28625172 1.1590502 11169867
-0.42407486 0.26365289 1.0675462 11169353
-0.39290181 0.25047025 1.014169 11170121
-0.37359267 0.24436122 0.98943311 11299913
-0.36386648 0.24436122 0.98943311 10972746
-0.35414031 0.24436122 0.98943311 10710084
-0.32839489 0.23299558 0.94341296 6961950
-0.29830885 0.21780021 0.88188601 1836295
-0.27757153 0.2087252 0.84514076 1049352
-0.26376858 0.20446551 0.82789302 984075
-0.25051776 0.2003762 0.81133515 721675
-0.23321375 0.19266942 0.78012997 852489
-0.22996747 0.19644725 0.79542661 2100243
-0.19533738 0.17273809 0.69942683 6567211
0 0 0 7093294
0 0 0 7289902
0 0 0 7946546
0 0 0 8535343
0 0 0 8929070
0 0 0 10437164
0 0 0 11813418
0 0 0 12337705
0 0 0 12206371
0 0 0 13452841
-0.10681639 0.15413554 0.62410396 13059112
-0.10907153 0.16698016 0.67611259 13059114
0 0 0 12993834
0 0 0 13387050
0 0 0 13058599
0 0 0 12730405
-0.65006095 1.4312586 5.7952509 12927526
-0.5930934 1.4312586 5.7952509 13124648
-0.53612578 1.4312586 5.7952509 12992806
-0.67082155 2.003762 8.1133518 12796199
-0.59106696 2.003762 8.1133518 12927273
0 0 0 12927527
0 0 0 12468258
0 0 0 12797223
0 0 0 12730662
0 0 0 12927528
-0.012504362 0.22264022 0.90148348 12927012
-0.003725528 0.22770022 0.92197174 12271910
0.0058712456 0.25047025 1.014169 12074018
0.016674286 0.26365289 1.0675462 11877927
0.027168313 0.26365289 1.0675462 11680548
0.044724029 0.31308782 1.2677112 11549732
0 0 0 11616295
0 0 0 12074533
0 0 0 11943720
0 0 0 12075560
0 0 0 12271397
0.18208605 0.47708619 1.9317503 12271910
0.20107524 0.47708619 1.9317503 12796455
0.22006443 0.47708619 1.9317503 12600616
0.26421717 0.52730578 2.1350925 12469030
0.28520525 0.52730578 2.1350925 12664615
0.36360452 0.62617564 2.5354223 12600362
0.51803714 0.8349008 3.380563 12664615
0.55126822 0.8349008 3.380563 12206117
0.5844993 0.8349008 3.380563 12665639
0.92659557 1.2523513 5.0708447 12928041
0.60088754 0.77067769 3.1205199 12533799
0.41051555 0.5009405 2.028338 12599078
0.43045419 0.5009405 2.028338 12599076
0.7506547 0.8349008 3.380563 12533797
0.78388578 0.8349008 3.380563 12796456
0.75426179 0.77067769 3.1205199 12664870
0.5668987 0.55660057 2.2537088 12665641
0.58905274 0.55660057 2.2537088 12797739
0.68760765 0.62617564 2.5354223 12862505
0.76003295 0.66792065 2.7044504 12731175
0.78661782 0.66792065 2.7044504 12664869
0.81320274 0.66792065 2.7044504 12665639
0.78730088 0.62617564 2.5354223 12534569
0.81222421 0.62617564 2.5354223 12666155
0.83714753 0.62617564 2.5354223 12666405
0.86207086 0.62617564 2.5354223 12993065
0.83481801 0.58934176 2.3862798 12665899
0.85827523 0.58934176 2.3862798 12600621
0.88173252 0.58934176 2.3862798 12600362
0.90518975 0.58934176 2.3862798 12664869
0.75176179 0.47708619 1.9317503 12600362
0.73571688 0.45540044 1.8439435 12862503
0.66338181 0.4007524 1.6226703 12600873
0.58563161 0.34547618 1.3988537 12535336
0.5993824 0.34547618 1.3988537 12469289
0.53881401 0.30360028 1.2292956 12600361
0.53469521 0.29467088 1.1931399 12206376
0.54642379 0.29467088 1.1931399 12272679
0.57506615 0.30360028 1.2292956 12206633
0.58715016 0.30360028 1.2292956 12665127
0.59923416 0.30360028 1.2292956 12599592
0.695638 0.34547618 1.3988537 12075560
0.70938879 0.34547618 1.3988537 12337959
0.74896598 0.35781464 1.4488127 12337965
0.82191622 0.38533884 1.5602599 12469546
0.83725363 0.38533884 1.5602599 12075045
1.0555888 0.47708619 1.9317503 11943976
1.074578 0.47708619 1.9317503 12140326
1.1482457 0.5009405 2.028338 12271910
1.0619857 0.45540044 1.8439435 11811873
0.9504984 0.4007524 1.6226703 11746854
0.96644932 0.4007524 1.6226703 12009000
1.0233335 0.4174504 1.6902815 11943717
1.1885133 0.47708619 1.9317503 11943721
1.2075025 0.47708619 1.9317503 11812134
1.2264916 0.47708619 1.9317503 11550502
1.2454808 0.47708619 1.9317503 11682089
1.26447 0.47708619 1.9317503 11812134
1.2251202 0.45540044 1.8439435 11484712
1.0130155 0.37106705 1.5024725 11877673
1.1100076 0.4007524 1.6226703 11484711
1.1728734 0.4174504 1.6902815 11287591
1.189489 0.4174504 1.6902815 11222052
1.072093 0.37106705 1.5024725 11287332
1.0868623 0.37106705 1.5024725 11353127
1.1016316 0.37106705 1.5024725 11549734
1.1593395 0.38533884 1.5602599 11222823
1.2216641 0.4007524 1.6226703 11353640
1.4063807 0.45540044 1.8439435 11091240
1.4923403 0.47708619 1.9317503 10828581
1.5113295 0.47708619 1.9317503 11025193
1.5303187 0.47708619 1.9317503 10893607
1.5493079 0.47708619 1.9317503 10828326
