# .PCD v0.7 - Point Cloud Data file format
VERSION 0.7
FIELDS x y z rgb
SIZE 4 4 4 4
TYPE F F F U
COUNT 1 1 1 1
WIDTH 1289
HEIGHT 1
VIEWPOINT 0 0 0 1 0 0 0
POINTS 1289
DATA ascii
2.0642679 -0.4818911 4.5074177 13799266
1.4597833 -0.33361691 3.1205199 13733473
1.4904583 -0.33361691 3.1205199 13732706
1.5211331 -0.33361691 3.1205199 13602917
1.3449001 -0.28913465 2.7044504 13733470
1.2857672 -0.27106375 2.5354223 13536096
1.2335911 -0.25511882 2.3862798 13601889
1.2570482 -0.25511882 2.3862798 13667683
1.6745073 -0.33361691 3.1205199 13536867
1.7051822 -0.33361691 3.1205199 13667424
1.735857 -0.33361691 3.1205199 12945758
1.4353071 -0.27106375 2.5354223 13274466
1.3743345 -0.25511882 2.3862798 13011551
1.3201367 -0.24094555 2.2537088 13141853
1.2716439 -0.2282642 2.1350925 13010781
1.2926319 -0.2282642 2.1350925 13010780
1.31362 -0.2282642 2.1350925 12548949
1.334608 -0.2282642 2.1350925 1510929
1.2878163 -0.216851 2.028338 1181454
1.307755 -0.216851 2.028338 1181966
1.3276936 -0.216851 2.028338 1116431
1.3476323 -0.216851 2.028338 1116175
1.3675709 -0.216851 2.028338 1247504
1.3875096 -0.216851 2.028338 1050638
1.4074482 -0.216851 2.028338 1050895
1.4273869 -0.216851 2.028338 919308
1.4473255 -0.216851 2.028338 1050637
1.4672642 -0.216851 2.028338 1049868
1.4872029 -0.216851 2.028338 984588
1.5071415 -0.216851 2.028338 787981
1.6074528 -0.2282642 2.1350925 787981
1.4733511 -0.20652474 1.9317503 853003
1.4923403 -0.20652474 1.9317503 853774
1.5113295 -0.20652474 1.9317503 853261
1.6068348 -0.216851 2.028338 985103
1.6267734 -0.216851 2.028338 853002
1.6467121 -0.216851 2.028338 919054
1.6666507 -0.216851 2.028338 984589
1.6865894 -0.216851 2.028338 1050893
1.6252646 -0.20652474 1.9317503 853260
1.6442538 -0.20652474 1.9317503 918796
1.6632431 -0.20652474 1.9317503 984075
1.6822323 -0.20652474 1.9317503 984075
1.7012215 -0.20652474 1.9317503 722188
1.7202107 -0.20652474 1.9317503 721931
1.6601453 -0.19713725 1.8439435 721931
1.5384154 -0.18070915 1.6902815 721675
1.4928297 -0.17348079 1.6226703 918282
1.5087806 -0.17348079 1.6226703 721673
1.5247315 -0.17348079 1.6226703 787466
1.5406824 -0.17348079 1.6226703 852489
1.5566334 -0.17348079 1.6226703 721675
1.5725844 -0.17348079 1.6226703 655881
1.5885353 -0.17348079 1.6226703 4598307
1.6044862 -0.17348079 1.6226703 9462598
1.6204371 -0.17348079 1.6226703 10250829
1.3636566 -0.14456733 1.3522252 10185294
1.3325315 -0.13990386 1.3086051 10053966
1.3033514 -0.13553187 1.2677112 10185299
1.3582587 -0.13990386 1.3086051 9922641
1.4168264 -0.14456733 1.3522252 9857615
1.4301188 -0.14456733 1.3522252 10119244
1.6037904 -0.16063036 1.5024725 10119502
1.6185597 -0.16063036 1.5024725 9988431
1.6333292 -0.16063036 1.5024725 9922895
1.9347242 -0.18856607 1.763772 10054223
2.1379728 -0.20652474 1.9317503 10053966
2.1569622 -0.20652474 1.9317503 9922636
1.9867381 -0.18856607 1.763772 9988942
2.004076 -0.18856607 1.763772 9857100
1.6031904 -0.1495524 1.3988537 9857102
1.5630431 -0.14456733 1.3522252 9857872
1.5254861 -0.13990386 1.3086051 9726032
1.4902763 -0.13553187 1.2677112 9791314
1.5512134 -0.13990386 1.3086051 9726030
1.6719444 -0.1495524 1.3988537 9987660
0 0 0 9921613
0 0 0 10119505
0 0 0 9922893
0 0 0 9857102
0 0 0 9791309
0 0 0 10119759
0 0 0 9857359
0 0 0 9791566
0 0 0 9856846
0 0 0 9988688
0 0 0 9922380
0 0 0 10578768
-4.8415465 -0.3938247 4.0566759 10974548
-4.8016691 -0.3938247 4.0566759 11303254
-4.7617917 -0.3938247 4.0566759 11499605
-4.7219143 -0.3938247 4.0566759 11763033
-5.2022634 -0.437583 4.5074177 11369558
-4.6421599 -0.3938247 4.0566759 11895132
-4.6022825 -0.3938247 4.0566759 11500632
-5.0693393 -0.437583 4.5074177 11631703
-4.5225282 -0.3938247 4.0566759 11894875
-4.4826508 -0.3938247 4.0566759 11828567
-4.0388846 -0.35802242 3.687887 11959640
-4.4028959 -0.3938247 4.0566759 12288089
-4.3630185 -0.3938247 4.0566759 12419418
-3.9301283 -0.35802242 3.687887 12222298
-3.5693865 -0.32818723 3.380563 11960155
-3.2641437 -0.30294207 3.1205199 11894362
-3.5029244 -0.32818723 3.380563 12025685
-3.4696932 -0.32818723 3.380563 10841667
-4.123755 -0.3938247 4.0566759 9461307
-4.0838776 -0.3938247 4.0566759 9001533
-4.0440001 -0.3938247 4.0566759 8475194
-4.0041227 -0.3938247 4.0566759 8344123
-3.9642456 -0.3938247 4.0566759 8344122
-3.9243684 -0.3938247 4.0566759 8212794
-3.884491 -0.3938247 4.0566759 8147002
-3.8446138 -0.3938247 4.0566759 8343863
-3.8047364 -0.3938247 4.0566759 8410427
-3.7648592 -0.3938247 4.0566759 8672829
-3.7249818 -0.3938247 4.0566759 8738621
-3.3500948 -0.35802242 3.687887 8804412
-3.3138428 -0.35802242 3.687887 9723459
-4.0059443 -0.437583 4.5074177 10380100
-3.9616363 -0.437583 4.5074177 10972234
-3.9173281 -0.437583 4.5074177 10906954
-3.8730199 -0.437583 4.5074177 10775368
-3.1325822 -0.35802242 3.687887 10908237
-3.4059634 -0.3938247 4.0566759 10974028
-3.366086 -0.3938247 4.0566759 11235915
-3.6957874 -0.437583 4.5074177 11366730
-2.7386093 -0.32818723 3.380563 11367244
-2.7053783 -0.32818723 3.380563 11498574
-2.6721473 -0.32818723 3.380563 11433292
-2.4359226 -0.30294207 3.1205199 11433807
-2.4052479 -0.30294207 3.1205199 11893072
-2.374573 -0.30294207 3.1205199 11695693
-2.1764767 -0.28130332 2.8976254 11105355
-1.8794938 -0.24614042 2.5354223 11564879
-1.6485072 -0.2187915 2.2537088 11565134
-1.5407555 -0.20727615 2.1350925 11828051
-1.4437792 -0.19691235 2.028338 11761234
-1.4238405 -0.19691235 2.028338 11762261
-1.4039019 -0.19691235 2.028338 12090711
-1.3839632 -0.19691235 2.028338 12220756
-1.9486064 -0.28130332 2.8976254 12221780
-2.2401431 -0.32818723 3.380563 12024399
-2.206912 -0.32818723 3.380563 12221781
-2.1736808 -0.32818723 3.380563 12287830
-2.1404498 -0.32818723 3.380563 12615766
-2.1072187 -0.32818723 3.380563 12419157
-3.1109815 -0.49228084 5.0708447 12549973
-2.721009 -0.437583 4.5074177 12484439
-2.6767008 -0.437583 4.5074177 12484437
-1.9742943 -0.32818723 3.380563 12616534
-1.7917508 -0.30294207 3.1205199 12682070
-1.761076 -0.30294207 3.1205199 13075545
-1.8746011 -0.32818723 3.380563 13141337
-1.84137 -0.32818723 3.380563 13010520
-1.808139 -0.32818723 3.380563 13207384
-1.7749078 -0.32818723 3.380563 13207383
-1.6077017 -0.30294207 3.1205199 13535319
-1.5770268 -0.30294207 3.1205199 13273689
0 0 0 13601882
0 0 0 13339488
-0.66569066 -0.13580161 1.3988537 13601370
-0.35011587 -0.072930492 0.75123626 13536094
-0.33049077 -0.070325829 0.72440636 13667932
-0.32336983 -0.070325829 0.72440636 13668446
-0.31624886 -0.070325829 0.72440636 13668704
-0.27048695 -0.061535105 0.63385558 13931099
-0.26019064 -0.060588412 0.62410396 13930845
-0.25405568 -0.060588412 0.62410396 14258784
0 0 0 14521696
0 0 0 14127454
0 0 0 14390626
0 0 0 14258522
-0.18379433 -0.049851224 0.51350325 11496519
-0.17433308 -0.048620328 0.50082415 5976877
-0.1653278 -0.047448758 0.48875612 4333601
-0.1586123 -0.046883889 0.48293757 3939099
-0.15386501 -0.046883889 0.48293757 3545626
-0.15091431 -0.047448758 0.48875612 3544343
-0.14437041 -0.046883889 0.48293757 3085075
-0.13962311 -0.046883889 0.48293757 3019795
-0.13487582 -0.046883889 0.48293757 3084819
-0.13169633 -0.047448758 0.48875612 3150613
-0.12843929 -0.0480274 0.49471655 3019283
-0.12510183 -0.048620328 0.50082415 2690320
-0.12168096 -0.049228087 0.50708449 2690573
-0.1166963 -0.049228087 0.50708449 2625038
-0.1131257 -0.049851224 0.51350325 2559504
-0.10946356 -0.050490342 0.52008665 2493195
-0.10435108 -0.050490342 0.52008665 2362125
-0.099238604 -0.050490342 0.52008665 2099725
-0.095348544 -0.05114606 0.52684098 2296334
-0.090169676 -0.05114606 0.52684098 2231311
-0.086109102 -0.051819038 0.53377312 2691346
-0.08418519 -0.053948585 0.555709 2821392
-0.079815917 -0.054697875 0.56342721 3150355
-0.077506848 -0.057076037 0.587924 3477778
-0.071727529 -0.057076037 0.587924 3675157
-0.066918038 -0.057915393 0.59656996 3347216
-0.061053731 -0.057915393 0.59656996 3084560
-0.056013145 -0.058779802 0.605474 2886411
-0.050061308 -0.058779802 0.605474 2953233
-0.045466688 -0.060588412 0.62410396 2624524
-0.039946273 -0.061535105 0.63385558 2690319
0 0 0 2033674
0 0 0 721415
0 0 0 458758
0 0 0 786953
0 0 0 852743
0 0 0 853515
0 0 0 1115145
0 0 0 1312524
0 0 0 1509643
0 0 0 1772818
0 0 0 4070411
0 0 0 12484941
0 0 0 7553830
0 0 0 5385504
0 0 0 5976610
0 0 0 5910817
0 0 0 6107426
0.77022552 -0.65637445 6.761126 5910563
0.55779183 -0.437583 4.5074177 5516323
0.45157495 -0.32818723 3.380563 4596248
0.44751328 -0.30294207 3.1205199 5516062
0.69071621 -0.437583 4.5074177 4990746
0.73502433 -0.437583 4.5074177 5384219
1.0019988 -0.56260663 5.7952509 5450782
0.92659557 -0.49228084 5.0708447 2951431
0.97644222 -0.49228084 5.0708447 1509645
1.0262889 -0.49228084 5.0708447 1444110
1.0761355 -0.49228084 5.0708447 1444110
1.125982 -0.49228084 5.0708447 1444110
1.1758287 -0.49228084 5.0708447 6835267
1.0894892 -0.437583 4.5074177 9068356
1.1337974 -0.437583 4.5074177 9856844
1.3253686 -0.49228084 5.0708447 10711378
1.3752153 -0.49228084 5.0708447 11236177
1.4250619 -0.49228084 5.0708447 12288345
1.4749085 -0.49228084 5.0708447 12748123
1.355338 -0.437583 4.5074177 13075545
1.399646 -0.437583 4.5074177 12878940
1.4439542 -0.437583 4.5074177 13339229
1.4882623 -0.437583 4.5074177 13141854
1.3793133 -0.3938247 4.0566759 13601375
1.5768785 -0.437583 4.5074177 13733473
1.4590681 -0.3938247 4.0566759 13471071
1.4989454 -0.3938247 4.0566759 13668452
1.5388227 -0.3938247 4.0566759 13996388
1.2143846 -0.30294207 3.1205199 13799524
1.1561265 -0.28130332 2.8976254 13799268
1.2757342 -0.30294207 3.1205199 13799009
1.4152764 -0.32818723 3.380563 13799520
1.4485075 -0.32818723 3.380563 13667682
1.9756516 -0.437583 4.5074177 13996132
1.5149697 -0.32818723 3.380563 13865313
2.0642679 -0.437583 4.5074177 13602659
1.2651454 -0.26254976 2.7044504 13405791
1.2109972 -0.24614042 2.5354223 13668194
1.2359205 -0.24614042 2.5354223 13865059
1.2608439 -0.24614042 2.5354223 13602914
1.2101338 -0.23166157 2.3862798 13536096
1.1650583 -0.2187915 2.2537088 13799780
1.1872123 -0.2187915 2.2537088 13405795
1.1457155 -0.20727615 2.1350925 13273694
1.1667036 -0.20727615 2.1350925 13404511
1.2536745 -0.2187915 2.2537088 13207645
1.2758286 -0.2187915 2.2537088 13404769
1.2979827 -0.2187915 2.2537088 13011551
1.3201367 -0.2187915 2.2537088 13010010
1.2716439 -0.20727615 2.1350925 12812889
1.2926319 -0.20727615 2.1350925 12551513
1.31362 -0.20727615 2.1350925 12089679
1.334608 -0.20727615 2.1350925 1642006
1.2878163 -0.19691235 2.028338 1181454
1.307755 -0.19691235 2.028338 1247248
1.3276936 -0.19691235 2.028338 1050640
1.4185603 -0.20727615 2.1350925 1050639
1.3675709 -0.19691235 2.028338 1050892
1.3875096 -0.19691235 2.028338 984588
1.4074482 -0.19691235 2.028338 787724
1.4273869 -0.19691235 2.028338 919309
1.4473255 -0.19691235 2.028338 985102
1.3338765 -0.17901121 1.8439435 918282
1.4163835 -0.18753555 1.9317503 918795
1.4353727 -0.18753555 1.9317503 721675
1.4543619 -0.18753555 1.9317503 721675
1.4063807 -0.17901121 1.8439435 853261
1.4923403 -0.18753555 1.9317503 984075
1.5113295 -0.18753555 1.9317503 853261
1.6068348 -0.19691235 2.028338 787468
1.6267734 -0.19691235 2.028338 984847
1.6467121 -0.19691235 2.028338 853261
1.6666507 -0.19691235 2.028338 787466
1.6865894 -0.19691235 2.028338 918540
1.6252646 -0.18753555 1.9317503 787466
1.6442538 -0.18753555 1.9317503 918539
1.6632431 -0.18753555 1.9317503 984332
1.6822323 -0.18753555 1.9317503 852489
1.7012215 -0.18753555 1.9317503 787467
1.7202107 -0.18753555 1.9317503 787723
1.7391998 -0.18753555 1.9317503 721674
1.605303 -0.17122811 1.763772 787723
1.4928297 -0.15752988 1.6226703 722186
1.5087806 -0.15752988 1.6226703 984329
1.5247315 -0.15752988 1.6226703 918282
1.5406824 -0.15752988 1.6226703 918282
1.5566334 -0.15752988 1.6226703 852746
1.5725844 -0.15752988 1.6226703 655882
1.5885353 -0.15752988 1.6226703 4598046
1.6713398 -0.16409361 1.6902815 9593665
1.6879553 -0.16409361 1.6902815 9988685
1.3636566 -0.13127488 1.3522252 10250575
1.3325315 -0.12704022 1.3086051 9857359
1.3453951 -0.12704022 1.3086051 9726286
1.3582587 -0.12704022 1.3086051 10053969
1.4168264 -0.13127488 1.3522252 10250061
1.4301188 -0.13127488 1.3522252 9856844
1.4434112 -0.13127488 1.3522252 9857102
1.5069349 -0.13580161 1.3988537 9988173
1.6333292 -0.14586098 1.5024725 9922638
1.9347242 -0.17122811 1.763772 10054479
2.1379728 -0.18753555 1.9317503 9988429
2.1569622 -0.18753555 1.9317503 9988173
1.9039574 -0.16409361 1.6902815 9857359
1.9205729 -0.16409361 1.6902815 9594959
1.9371884 -0.16409361 1.6902815 9988431
1.6169412 -0.13580161 1.3988537 9922382
1.5763355 -0.13127488 1.3522252 9856848
1.5383497 -0.12704022 1.3086051 9462604
1.6029204 -0.13127488 1.3522252 9725264
1.6719444 -0.13580161 1.3988537 9921360
0 0 0 9855821
0 0 0 9791054
0 0 0 9791566
0 0 0 9857358
0 0 0 9725777
0 0 0 9659980
0 0 0 9594190
0 0 0 9594190
0 0 0 9791569
0 0 0 9988434
0 0 0 10119245
0 0 0 9922636
-4.8415465 -0.35394737 4.0566759 10974807
-4.8016691 -0.35394737 4.0566759 11106135
-4.7617917 -0.35394737 4.0566759 11434328
-4.7219143 -0.35394737 4.0566759 11630936
-4.6820374 -0.35394737 4.0566759 11631447
-4.6421599 -0.35394737 4.0566759 11435351
-4.1838932 -0.32177034 3.687887 11566167
-4.5624051 -0.35394737 4.0566759 11763035
-5.0250311 -0.39327487 4.5074177 11697753
-4.9807229 -0.39327487 4.5074177 11697753
-4.9364147 -0.39327487 4.5074177 11697753
-4.4028959 -0.35394737 4.0566759 11763033
-4.3630185 -0.35394737 4.0566759 11959898
-3.9301283 -0.32177034 3.687887 12091227
-3.8938763 -0.32177034 3.687887 12222813
-3.8576241 -0.32177034 3.687887 12288862
-3.5029244 -0.29495612 3.380563 12157273
-3.78512 -0.32177034 3.687887 10776134
-3.7488678 -0.32177034 3.687887 9395515
-4.0838776 -0.35394737 4.0566759 8738619
-4.0440001 -0.35394737 4.0566759 8147256
-4.0041227 -0.35394737 4.0566759 8278585
-3.9642456 -0.35394737 4.0566759 8278843
-3.9243684 -0.35394737 4.0566759 8015672
-3.884491 -0.35394737 4.0566759 7949622
-3.8446138 -0.35394737 4.0566759 8015671
-3.8047364 -0.35394737 4.0566759 8147511
-3.7648592 -0.35394737 4.0566759 8409916
-3.7249818 -0.35394737 4.0566759 8410429
-3.6851046 -0.35394737 4.0566759 8542015
-4.0502524 -0.39327487 4.5074177 9067071
-4.5066872 -0.44243422 5.0708447 9331013
-3.9616363 -0.39327487 4.5074177 9592895
-3.9173281 -0.39327487 4.5074177 6699042
-3.8730199 -0.39327487 4.5074177 3546907
-3.8287117 -0.39327487 4.5074177 10710353
-3.4059634 -0.35394737 4.0566759 10841417
-3.7400956 -0.39327487 4.5074177 10907209
-4.1577606 -0.44243422 5.0708447 10842443
-4.107914 -0.44243422 5.0708447 11038281
-2.7053783 -0.29495612 3.380563 11039308
-2.6721473 -0.29495612 3.380563 11040075
-2.4359226 -0.27226722 3.1205199 11170892
-2.605685 -0.29495612 3.380563 11694923
-2.572454 -0.29495612 3.380563 11564107
-2.3438981 -0.27226722 3.1205199 11433550
-2.3132234 -0.27226722 3.1205199 11433548
-1.6485072 -0.19663744 2.2537088 11630670
-1.4637178 -0.17697369 2.028338 11564879
-1.4437792 -0.17697369 2.028338 11565134
-1.4238405 -0.17697369 2.028338 12155473
-1.6516492 -0.20820433 2.3862798 11630673
-1.6281919 -0.20820433 2.3862798 11762516
-2.2733741 -0.29495612 3.380563 12090194
-2.2401431 -0.29495612 3.380563 12024657
-2.206912 -0.29495612 3.380563 12287058
-1.863155 -0.25281954 2.8976254 12156242
-1.8346713 -0.25281954 2.8976254 12549971
-2.1072187 -0.29495612 3.380563 12419157
-2.0739877 -0.29495612 3.380563 12353875
-2.721009 -0.39327487 4.5074177 12484950
-2.6767008 -0.39327487 4.5074177 12288600
-2.3691535 -0.35394737 4.0566759 12354134
-1.7917508 -0.27226722 3.1205199 12420443
-1.761076 -0.27226722 3.1205199 12551000
-1.8746011 -0.29495612 3.380563 12747608
-1.84137 -0.29495612 3.380563 13141590
-1.808139 -0.29495612 3.380563 13142107
-1.7749078 -0.29495612 3.380563 13338458
-1.6077017 -0.27226722 3.1205199 12944470
-1.5770268 -0.27226722 3.1205199 13338969
0 0 0 13273179
0 0 0 13142365
0 0 0 13535320
-0.65193987 -0.12205081 1.3988537 13601627
-0.63818908 -0.12205081 1.3988537 13797723
-0.54874879 -0.10725677 1.2292956 13798748
-0.53666472 -0.10725677 1.2292956 13800031
-0.52458072 -0.10725677 1.2292956 13995868
-0.49742326 -0.10410216 1.1931399 14061915
0 0 0 13995354
0 0 0 13799774
0 0 0 13799770
0 0 0 14126684
0 0 0 13930075
-0.1792562 -0.043697204 0.50082415 8866867
-0.17013229 -0.042644262 0.48875612 6042671
-0.1633596 -0.042136591 0.48293757 4398880
-0.1586123 -0.042136591 0.48293757 3940384
-0.1557188 -0.042644262 0.48875612 3872536
-0.15091431 -0.042644262 0.48875612 3676181
-0.14610982 -0.042644262 0.48875612 3609618
-0.13962311 -0.042136591 0.48293757 3281939
-0.13650082 -0.042644262 0.48875612 3084818
-0.13169633 -0.042644262 0.48875612 3085074
-0.13002497 -0.043697204 0.50082415 3084564
-0.12666562 -0.044243421 0.50708449 3019025
-0.12168096 -0.044243421 0.50708449 2625038
-0.11817346 -0.044803463 0.51350325 2756110
-0.11457603 -0.045377869 0.52008665 2493710
-0.11088516 -0.045967188 0.52684098 2362382
-0.10570628 -0.045967188 0.52684098 2230541
-0.10052741 -0.045967188 0.52684098 2099212
-0.096603133 -0.046572022 0.53377312 1771530
-0.091356121 -0.046572022 0.53377312 2165520
-0.089647837 -0.048485942 0.555709 2493967
-0.08418519 -0.048485942 0.555709 2690574
-0.083286174 -0.051296718 0.587924 2952976
-0.077506848 -0.051296718 0.587924 3281169
-0.071727529 -0.051296718 0.587924 3281169
-0.066918038 -0.052051082 0.59656996 3346962
-0.061053731 -0.052051082 0.59656996 2952976
-0.056013145 -0.052827965 0.605474 2953489
-0.050061308 -0.052827965 0.605474 2755595
-0.044777796 -0.053628385 0.61464781 2559504
-0.039331716 -0.05445344 0.62410396 2493712
-0.03425061 -0.056182124 0.64391679 2165002
-0.027920879 -0.056182124 0.64391679 721159
0 0 0 458759
0 0 0 786698
0 0 0 786696
0 0 0 917512
0 0 0 787466
0 0 0 1115661
0 0 0 984328
0 0 0 1049095
0 0 0 721673
0 0 0 1247500
0 0 0 2098955
0 0 0 5187612
0 0 0 5779747
0 0 0 5648161
0 0 0 5910815
0 0 0 5845540
0.83668768 -0.58991224 6.761126 5319709
0.60209996 -0.39327487 4.5074177 4596250
0.44751328 -0.27226722 3.1205199 5187097
0.77705568 -0.44243422 5.0708447 4793627
0 0 0 5252891
0 0 0 5516060
0.92659557 -0.44243422 5.0708447 3149322
1.1159339 -0.50563908 5.7952509 1378316
1.1729015 -0.50563908 5.7952509 1378317
1.2298691 -0.50563908 5.7952509 1640716
1.125982 -0.44243422 5.0708447 1378317
1.1758287 -0.44243422 5.0708447 6572608
1.0894892 -0.39327487 4.5074177 8936772
1.1337974 -0.39327487 4.5074177 9594187
1.1781055 -0.39327487 4.5074177 10250572
1.3752153 -0.44243422 5.0708447 11170132
1.4250619 -0.44243422 5.0708447 12090198
1.4749085 -0.44243422 5.0708447 12813402
1.355338 -0.39327487 4.5074177 13009756
1.399646 -0.39327487 4.5074177 13010783
1.181417 -0.32177034 3.687887 13142879
1.1161966 -0.29495612 3.380563 13602146
1.2539212 -0.32177034 3.687887 13601628
1.4191908 -0.35394737 4.0566759 13536096
1.4590681 -0.35394737 4.0566759 13339745
1.4989454 -0.35394737 4.0566759 13143138
1.5388227 -0.35394737 4.0566759 13865061
1.1276428 -0.25281954 2.8976254 13667934
1.1561265 -0.25281954 2.8976254 13536352
1.1846102 -0.25281954 2.8976254 13799009
1.3064091 -0.27226722 3.1205199 13799009
1.4485075 -0.29495612 3.380563 13799268
1.7780864 -0.35394737 4.0566759 13733730
1.5149697 -0.29495612 3.380563 13732964
1.2385606 -0.23596489 2.7044504 13733473
1.1860739 -0.22121711 2.5354223 13798241
1.1397622 -0.20820433 2.3862798 13536350
1.1632193 -0.20820433 2.3862798 13602911
1.1866766 -0.20820433 2.3862798 13142621
1.2101338 -0.20820433 2.3862798 13076831
1.2335911 -0.20820433 2.3862798 13666655
1.0684911 -0.17697369 2.028338 13339230
1.0884298 -0.17697369 2.028338 13142364
1.1083684 -0.17697369 2.028338 13208414
1.1876916 -0.18628809 2.1350925 13142106
1.2758286 -0.19663744 2.2537088 13010008
1.2979827 -0.19663744 2.2537088 13010783
1.188123 -0.17697369 2.028338 12944731
1.2080617 -0.17697369 2.028338 12944218
1.2280003 -0.17697369 2.028338 12551768
1.31362 -0.18628809 2.1350925 12352338
1.334608 -0.18628809 2.1350925 1707029
1.2878163 -0.17697369 2.028338 1246477
1.307755 -0.17697369 2.028338 1246479
1.3276936 -0.17697369 2.028338 853261
1.2834592 -0.16854636 1.9317503 984847
1.3675709 -0.17697369 2.028338 853259
1.3875096 -0.17697369 2.028338 1050383
1.4074482 -0.17697369 2.028338 853261
1.4273869 -0.17697369 2.028338 787725
1.4473255 -0.17697369 2.028338 787979
1.3973943 -0.16854636 1.9317503 656136
1.4163835 -0.16854636 1.9317503 787724
1.4353727 -0.16854636 1.9317503 787211
1.3882545 -0.16088517 1.8439435 721677
1.4063807 -0.16088517 1.8439435 918796
1.4245067 -0.16088517 1.8439435 787210
1.5868961 -0.17697369 2.028338 787468
1.6068348 -0.17697369 2.028338 853004
1.6267734 -0.17697369 2.028338 787468
1.6467121 -0.17697369 2.028338 919054
1.6666507 -0.17697369 2.028338 656393
1.6865894 -0.17697369 2.028338 721675
1.6252646 -0.16854636 1.9317503 722188
1.6442538 -0.16854636 1.9317503 722188
1.6632431 -0.16854636 1.9317503 787468
1.766344 -0.17697369 2.028338 918284
1.7012215 -0.16854636 1.9317503 656138
2.0069125 -0.19663744 2.2537088 721675
1.82616 -0.17697369 2.028338 721673
1.8460985 -0.17697369 2.028338 853259
1.6963974 -0.16088517 1.8439435 918536
1.5087806 -0.14157894 1.6226703 918536
1.588262 -0.14747806 1.6902815 984073
1.6048776 -0.14747806 1.6902815 983817
1.5566334 -0.14157894 1.6226703 1049353
1.5725844 -0.14157894 1.6226703 786953
1.5885353 -0.14157894 1.6226703 3940885
1.6713398 -0.14747806 1.6902815 9264698
1.6879553 -0.14747806 1.6902815 10249803
1.4106793 -0.12205081 1.3988537 9790796
1.3769491 -0.11798245 1.3522252 10185552
1.3902415 -0.11798245 1.3522252 9857100
1.3582587 -0.11417657 1.3086051 10381643
1.3711224 -0.11417657 1.3086051 9790796
1.383986 -0.11417657 1.3086051 9856589
1.4434112 -0.11798245 1.3522252 9922893
1.4567037 -0.11798245 1.3522252 9791823
1.6333292 -0.13109162 1.5024725 9726543
1.7114869 -0.13613361 1.5602599 9791823
2.1379728 -0.16854636 1.9317503 9725262
2.1569622 -0.16854636 1.9317503 9921869
2.1759512 -0.16854636 1.9317503 9856334
1.9205729 -0.14747806 1.6902815 9857104
1.9371884 -0.14747806 1.6902815 9725773
1.6169412 -0.12205081 1.3988537 9726030
1.630692 -0.12205081 1.3988537 9725776
1.5383497 -0.11417657 1.3086051 9988434
1.6029204 -0.11798245 1.3522252 9528912
1.6719444 -0.12205081 1.3988537 9792082
0 0 0 9791566
0 0 0 9857102
0 0 0 9857102
0 0 0 9725516
0 0 0 9855819
0 0 0 9922895
0 0 0 9791569
0 0 0 9725778
0 0 0 9791313
0 0 0 9923152
0 0 0 9462858
0 0 0 9726030
-4.8415465 -0.31407008 4.0566759 10515030
-4.8016691 -0.31407008 4.0566759 11171160
-4.7617917 -0.31407008 4.0566759 11630937
-4.7219143 -0.31407008 4.0566759 11368277
-4.6820374 -0.31407008 4.0566759 11171927
-4.2201452 -0.28551823 3.687887 11631195
-3.8352351 -0.26172504 3.380563 11631707
-4.5624051 -0.31407008 4.0566759 11893851
-5.0250311 -0.34896675 4.5074177 11762261
-4.9807229 -0.34896675 4.5074177 12025434
-4.9364147 -0.34896675 4.5074177 12026206
-4.4028959 -0.31407008 4.0566759 11763034
-3.9663804 -0.28551823 3.687887 12090970
-3.9301283 -0.28551823 3.687887 12288091
-3.8938763 -0.28551823 3.687887 12157018
-4.2433867 -0.31407008 4.0566759 12222810
-3.5029244 -0.26172504 3.380563 12222808
-3.78512 -0.28551823 3.687887 10644806
-3.7488678 -0.28551823 3.687887 8804405
-3.7126157 -0.28551823 3.687887 8277811
-4.0440001 -0.31407008 4.0566759 7753271
-4.0041227 -0.31407008 4.0566759 7819063
-3.9642456 -0.31407008 4.0566759 7950135
-3.9243684 -0.31407008 4.0566759 7292977
-3.884491 -0.31407008 4.0566759 6767403
-3.8446138 -0.31407008 4.0566759 6240558
-3.8047364 -0.31407008 4.0566759 6701881
-3.7648592 -0.31407008 4.0566759 6766901
-4.1388688 -0.34896675 4.5074177 6898741
-4.0945606 -0.34896675 4.5074177 6964277
-4.5565338 -0.39258757 5.0708447 7490100
-4.5066872 -0.39258757 5.0708447 8476475
-4.4568405 -0.39258757 5.0708447 8344113
-5.0365644 -0.44867152 5.7952509 4464399
-4.3571472 -0.39258757 5.0708447 1969424
-4.3073006 -0.39258757 5.0708447 7227970
-3.7844038 -0.34896675 4.5074177 10577989
-3.7400956 -0.34896675 4.5074177 10514253
-4.1577606 -0.39258757 5.0708447 10514250
-4.107914 -0.39258757 5.0708447 10841163
-3.6071713 -0.34896675 4.5074177 11038540
-2.6721473 -0.26172504 3.380563 11300685
-2.638916 -0.26172504 3.380563 11038798
-2.605685 -0.26172504 3.380563 11498062
-2.572454 -0.26172504 3.380563 11629648
-2.5392227 -0.26172504 3.380563 11105358
-2.3132234 -0.24159236 3.1205199 11498573
-1.8545705 -0.19629379 2.5354223 11499084
-1.5407555 -0.16530003 2.1350925 11499085
-1.5197675 -0.16530003 2.1350925 11499084
-2.1905239 -0.24159236 3.1205199 11368269
-2.1598489 -0.24159236 3.1205199 11630671
-1.729954 -0.19629379 2.5354223 11892304
-1.7050307 -0.19629379 2.5354223 12155476
-2.2401431 -0.26172504 3.380563 12089681
-2.0371497 -0.24159236 3.1205199 12024660
-2.0064747 -0.24159236 3.1205199 12090965
-2.1404498 -0.26172504 3.380563 12484439
-2.1072187 -0.26172504 3.380563 12418387
-2.0739877 -0.26172504 3.380563 12549971
-2.4489081 -0.31407008 4.0566759 12418388
-2.6767008 -0.34896675 4.5074177 12418644
-2.6323926 -0.34896675 4.5074177 12682068
-2.5880845 -0.34896675 4.5074177 12747863
-2.0812714 -0.28551823 3.687887 12682070
-2.0450194 -0.28551823 3.687887 12878166
-2.0087674 -0.28551823 3.687887 13075797
-1.9725152 -0.28551823 3.687887 13076314
-1.9362631 -0.28551823 3.687887 13075545
-1.7416768 -0.26172504 3.380563 13141080
-1.7084457 -0.26172504 3.380563 13469273
0 0 0 13075797
0 0 0 13338713
-0.68946534 -0.11216788 1.4488127 13273689
-0.67522341 -0.11216788 1.4488127 13601369
-0.63818908 -0.10830002 1.3988537 13667677
-0.60362363 -0.10469002 1.3522252 13600597
-0.5903312 -0.10469002 1.3522252 13798489
-0.57703876 -0.10469002 1.3522252 13930079
-0.58318591 -0.10830002 1.3988537 13865054
0 0 0 13799260
0 0 0 14062429
0 0 0 14060891
0 0 0 14192218
0 0 0 14061661
-0.1792562 -0.038774081 0.50082415 8408118
-0.17013229 -0.037839767 0.48875612 6501936
-0.16143773 -0.036949418 0.47725597 5056037
-0.1586123 -0.037389293 0.48293757 4267035
-0.1557188 -0.037839767 0.48875612 4201755
-0.15275472 -0.038301226 0.49471655 3741974
-0.14789164 -0.038301226 0.49471655 3609364
-0.14130533 -0.037839767 0.48875612 3544085
-0.13816547 -0.038301226 0.49471655 3478805
-0.13494809 -0.038774081 0.50082415 3150353
-0.13002497 -0.038774081 0.50082415 3019025
-0.12826897 -0.039755702 0.51350325 2755853
-0.12480098 -0.040265393 0.52008665 2690577
-0.1196885 -0.040265393 0.52008665 2493198
-0.11606403 -0.040788319 0.52684098 2296588
-0.11088516 -0.040788319 0.52684098 2099468
-0.10570628 -0.040788319 0.52684098 1836810
-0.10185014 -0.041325007 0.53377312 1837068
-0.097891174 -0.041876007 0.5408901 1902861
-0.095110483 -0.043023296 0.555709 2165263
-0.089647837 -0.043023296 0.555709 2493456
-0.087793127 -0.044867154 0.57952511 2559502
-0.083286174 -0.0455174 0.587924 2559501
-0.077506848 -0.0455174 0.587924 3019282
-0.071727529 -0.0455174 0.587924 3346964
-0.066918038 -0.046186775 0.59656996 2887694
-0.061053731 -0.046186775 0.59656996 2887694
-0.057736624 -0.048318472 0.62410396 3084562
-0.051601656 -0.048318472 0.62410396 2755597
-0.044777796 -0.04758637 0.61464781 2690317
-0.038735777 -0.04758637 0.61464781 2493710
-0.033196747 -0.048318472 0.62410396 1771275
-0.027920879 -0.04985239 0.64391679 524295
-0.021591149 -0.04985239 0.64391679 590086
0 0 0 589831
0 0 0 786696
0 0 0 655879
0 0 0 720905
0 0 0 524294
0 0 0 590087
0 0 0 852489
0 0 0 1509902
0 0 0 1510673
0 0 0 1378317
0 0 0 1378317
0 0 0 1837325
0 0 0 4531222
0 0 0 5843741
0 0 0 6172706
0.71716088 -0.44867152 5.7952509 5713184
0.7741285 -0.44867152 5.7952509 4793113
0.64640808 -0.34896675 4.5074177 5253918
0.88806361 -0.44867152 5.7952509 4990746
0 0 0 5317660
0 0 0 5581595
0 0 0 2886405
1.1159339 -0.44867152 5.7952509 1509645
1.1729015 -0.44867152 5.7952509 1443852
1.2298691 -0.44867152 5.7952509 1312522
1.2868366 -0.44867152 5.7952509 1181708
1.1758287 -0.39258757 5.0708447 6111800
1.0894892 -0.34896675 4.5074177 9462344
1.1337974 -0.34896675 4.5074177 9659208
1.1781055 -0.34896675 4.5074177 10579534
1.2224137 -0.34896675 4.5074177 11104336
1.4250619 -0.39258757 5.0708447 12025173
1.4749085 -0.39258757 5.0708447 12550746
1.5247551 -0.39258757 5.0708447 12616536
1.399646 -0.34896675 4.5074177 13010783
1.181417 -0.28551823 3.687887 13142622
1.1161966 -0.26172504 3.380563 13208414
1.1494278 -0.26172504 3.380563 13339229
1.1826588 -0.26172504 3.380563 13339232
1.3264254 -0.28551823 3.687887 13537120
1.4989454 -0.31407008 4.0566759 13208417
1.5388227 -0.31407008 4.0566759 13602145
1.1276428 -0.22433576 2.8976254 13602657
1.1561265 -0.22433576 2.8976254 13470815
1.1056362 -0.20938003 2.7044504 13734502
1.1322211 -0.20938003 2.7044504 14061411
1.158806 -0.20938003 2.7044504 13602657
1.1853908 -0.20938003 2.7044504 13405536
1.1362273 -0.19629379 2.5354223 13340001
1.1611506 -0.19629379 2.5354223 13470819
1.054288 -0.17448337 2.2537088 13340518
1.076442 -0.17448337 2.2537088 13602401
1.0985961 -0.17448337 2.2537088 13536095
1.1207502 -0.17448337 2.2537088 13405026
1.1429043 -0.17448337 2.2537088 13141594
1.1650583 -0.17448337 2.2537088 13404508
1.0684911 -0.15703504 2.028338 13338458
1.0884298 -0.15703504 2.028338 12617306
1.1083684 -0.15703504 2.028338 12748896
1.32742 -0.1847471 2.3862798 12945241
1.3508773 -0.1847471 2.3862798 13010521
1.2979827 -0.17448337 2.2537088 12944734
1.2506558 -0.16530003 2.1350925 12616537
1.2080617 -0.15703504 2.028338 12682074
1.2280003 -0.15703504 2.028338 12484951
1.31362 -0.16530003 2.1350925 12023888
1.334608 -0.16530003 2.1350925 1247250
1.2878163 -0.15703504 2.028338 984845
1.307755 -0.15703504 2.028338 1116431
1.3276936 -0.15703504 2.028338 984847
1.2834592 -0.14955717 1.9317503 984075
1.3675709 -0.15703504 2.028338 919054
1.3875096 -0.15703504 2.028338 1049868
1.4074482 -0.15703504 2.028338 787468
1.4273869 -0.15703504 2.028338 722189
1.7027358 -0.1847471 2.3862798 656395
1.8340801 -0.19629379 2.5354223 721675
1.4163835 -0.14955717 1.9317503 852746
1.4353727 -0.14955717 1.9317503 721673
1.4543619 -0.14955717 1.9317503 721675
1.4733511 -0.14955717 1.9317503 983817
1.5669575 -0.15703504 2.028338 787466
1.5868961 -0.15703504 2.028338 984588
1.6914049 -0.16530003 2.1350925 787466
1.9138509 -0.1847471 2.3862798 787467
2.5334032 -0.24159236 3.1205199 656394
1.9607655 -0.1847471 2.3862798 787466
1.6865894 -0.15703504 2.028338 787724
1.7065281 -0.15703504 2.028338 853261
1.7264667 -0.15703504 2.028338 787981
1.7464054 -0.15703504 2.028338 787466
1.8593093 -0.16530003 2.1350925 918284
1.9847585 -0.17448337 2.2537088 787467
2.1249661 -0.1847471 2.3862798 787466
2.1484234 -0.1847471 2.3862798 787466
2.3076231 -0.19629379 2.5354223 721927
2.0733747 -0.17448337 2.2537088 852489
1.7961674 -0.14955717 1.9317503 852489
1.588262 -0.13086252 1.6902815 787209
1.6048776 -0.13086252 1.6902815 852489
1.5566334 -0.12562802 1.6226703 918282
1.5725844 -0.12562802 1.6226703 721158
1.5885353 -0.12562802 1.6226703 3809296
1.5427752 -0.12079618 1.5602599 9790527
1.5004047 -0.11632225 1.5024725 9988427
1.4106793 -0.10830002 1.3988537 10053965
1.4244301 -0.10830002 1.3988537 10053448
1.3902415 -0.10469002 1.3522252 9791562
1.4035339 -0.10469002 1.3522252 9922891
1.3711224 -0.10131292 1.3086051 10054477
1.383986 -0.10131292 1.3086051 10053196
1.3968496 -0.10131292 1.3086051 9725003
1.3656597 -0.098146893 1.2677112 9725262
1.4699961 -0.10469002 1.3522252 10053968
1.5892377 -0.11216788 1.4488127 10117967
1.7268243 -0.12079618 1.5602599 9790798
1.8873417 -0.13086252 1.6902815 9594446
1.9867381 -0.1365522 1.763772 9594445
1.9205729 -0.13086252 1.6902815 9594187
1.8597009 -0.12562802 1.6226703 9725515
1.6169412 -0.10830002 1.3988537 9659978
1.630692 -0.10830002 1.3988537 9528910
1.5383497 -0.10131292 1.3086051 9725776
1.6029204 -0.10469002 1.3522252 9791054
1.6719444 -0.10830002 1.3988537 9857102
0 0 0 9856848
0 0 0 9856589
0 0 0 10054223
0 0 0 9988686
0 0 0 9857100
0 0 0 9791822
0 0 0 9792082
0 0 0 9725519
0 0 0 9922640
0 0 0 9922895
0 0 0 9199683
0 0 0 9725256
-4.8415465 -0.27419278 4.0566759 10907987
-4.8016691 -0.27419278 4.0566759 11368022
-4.3289013 -0.24926613 3.687887 11368020
-4.7219143 -0.27419278 4.0566759 11105618
-4.6820374 -0.27419278 4.0566759 11369560
-4.6421599 -0.27419278 4.0566759 11435353
-3.8352351 -0.22849396 3.380563 11303515
-4.5624051 -0.27419278 4.0566759 11434329
-5.0250311 -0.30465862 4.5074177 11565654
-4.9807229 -0.30465862 4.5074177 11763033
-4.4427733 -0.27419278 4.0566759 11828056
-4.4028959 -0.27419278 4.0566759 11697754
-3.9663804 -0.24926613 3.687887 11894362
-3.9301283 -0.24926613 3.687887 12157020
-3.8938763 -0.24926613 3.687887 11894618
-3.8576241 -0.24926613 3.687887 12090968
-3.821372 -0.24926613 3.687887 12024917
-3.78512 -0.24926613 3.687887 10644289
-3.7488678 -0.24926613 3.687887 9066291
-3.7126157 -0.24926613 3.687887 7620909
-4.0440001 -0.27419278 4.0566759 6832941
-3.6401114 -0.24926613 3.687887 6437673
-3.6038594 -0.24926613 3.687887 5714979
-3.2703068 -0.22849396 3.380563 6503465
-3.884491 -0.27419278 4.0566759 3939088
-3.8446138 -0.27419278 4.0566759 1837579
-3.8047364 -0.27419278 4.0566759 1378829
-4.183177 -0.30465862 4.5074177 1313034
-4.1388688 -0.30465862 4.5074177 1312521
-4.6063805 -0.34274095 5.0708447 1443852
-4.5565338 -0.34274095 5.0708447 2625301
-5.1504993 -0.39170393 5.7952509 6439735
-4.4568405 -0.34274095 5.0708447 6832683
-4.4069939 -0.34274095 5.0708447 2427143
-4.3571472 -0.34274095 5.0708447 1706771
-4.3073006 -0.34274095 5.0708447 2823452
-3.7844038 -0.30465862 4.5074177 9134420
-3.7400956 -0.30465862 4.5074177 9857350
-4.1577606 -0.34274095 5.0708447 10250566
-4.107914 -0.34274095 5.0708447 10251079
-3.6071713 -0.30465862 4.5074177 10645067
-2.9150696 -0.24926613 3.687887 10972749
-2.638916 -0.22849396 3.380563 10776138
-2.605685 -0.22849396 3.380563 10907467
-2.572454 -0.22849396 3.380563 10973773
-2.5392227 -0.22849396 3.380563 11104587
-2.3132234 -0.21091752 3.1205199 11367503
-2.2825484 -0.21091752 3.1205199 11170123
-1.4637178 -0.13709639 2.028338 11367243
-1.4437792 -0.13709639 2.028338 11630415
-2.1905239 -0.21091752 3.1205199 11498316
-2.1598489 -0.21091752 3.1205199 11695693
-2.1291742 -0.21091752 3.1205199 11499341
-2.2733741 -0.22849396 3.380563 11565134
-2.6881719 -0.27419278 4.0566759 11893074
-2.0371497 -0.21091752 3.1205199 11958867
-2.0064747 -0.21091752 3.1205199 11828306
-2.1404498 -0.22849396 3.380563 12222037
-2.1072187 -0.22849396 3.380563 12156246
-2.0739877 -0.22849396 3.380563 12090453
-2.4489081 -0.27419278 4.0566759 12616025
-2.6767008 -0.30465862 4.5074177 12549717
-2.6323926 -0.30465862 4.5074177 12681557
-2.5880845 -0.30465862 4.5074177 12551002
-2.5437765 -0.30465862 4.5074177 12419670
-2.4994683 -0.30465862 4.5074177 13009495
-2.4551601 -0.30465862 4.5074177 12813143
-2.4108522 -0.30465862 4.5074177 12747864
-4.259779 -0.54838556 8.1133518 12944727
-4.1800246 -0.54838556 8.1133518 13207387
0 0 0 13469787
0 0 0 13600855
0 0 0 13339737
-0.77220118 -0.10967711 1.6226703 13405019
-0.75625026 -0.10967711 1.6226703 13470553
-0.66098154 -0.097925983 1.4488127 13864284
-0.60362363 -0.091397583 1.3522252 13864028
-0.55343556 -0.085685238 1.2677112 13864032
-0.5409739 -0.085685238 1.2677112 13732698
-0.48321119 -0.078340791 1.1590502 13799261
-0.48569465 -0.080644928 1.1931399 13667928
0 0 0 13930845
0 0 0 13930329
0 0 0 13930077
0 0 0 13929048
-0.1792562 -0.033850957 0.50082415 8342331
-0.16612917 -0.03225797 0.47725597 6633519
-0.16143773 -0.03225797 0.47725597 5515553
-0.1586123 -0.032641996 0.48293757 4858395
-0.1557188 -0.033035271 0.48875612 4201494
-0.15275472 -0.033438142 0.49471655 3741974
-0.14789164 -0.033438142 0.49471655 3741207
-0.14302856 -0.033438142 0.49471655 3413525
-0.13816547 -0.033438142 0.49471655 3544852
-0.13494809 -0.033850957 0.50082415 3215890
-0.13002497 -0.033850957 0.50082415 3019025
-0.12991346 -0.03515292 0.52008665 2691344
-0.12480098 -0.03515292 0.52008665 2231308
-0.1228382 -0.036077995 0.53377312 2034187
-0.11759119 -0.036077995 0.53377312 2099466
-0.11384209 -0.036559034 0.5408901 1902861
-0.10852512 -0.036559034 0.5408901 1902603
-0.10320815 -0.036559034 0.5408901 2033931
-0.099214025 -0.037053075 0.54819942 2165518
-0.095110483 -0.037560653 0.555709 2362384
-0.090892948 -0.038082328 0.56342721 2493713
-0.089065492 -0.039738081 0.587924 2559503
-0.083286174 -0.039738081 0.587924 2690576
-0.077506848 -0.039738081 0.587924 2953489
-0.071727529 -0.039738081 0.587924 2953489
-0.066918038 -0.040322464 0.59656996 2887696
-0.061964981 -0.040924292 0.605474 2952974
-0.057736624 -0.0421835 0.62410396 2953491
-0.051601656 -0.0421835 0.62410396 2690317
-0.044777796 -0.041544355 0.61464781 2690319
-0.039331716 -0.0421835 0.62410396 2559503
-0.033196747 -0.0421835 0.62410396 1114371
-0.027061775 -0.0421835 0.62410396 327687
-0.020926805 -0.0421835 0.62410396 524807
-0.015022959 -0.042842619 0.63385558 590088
-0.0086568659 -0.0421835 0.62410396 590087
-0.002521896 -0.0421835 0.62410396 721161
0.0036130741 -0.0421835 0.62410396 786696
0.0097480444 -0.0421835 0.62410396 655882
0.016131185 -0.042842619 0.63385558 852489
0 0 0 787466
0 0 0 1181454
0 0 0 1444110
0 0 0 1575696
0 0 0 1575438
0 0 0 1575438
0 0 0 1575436
0 0 0 2362897
0.2718443 -0.16128986 2.3862798 5253403
0.55779183 -0.30465862 4.5074177 5057053
0 0 0 5056539
0 0 0 5516062
0 0 0 5121305
0 0 0 5253407
0 0 0 5516318
0 0 0 3083787
0 0 0 1378059
1.3683851 -0.45698792 6.761126 1443853
1.2298691 -0.39170393 5.7952509 1115658
1.125982 -0.34274095 5.0708447 1378317
1.1758287 -0.34274095 5.0708447 6046780
1.2256753 -0.34274095 5.0708447 8738885
1.1337974 -0.30465862 4.5074177 9330757
0.96390444 -0.24926613 3.687887 10053961
1.0001565 -0.24926613 3.687887 10579536
1.1400496 -0.27419278 4.0566759 11105107
1.4749085 -0.34274095 5.0708447 12090456
1.355338 -0.30465862 4.5074177 12354134
1.399646 -0.30465862 4.5074177 12748382
1.2995588 -0.27419278 4.0566759 12878938
1.0303354 -0.21091752 3.1205199 13272667
1.0610102 -0.21091752 3.1205199 13273696
1.0916852 -0.21091752 3.1205199 13471076
1.0421914 -0.19585197 2.8976254 13339488
0.99929678 -0.18279517 2.7044504 13339488
1.0991589 -0.19585197 2.8976254 13274205
1.0524665 -0.18279517 2.7044504 13733216
1.0116107 -0.17137048 2.5354223 13733987
1.0365341 -0.17137048 2.5354223 13733475
1.0614574 -0.17137048 2.5354223 13733475
1.0863807 -0.17137048 2.5354223 13733221
1.111304 -0.17137048 2.5354223 13471075
1.0099798 -0.15232931 2.2537088 13667683
0.97781104 -0.14431198 2.1350925 13536096
0.99879909 -0.14431198 2.1350925 13667423
1.0197872 -0.14431198 2.1350925 13142363
1.1632193 -0.16128986 2.3862798 13338972
1.1866766 -0.16128986 2.3862798 13272924
1.5824827 -0.21091752 3.1205199 13011296
1.497932 -0.19585197 2.8976254 13076317
1.2570482 -0.16128986 2.3862798 13207901
1.2805055 -0.16128986 2.3862798 13076317
1.3039628 -0.16128986 2.3862798 12419414
1.32742 -0.16128986 2.3862798 11497542
1.3508773 -0.16128986 2.3862798 10249023
1.2979827 -0.15232931 2.2537088 8867371
1.2506558 -0.14431198 2.1350925 6895646
1.2080617 -0.13709639 2.028338 5448978
1.2280003 -0.13709639 2.028338 4134666
1.31362 -0.14431198 2.1350925 3019271
1.334608 -0.14431198 2.1350925 1115658
1.3555961 -0.14431198 2.1350925 918537
1.307755 -0.13709639 2.028338 1180940
1.26447 -0.13056798 1.9317503 1181709
1.2834592 -0.13056798 1.9317503 984077
1.3675709 -0.13709639 2.028338 984075
1.3875096 -0.13709639 2.028338 919310
1.4074482 -0.13709639 2.028338 918284
1.6792786 -0.16128986 2.3862798 786954
1.7027358 -0.16128986 2.3862798 656395
1.7261931 -0.16128986 2.3862798 786954
1.5654767 -0.14431198 2.1350925 590601
1.5864646 -0.14431198 2.1350925 918282
1.5270802 -0.13709639 2.028338 787467
1.5470188 -0.13709639 2.028338 787467
1.5669575 -0.13709639 2.028338 722188
1.8669364 -0.16128986 2.3862798 852489
2.4720535 -0.21091752 3.1205199 656394
2.5027282 -0.21091752 3.1205199 918536
2.5334032 -0.21091752 3.1205199 787979
1.7543691 -0.14431198 2.1350925 787723
1.7753571 -0.14431198 2.1350925 787467
1.7065281 -0.13709639 2.028338 852747
1.7264667 -0.13709639 2.028338 786953
1.8383213 -0.14431198 2.1350925 852490
2.0780516 -0.16128986 2.3862798 787211
2.1015089 -0.16128986 2.3862798 787212
2.1249661 -0.16128986 2.3862798 787467
2.2826998 -0.17137048 2.5354223 721675
2.3076231 -0.17137048 2.5354223 918282
2.1953378 -0.16128986 2.3862798 655880
1.7961674 -0.13056798 1.9317503 722186
1.588262 -0.11424698 1.6902815 656395
1.6048776 -0.11424698 1.6902815 787723
1.5566334 -0.10967711 1.6226703 787466
1.5725844 -0.10967711 1.6226703 851976
1.5274378 -0.10545876 1.5602599 3414794
1.4856354 -0.10155287 1.5024725 9460793
1.5004047 -0.10155287 1.5024725 9790022
1.4106793 -0.094549224 1.3988537 9791307
1.4244301 -0.094549224 1.3988537 9856589
1.3902415 -0.091397583 1.3522252 9462858
1.3582587 -0.088449277 1.3086051 10118221
1.3711224 -0.088449277 1.3086051 9988686
1.3407364 -0.085685238 1.2677112 9922380
1.3531981 -0.085685238 1.2677112 9791052
1.3656597 -0.085685238 1.2677112 9594447
1.3781214 -0.085685238 1.2677112 9659980
1.390583 -0.085685238 1.2677112 9921353
1.5481873 -0.094549224 1.3988537 9528394
1.6177216 -0.097925983 1.4488127 9528907
1.9039574 -0.11424698 1.6902815 9594186
1.84375 -0.10967711 1.6226703 9593672
1.6031904 -0.094549224 1.3988537 9856847
1.465353 -0.085685238 1.2677112 9725777
1.630692 -0.094549224 1.3988537 9725776
1.5383497 -0.088449277 1.3086051 9528651
1.6581936 -0.094549224 1.3988537 9791309
0 0 0 9726030
0 0 0 9528397
0 0 0 9660494
0 0 0 9726028
0 0 0 9857100
0 0 0 9988686
0 0 0 9659723
0 0 0 9725516
0 0 0 9988434
0 0 0 9659981
0 0 0 9594444
0 0 0 9593667
0 0 0 9856587
-4.8415465 -0.23431547 4.0566759 10579022
-4.8016691 -0.23431547 4.0566759 11367765
-4.7617917 -0.23431547 4.0566759 11564886
-4.7219143 -0.23431547 4.0566759 11433300
-4.6820374 -0.23431547 4.0566759 11696472
-4.6421599 -0.23431547 4.0566759 11630679
-5.1136475 -0.26035053 4.5074177 11566169
-5.0693393 -0.26035053 4.5074177 11631447
-5.0250311 -0.26035053 4.5074177 11762263
-4.4826508 -0.23431547 4.0566759 11434842
-4.4427733 -0.23431547 4.0566759 11828316
-4.4028959 -0.23431547 4.0566759 11697242
-4.3630185 -0.23431547 4.0566759 11697498
-3.9301283 -0.21301405 3.687887 11894362
-3.8938763 -0.21301405 3.687887 11828826
-3.8576241 -0.21301405 3.687887 12025945
-3.821372 -0.21301405 3.687887 11828311
-3.78512 -0.21301405 3.687887 10645060
-3.7488678 -0.21301405 3.687887 8935473
-4.0838776 -0.23431547 4.0566759 6962979
-4.0440001 -0.23431547 4.0566759 5518622
-3.6401114 -0.21301405 3.687887 5188377
-3.3035378 -0.19526288 3.380563 3215627
-3.2703068 -0.19526288 3.380563 3807766
-3.884491 -0.23431547 4.0566759 3743255
-3.8446138 -0.23431547 4.0566759 3874071
-3.8047364 -0.23431547 4.0566759 3874330
-4.183177 -0.26035053 4.5074177 3809050
-4.1388688 -0.26035053 4.5074177 3874330
-4.6063805 -0.2928943 5.0708447 4005146
-4.5565338 -0.2928943 5.0708447 3808535
-4.5066872 -0.2928943 5.0708447 3808535
-4.4568405 -0.2928943 5.0708447 3809048
-4.4069939 -0.2928943 5.0708447 4005399
-4.3571472 -0.2928943 5.0708447 4203035
-4.9226294 -0.33473635 5.7952509 4137502
-4.2574539 -0.2928943 5.0708447 3675925
-4.2076073 -0.2928943 5.0708447 7429201
-3.6957874 -0.26035053 4.5074177 9921863
-4.107914 -0.2928943 5.0708447 9790530
-3.6071713 -0.26035053 4.5074177 10249796
-3.2065768 -0.23431547 4.0566759 10315844
-2.8788176 -0.21301405 3.687887 10381894
-2.605685 -0.19526288 3.380563 10513481
-2.572454 -0.19526288 3.380563 10645580
-2.5392227 -0.19526288 3.380563 10710603
-2.5059917 -0.19526288 3.380563 11235146
-2.2825484 -0.18024266 3.1205199 10907726
-2.0910254 -0.16736817 2.8976254 11104331
-2.0625415 -0.16736817 2.8976254 11235405
-2.1905239 -0.18024266 3.1205199 11104331
-2.1598489 -0.18024266 3.1205199 11301194
-2.1291742 -0.18024266 3.1205199 11235917
-2.2733741 -0.19526288 3.380563 11565136
-2.9868577 -0.26035053 4.5074177 11630674
-5.2965889 -0.46863094 8.1133518 11696722
-2.8982413 -0.26035053 4.5074177 11761744
-2.335036 -0.21301405 3.687887 11958867
-2.298784 -0.21301405 3.687887 11762772
-2.262532 -0.21301405 3.687887 12286547
-3.0611348 -0.2928943 5.0708447 12155987
-3.0112882 -0.2928943 5.0708447 12483924
-2.9614415 -0.2928943 5.0708447 12418645
-2.9115949 -0.2928943 5.0708447 12419672
-2.8617485 -0.2928943 5.0708447 12485207
-3.7492023 -0.39052576 6.761126 12616279
-3.68274 -0.39052576 6.761126 12681816
-3.6162779 -0.39052576 6.761126 12747094
-4.259779 -0.46863094 8.1133518 12616538
0 0 0 12747351
0 0 0 13075800
0 0 0 13141079
0 0 0 13206872
0 0 0 13405019
0 0 0 13207901
0 0 0 13535837
-0.53260911 -0.068916306 1.1931399 13667166
-0.50599819 -0.066947274 1.1590502 13404760
-0.49460471 -0.066947274 1.1590502 13273944
-0.48321119 -0.066947274 1.1590502 13667414
-0.47181767 -0.066947274 1.1590502 13732697
0 0 0 13667675
0 0 0 13995868
0 0 0 13666903
0 0 0 13273438
0 0 0 8079673
-0.16612917 -0.027566524 0.47725597 6698285
-0.16143773 -0.027566524 0.47725597 5712932
-0.15674628 -0.027566524 0.47725597 5055772
-0.1557188 -0.028230779 0.48875612 4464152
-0.15091431 -0.028230779 0.48875612 4267033
-0.14789164 -0.028575055 0.49471655 3806996
-0.14302856 -0.028575055 0.49471655 3610390
-0.13816547 -0.028575055 0.49471655 3413010
-0.13330239 -0.028575055 0.49471655 3413010
-0.13002497 -0.028927833 0.50082415 2821903
-0.12991346 -0.030040443 0.52008665 2493453
-0.12642176 -0.030430578 0.52684098 2165774
-0.12447605 -0.03124206 0.5408901 1837324
-0.11915907 -0.03124206 0.5408901 1640202
-0.11384209 -0.03124206 0.5408901 1903117
-0.10999168 -0.031664249 0.54819942 1968399
-0.10603577 -0.032098006 0.555709 2296077
-0.10057312 -0.032098006 0.555709 2296334
-0.095110483 -0.032098006 0.555709 2231313
-0.092173129 -0.033002179 0.57136279 2493457
-0.089065492 -0.033958759 0.587924 2493710
-0.083286174 -0.033958759 0.587924 2625041
-0.077506848 -0.033958759 0.587924 2624779
-0.072782353 -0.034458153 0.59656996 2887955
-0.067916818 -0.034972455 0.605474 2427916
-0.061964981 -0.034972455 0.605474 2887700
-0.056013145 -0.034972455 0.605474 2952976
-0.050061308 -0.034972455 0.605474 2952206
-0.044777796 -0.035502341 0.61464781 2690317
-0.039331716 -0.036048532 0.62410396 2296332
-0.033196747 -0.036048532 0.62410396 917509
-0.027061775 -0.036048532 0.62410396 589830
-0.020926805 -0.036048532 0.62410396 721161
-0.014791836 -0.036048532 0.62410396 590089
-0.0086568659 -0.036048532 0.62410396 720904
-0.002521896 -0.036048532 0.62410396 721157
0.0036130741 -0.036048532 0.62410396 720903
0.0097480444 -0.036048532 0.62410396 918284
0.015883014 -0.036048532 0.62410396 983559
0.02308337 -0.037792817 0.65430254 1115661
0.031550724 -0.040399216 0.69942683 853259
0 0 0 1509646
0 0 0 1444109
0 0 0 1706254
0 0 0 1575695
0 0 0 1509902
0 0 0 1574668
0.2718443 -0.13783261 2.3862798 1705991
0 0 0 2955286
0 0 0 5056287
0 0 0 5252634
0 0 0 5057309
0 0 0 5253407
0 0 0 5646879
0 0 0 3215630
0 0 0 1444109
0 0 0 1312524
1.4348472 -0.39052576 6.761126 1312523
1.125982 -0.2928943 5.0708447 1312524
1.1758287 -0.2928943 5.0708447 5586231
1.2256753 -0.2928943 5.0708447 8673346
1.275522 -0.2928943 5.0708447 9133379
0.81561148 -0.18024266 3.1205199 10184780
0.84628636 -0.18024266 3.1205199 10447950
0.87696117 -0.18024266 3.1205199 10776657
1.1799269 -0.23431547 4.0566759 11171152
1.355338 -0.26035053 4.5074177 11762773
1.399646 -0.26035053 4.5074177 12419931
1.4439542 -0.26035053 4.5074177 12944734
1.3394361 -0.23431547 4.0566759 13141084
1.0610102 -0.18024266 3.1205199 13011041
1.0137075 -0.16736817 2.8976254 13076832
0.97271192 -0.15621029 2.7044504 13404763
0.93684077 -0.14644715 2.5354223 13667170
0.9617641 -0.14644715 2.5354223 13536864
0.98668742 -0.14644715 2.5354223 13733475
1.0116107 -0.14644715 2.5354223 13602402
1.0365341 -0.14644715 2.5354223 13799524
1.0614574 -0.14644715 2.5354223 14062183
1.0863807 -0.14644715 2.5354223 13799011
0.98782581 -0.13017526 2.2537088 13208928
1.0099798 -0.13017526 2.2537088 13471075
1.0321339 -0.13017526 2.2537088 13339750
1.355513 -0.16736817 2.8976254 13208162
1.3839968 -0.16736817 2.8976254 13272927
1.4124806 -0.16736817 2.8976254 13471072
1.5518079 -0.18024266 3.1205199 13207901
1.5824827 -0.18024266 3.1205199 13076061
1.497932 -0.16736817 2.8976254 13142625
1.5264157 -0.16736817 2.8976254 13272924
1.2805055 -0.13783261 2.3862798 12813404
