# .PCD v0.7 - Point Cloud Data file format
VERSION 0.7
FIELDS x y z rgb
SIZE 4 4 4 4
TYPE F F F U
COUNT 1 1 1 1
WIDTH 1275
HEIGHT 1
VIEWPOINT 0 0 0 1 0 0 0
POINTS 1275
DATA ascii
-1.84638 0.12100426 5.7952509 9199684
-1.5657359 0.10587873 5.0708447 10316100
-1.5158893 0.10587873 5.0708447 10906697
-1.4660426 0.10587873 5.0708447 11037511
-1.6185098 0.12100426 5.7952509 12616022
-2.1861591 0.16940598 8.1133518 12221007
0 0 0 10578244
0 0 0 7623239
0 0 0 7690576
-0.12966256 0.011764304 0.56342721 7493708
-0.12412404 0.011764304 0.56342721 1509643
-0.14979224 0.014860173 0.71169752 655882
-0.14534613 0.015125533 0.72440636 918284
-0.1358002 0.014860173 0.71169752 721161
-0.11841674 0.013661772 0.65430254 786698
-0.11020738 0.013444918 0.64391679 393220
-0.10225456 0.013234842 0.63385558 393225
-0.077791378 0.010721897 0.51350325 786698
-0.066822626 0.0098491842 0.47170648 590089
-0.061470952 0.0097359754 0.46628457 786950
-0.054386809 0.0093080197 0.44578853 655880
-0.04946116 0.0092068454 0.440943 655880
-0.045126669 0.0092068454 0.440943 721673
-0.040353555 0.0091078477 0.43620169 852491
-0.034938619 0.0088232271 0.42257038 590087
-0.030784734 0.0088232271 0.42257038 655882
-0.026356304 0.0087322667 0.41821399 655364
-0.022476962 0.0088232271 0.42257038 1114889
-0.018515952 0.0089161033 0.42701849 2954520
-0.014626262 0.0091078477 0.43620169 4201757
-0.01033838 0.0091078477 0.43620169 4464158
-0.0060504978 0.0091078477 0.43620169 4463898
-0.0017438642 0.0090109557 0.43156123 5120284
0.002498402 0.0090109557 0.43156123 4922648
0.0067406683 0.0090109557 0.43156123 5515297
0.010982934 0.0090109557 0.43156123 4858656
0.015225201 0.0090109557 0.43156123 4332574
0.019262547 0.0089161033 0.42701849 4267549
0.023709733 0.0090109557 0.43156123 4989213
0.028252561 0.0091078477 0.43620169 4988441
0.032540441 0.0091078477 0.43620169 4463897
0.037637737 0.0093080197 0.44578853 3674644
0.042486746 0.0094114421 0.45074174 3346447
0.04744472 0.0095171891 0.45580626 3872275
0.052515376 0.0096253389 0.46098587 4070167
0.059763409 0.010083688 0.48293757 3478802
0 0 0 2296845
0 0 0 655367
0 0 0 524551
0.091878042 0.011764304 0.56342721 524294
0.097416557 0.011764304 0.56342721 589830
0.10295507 0.011764304 0.56342721 655368
0.11002166 0.011929998 0.57136279 589831
0.11563818 0.011929998 0.57136279 589832
0.1212547 0.011929998 0.57136279 524295
0.12687123 0.011929998 0.57136279 590088
0.13248774 0.011929998 0.57136279 458758
0.15320942 0.013234842 0.63385558 524551
0 0 0 655366
0.17671581 0.014117164 0.67611259 721160
0.19301267 0.014860173 0.71169752 720901
0.20358026 0.015125533 0.72440636 721159
0.24080139 0.017286323 0.82789302 721160
0.25953278 0.018021911 0.86312246 590088
0 0 0 655623
0 0 0 786952
0 0 0 721416
0 0 0 918024
0 0 0 1115401
0 0 0 1312523
0 0 0 1181451
0 0 0 1378315
0 0 0 1312522
0.80928862 0.042351495 2.028338 1181709
0.7897402 0.040334754 1.9317503 984331
0.80872941 0.040334754 1.9317503 1050122
0.82771862 0.040334754 1.9317503 984842
0.84670776 0.040334754 1.9317503 787466
0.86569697 0.040334754 1.9317503 918539
0.88468617 0.040334754 1.9317503 919051
0.94885921 0.042351495 2.028338 984075
0.92266452 0.040334754 1.9317503 1312013
0.94165373 0.040334754 1.9317503 1049611
0.96064293 0.040334754 1.9317503 1049612
0.97963214 0.040334754 1.9317503 1181455
1.0485525 0.042351495 2.028338 1114892
1.1872123 0.047057215 2.2537088 1049609
1.2093664 0.047057215 2.2537088 984075
1.2315204 0.047057215 2.2537088 1707025
1.2536745 0.047057215 2.2537088 8547670
1.2758286 0.047057215 2.2537088 7953235
1.2979827 0.047057215 2.2537088 6833475
1.3201367 0.047057215 2.2537088 4203295
1.2716439 0.044580519 2.1350925 984329
1.2280003 0.042351495 2.028338 852489
1.31362 0.044580519 2.1350925 852232
1.334608 0.044580519 2.1350925 721159
1.2878163 0.042351495 2.028338 655625
1.307755 0.042351495 2.028338 655880
1.3276936 0.042351495 2.028338 852490
1.4973692 0.047057215 2.2537088 721675
1.5195233 0.047057215 2.2537088 786696
1.5416772 0.047057215 2.2537088 655366
1.5638313 0.047057215 2.2537088 655880
1.5859854 0.047057215 2.2537088 655622
1.7027358 0.049825285 2.3862798 655366
1.6302935 0.047057215 2.2537088 786696
1.6524476 0.047057215 2.2537088 655366
1.6746017 0.047057215 2.2537088 655366
1.7965648 0.049825285 2.3862798 524294
1.6284407 0.044580519 2.1350925 393220
1.3625716 0.036827382 1.763772 917511
1.3799095 0.036827382 1.763772 524548
1.3972476 0.036827382 1.763772 524807
1.4145855 0.036827382 1.763772 590089
1.4319234 0.036827382 1.763772 590087
1.4492614 0.036827382 1.763772 720903
1.405491 0.035292909 1.6902815 786950
1.4221066 0.035292909 1.6902815 655364
1.4387221 0.035292909 1.6902815 327684
1.4553376 0.035292909 1.6902815 524551
1.4130751 0.033881195 1.6226703 393225
1.429026 0.033881195 1.6226703 393479
1.389401 0.032578073 1.5602599 786696
1.4047384 0.032578073 1.5602599 590091
1.4768788 0.033881195 1.6226703 590089
1.7771782 0.040334754 1.9317503 590086
1.7961674 0.040334754 1.9317503 655623
1.8151566 0.040334754 1.9317503 524295
1.7507756 0.038501356 1.8439435 720903
1.5566334 0.033881195 1.6226703 458757
1.5121003 0.032578073 1.5602599 852489
1.5885353 0.033881195 1.6226703 852489
1.6713398 0.035292909 1.6902815 786696
1.6879553 0.035292909 1.6902815 786696
1.7045708 0.035292909 1.6902815 917766
1.7211864 0.035292909 1.6902815 786696
1.6682899 0.033881195 1.6226703 917512
1.6842408 0.033881195 1.6226703 787468
1.7001917 0.033881195 1.6226703 786696
1.7161427 0.033881195 1.6226703 917512
1.7320936 0.033881195 1.6226703 1049098
1.8208796 0.035292909 1.6902815 852489
1.8374952 0.035292909 1.6902815 1049609
2.0226662 0.038501356 1.8439435 853000
2.6410253 0.049825285 2.3862798 852489
2.6644826 0.049825285 2.3862798 983305
2.1759512 0.040334754 1.9317503 918539
2.1949403 0.040334754 1.9317503 787466
2.2139297 0.040334754 1.9317503 853001
2.2329187 0.040334754 1.9317503 853000
2.2519081 0.040334754 1.9317503 918537
2.2708972 0.040334754 1.9317503 853257
2.2898865 0.040334754 1.9317503 853002
2.2039268 0.038501356 1.8439435 918795
2.2220528 0.038501356 1.8439435 1049868
3.5202808 0.060502131 2.8976254 1049868
0 0 0 984074
0 0 0 983817
0 0 0 983562
0 0 0 983562
0 0 0 853257
0 0 0 984330
0 0 0 1312008
0 0 0 4598823
0 0 0 1312270
0 0 0 1773340
-4.8415465 0.12458029 4.0566759 4929081
-4.8016691 0.12458029 4.0566759 9597026
-3.9681594 0.1038169 3.380563 10580562
-4.2926493 0.11325481 3.687887 10580308
-4.2563972 0.11325481 3.687887 10776660
-4.2201452 0.11325481 3.687887 11104855
-4.1838932 0.11325481 3.687887 11039573
-4.1476407 0.11325481 3.687887 10907987
-3.7687731 0.1038169 3.380563 10907987
-3.7355418 0.1038169 3.380563 11302486
-3.7023108 0.1038169 3.380563 11106133
-3.386843 0.095830992 3.1205199 10974804
-3.3561683 0.095830992 3.1205199 11236948
-3.3254933 0.095830992 3.1205199 11433815
-3.5693865 0.1038169 3.380563 11368790
-3.5361555 0.1038169 3.380563 11500121
-3.5029244 0.1038169 3.380563 11106386
-3.4696932 0.1038169 3.380563 10447425
-4.123755 0.12458029 4.0566759 7883047
-4.0838776 0.12458029 4.0566759 5780254
-3.6763637 0.11325481 3.687887 1705473
-3.6401114 0.11325481 3.687887 1444110
-4.4047174 0.13842255 4.5074177 1640973
-4.3604093 0.13842255 4.5074177 3283737
-4.3161011 0.13842255 4.5074177 3808278
-4.2717929 0.13842255 4.5074177 4005398
-4.2274847 0.13842255 4.5074177 4005400
-4.183177 0.13842255 4.5074177 3874330
-4.1388688 0.13842255 4.5074177 3610904
-4.0945606 0.13842255 4.5074177 3611671
-4.0502524 0.13842255 4.5074177 3415062
-4.0059443 0.13842255 4.5074177 3480601
-3.9616363 0.13842255 4.5074177 3677462
-3.9173281 0.13842255 4.5074177 3809048
-3.8730199 0.13842255 4.5074177 3677205
-3.8287117 0.13842255 4.5074177 3744025
-4.2574539 0.15572536 5.0708447 3282706
-3.7400956 0.13842255 4.5074177 2233618
-3.6957874 0.13842255 4.5074177 3546653
-3.6514795 0.13842255 4.5074177 3086611
-4.0580673 0.15572536 5.0708447 2430743
-4.0082207 0.15572536 5.0708447 2561811
-3.9583743 0.15572536 5.0708447 1706760
-3.9085276 0.15572536 5.0708447 1049609
-3.4299388 0.13842255 4.5074177 918536
-3.8088343 0.15572536 5.0708447 918535
-3.7589877 0.15572536 5.0708447 918279
-3.709141 0.15572536 5.0708447 1510672
-3.6592944 0.15572536 5.0708447 4795945
-4.125083 0.17797184 5.7952509 4138781
-4.7461348 0.20763381 6.761126 2559758
-4.011148 0.17797184 5.7952509 1115145
-3.9541805 0.17797184 5.7952509 984330
-3.4100614 0.15572536 5.0708447 918536
-3.3602147 0.15572536 5.0708447 1312523
-3.3103681 0.15572536 5.0708447 1180938
-2.8982413 0.13842255 4.5074177 1181451
-2.8539333 0.13842255 4.5074177 1246988
-3.1608281 0.15572536 5.0708447 1444108
-3.1109815 0.15572536 5.0708447 2036247
-3.0611348 0.15572536 5.0708447 8278851
-3.0112882 0.15572536 5.0708447 8870459
-3.3845046 0.17797184 5.7952509 8738360
-3.3275371 0.17797184 5.7952509 7358513
-3.2705696 0.17797184 5.7952509 6767153
-3.2136018 0.17797184 5.7952509 3348751
-3.1566343 0.17797184 5.7952509 3414036
-2.7122085 0.15572536 5.0708447 6636858
-2.6623619 0.15572536 5.0708447 5254179
-2.6125152 0.15572536 5.0708447 5320486
-2.9287641 0.17797184 5.7952509 6833458
-3.3504291 0.20763381 6.761126 8278073
-3.9407606 0.24916059 8.1133518 10447948
-3.861006 0.24916059 8.1133518 11367501
-3.7812514 0.24916059 8.1133518 11696206
-3.7014968 0.24916059 8.1133518 11564878
-3.6217422 0.24916059 8.1133518 11761743
-3.5419877 0.24916059 8.1133518 12287061
-3.4622331 0.24916059 8.1133518 11892045
-2.8187318 0.20763381 6.761126 11828051
-2.7522695 0.20763381 6.761126 11827540
-2.6858075 0.20763381 6.761126 11893842
-2.2451532 0.17797184 5.7952509 9330237
-2.1881855 0.17797184 5.7952509 10382155
-2.131218 0.17797184 5.7952509 10315846
-2.0742505 0.17797184 5.7952509 10316360
-2.0172827 0.17797184 5.7952509 10316622
-1.7152759 0.15572536 5.0708447 9528382
-1.9033476 0.17797184 5.7952509 10710856
-1.84638 0.17797184 5.7952509 8608062
-1.5657359 0.15572536 5.0708447 9988423
-1.7324449 0.17797184 5.7952509 10512965
-1.4660426 0.15572536 5.0708447 11038282
-1.6185098 0.17797184 5.7952509 11632211
-2.1861591 0.24916059 8.1133518 12089162
0 0 0 10250049
0 0 0 7952458
0 0 0 7559499
-0.13148879 0.01754652 0.57136279 7557700
-0.15958804 0.02224648 0.72440636 1181708
-0.15246709 0.02224648 0.72440636 655882
-0.14534613 0.02224648 0.72440636 786698
-0.1358002 0.021856192 0.71169752 655366
-0.12035801 0.020422999 0.66502881 655880
-0.11020738 0.019774649 0.64391679 327684
-0.10225456 0.01946567 0.63385558 524294
-0.074042395 0.015009673 0.48875612 655882
-0.066822626 0.01448608 0.47170648 786696
-0.060089581 0.013997785 0.45580626 655880
-0.053795647 0.013541335 0.440943 852489
-0.04946116 0.013541335 0.440943 786696
-0.044641439 0.01339573 0.43620169 918282
-0.03992426 0.013253221 0.43156123 983305
-0.034938619 0.012977113 0.42257038 655882
-0.030467367 0.012843329 0.41821399 721673
-0.026356304 0.012843329 0.41821399 918538
-0.022476962 0.012977113 0.42257038 1049865
-0.018515952 0.013113715 0.42701849 2625812
-0.014626262 0.01339573 0.43620169 3940639
-0.010450753 0.013541335 0.440943 4201758
-0.0061162636 0.013541335 0.440943 4595742
-0.0017438642 0.013253221 0.43156123 4792350
0.0024721033 0.013113715 0.42701849 5448479
0.0067406683 0.013253221 0.43156123 5252381
0.010867326 0.013113715 0.42701849 4922650
0.015225201 0.013253221 0.43156123 4332826
0.019467467 0.013253221 0.43156123 4332312
0.023709733 0.013253221 0.43156123 4595482
0.027952 0.013253221 0.43156123 4397074
0.032540441 0.01339573 0.43620169 3938322
0.037637737 0.013690141 0.44578853 3674896
0.042486746 0.013842254 0.45074174 3543312
0.04744472 0.013997785 0.45580626 4134935
0.052515376 0.014156851 0.46098587 4069394
0.058373563 0.01448608 0.47170648 2295815
0.066899993 0.015380282 0.50082415 655880
0 0 0 590087
0 0 0 720903
0 0 0 590086
0.098788619 0.01754652 0.57136279 524293
0.10440513 0.01754652 0.57136279 589832
0.11002166 0.01754652 0.57136279 590088
0.11563818 0.01754652 0.57136279 393220
0.1212547 0.01754652 0.57136279 524292
0.12687123 0.01754652 0.57136279 720902
0.13248774 0.01754652 0.57136279 458756
0.14856671 0.0188758 0.61464781 655366
0.16458349 0.020093596 0.65430254 590087
0.17101531 0.020093596 0.65430254 852487
0.19301267 0.021856192 0.71169752 786696
0.21112028 0.023070425 0.75123626 721161
0.24080139 0.025424549 0.82789302 655364
0 0 0 655622
0.27992919 0.027684508 0.90148348 655880
0.28879082 0.027684508 0.90148348 721159
0 0 0 655624
0 0 0 786696
0 0 0 918281
0 0 0 721671
0 0 0 918537
0 0 0 1115403
0 0 0 1312523
0 0 0 1312524
0.7897402 0.059323944 1.9317503 984331
0.80872941 0.059323944 1.9317503 1115916
0.82771862 0.059323944 1.9317503 983559
0.84670776 0.059323944 1.9317503 1049865
0.86569697 0.059323944 1.9317503 1049609
0.88468617 0.059323944 1.9317503 852746
0.90367538 0.059323944 1.9317503 918795
0.92266452 0.059323944 1.9317503 721927
0.94165373 0.059323944 1.9317503 984074
0.96064293 0.059323944 1.9317503 918282
0.93510342 0.056627404 1.8439435 919052
0.95322943 0.056627404 1.8439435 1050123
1.0176105 0.059323944 1.9317503 721673
1.2093664 0.069211274 2.2537088 853259
1.2315204 0.069211274 2.2537088 1246729
1.1876916 0.065568574 2.1350925 7751472
1.2086797 0.065568574 2.1350925 7555134
1.2979827 0.069211274 2.2537088 6504758
1.3201367 0.069211274 2.2537088 3085852
1.3422908 0.069211274 2.2537088 918282
1.2926319 0.065568574 2.1350925 655882
1.3865988 0.069211274 2.2537088 655623
1.4087529 0.069211274 2.2537088 524552
1.430907 0.069211274 2.2537088 590346
1.4530611 0.069211274 2.2537088 918282
1.4752151 0.069211274 2.2537088 721930
1.4973692 0.069211274 2.2537088 655882
1.6089069 0.073282525 2.3862798 721675
1.6323642 0.073282525 2.3862798 590602
1.6558213 0.073282525 2.3862798 721675
1.6792786 0.073282525 2.3862798 655367
1.7027358 0.073282525 2.3862798 786696
1.4672642 0.062290147 2.028338 524295
1.4872029 0.062290147 2.028338 458762
1.3701285 0.056627404 1.8439435 458759
1.3882545 0.056627404 1.8439435 590088
1.3452337 0.054165341 1.763772 458757
1.3625716 0.054165341 1.763772 524294
1.3799095 0.054165341 1.763772 458760
1.4607588 0.056627404 1.8439435 327683
1.4145855 0.054165341 1.763772 655368
1.4319234 0.054165341 1.763772 720903
1.3888755 0.051908452 1.6902815 458757
1.405491 0.051908452 1.6902815 524296
1.4221066 0.051908452 1.6902815 327685
1.4387221 0.051908452 1.6902815 524294
1.4553376 0.051908452 1.6902815 524294
1.4130751 0.049832117 1.6226703 459015
1.429026 0.049832117 1.6226703 524294
1.389401 0.047915496 1.5602599 524295
1.4609278 0.049832117 1.6226703 459017
1.758189 0.059323944 1.9317503 589833
1.7771782 0.059323944 1.9317503 393222
1.7961674 0.059323944 1.9317503 459015
1.7326494 0.056627404 1.8439435 458758
1.6048776 0.051908452 1.6902815 655367
1.6214931 0.051908452 1.6902815 524295
1.5121003 0.047915496 1.5602599 590345
1.6547242 0.051908452 1.6902815 590089
1.6713398 0.051908452 1.6902815 852233
1.6879553 0.051908452 1.6902815 786697
1.7045708 0.051908452 1.6902815 655882
1.7211864 0.051908452 1.6902815 655880
1.7378019 0.051908452 1.6902815 655880
1.6842408 0.049832117 1.6226703 786695
1.7001917 0.049832117 1.6226703 852489
1.7876486 0.051908452 1.6902815 721675
1.8827103 0.054165341 1.763772 852489
2.1850557 0.062290147 2.028338 918284
2.2049944 0.062290147 2.028338 918282
2.617568 0.073282525 2.3862798 852489
2.6410253 0.073282525 2.3862798 787720
2.6644826 0.073282525 2.3862798 918282
2.1759512 0.059323944 1.9317503 918282
2.1949403 0.059323944 1.9317503 787466
2.2139297 0.059323944 1.9317503 787207
2.930706 0.07786268 2.5354223 918536
3.1526711 0.083053522 2.7044504 918793
2.9805527 0.07786268 2.5354223 787720
3.005476 0.07786268 2.5354223 918536
2.4243195 0.062290147 2.028338 852491
3.4917972 0.08898592 2.8976254 852491
3.5202808 0.08898592 2.8976254 721673
0 0 0 918538
0 0 0 852744
0 0 0 918280
0 0 0 1049868
0 0 0 918282
0 0 0 918282
0 0 0 984328
0 0 0 4205863
0 0 0 919054
0 0 0 1312792
-4.8415465 0.1644576 4.0566759 4336430
-4.8016691 0.1644576 4.0566759 9662561
-4.7617917 0.1644576 4.0566759 10580562
-5.2465715 0.18273066 4.5074177 10383956
-5.2022634 0.18273066 4.5074177 10580821
-5.1579552 0.18273066 4.5074177 10973780
-4.1838932 0.1495069 3.687887 10973780
-4.1476407 0.1495069 3.687887 10842964
-4.1113887 0.1495069 3.687887 10973780
-4.0751367 0.1495069 3.687887 11104593
-3.7023108 0.13704799 3.380563 11303254
-3.386843 0.12650585 3.1205199 11106389
-3.3561683 0.12650585 3.1205199 11171158
-3.6026175 0.13704799 3.380563 11368280
-3.5693865 0.13704799 3.380563 11170644
-3.5361555 0.13704799 3.380563 11302998
-3.2334688 0.12650585 3.1205199 11237458
-3.4696932 0.13704799 3.380563 10315584
-4.123755 0.1644576 4.0566759 7883307
-4.0838776 0.1644576 4.0566759 5517083
-3.6763637 0.1495069 3.687887 1508865
-3.6401114 0.1495069 3.687887 1313037
-4.4047174 0.18273066 4.5074177 1509646
-4.3604093 0.18273066 4.5074177 2758423
-4.3161011 0.18273066 4.5074177 3151891
-4.2717929 0.18273066 4.5074177 3282963
-4.2274847 0.18273066 4.5074177 3283219
-3.7648592 0.1644576 4.0566759 3349012
-4.1388688 0.18273066 4.5074177 3480085
-4.0945606 0.18273066 4.5074177 3479828
-4.0502524 0.18273066 4.5074177 3414292
-4.0059443 0.18273066 4.5074177 3414292
-3.9616363 0.18273066 4.5074177 3348245
-3.9173281 0.18273066 4.5074177 3348501
-3.8730199 0.18273066 4.5074177 3283220
-3.8287117 0.18273066 4.5074177 3086097
-3.7844038 0.18273066 4.5074177 3019534
-3.7400956 0.18273066 4.5074177 2299157
-4.1577606 0.20557199 5.0708447 2955541
-3.6514795 0.18273066 4.5074177 1968909
-4.0580673 0.20557199 5.0708447 1509902
-4.0082207 0.20557199 5.0708447 2495766
-3.9583743 0.20557199 5.0708447 1706505
-3.474247 0.18273066 4.5074177 852488
-3.4299388 0.18273066 4.5074177 852743
-3.3856306 0.18273066 4.5074177 787466
-3.3413227 0.18273066 4.5074177 984075
-3.709141 0.20557199 5.0708447 918536
-3.6592944 0.20557199 5.0708447 984328
-3.6094477 0.20557199 5.0708447 983815
-4.0681157 0.23493941 5.7952509 1115144
-3.5097547 0.20557199 5.0708447 721927
-3.9541805 0.23493941 5.7952509 1049351
-3.8972127 0.23493941 5.7952509 983559
-3.8402452 0.23493941 5.7952509 853000
-3.3103681 0.20557199 5.0708447 1246731
-2.8982413 0.18273066 4.5074177 1444368
-2.8539333 0.18273066 4.5074177 2562590
-3.1608281 0.20557199 5.0708447 3022882
-3.1109815 0.20557199 5.0708447 4796208
-3.0611348 0.20557199 5.0708447 7358772
-3.4414723 0.23493941 5.7952509 7818036
-3.3845046 0.23493941 5.7952509 6568740
-2.9115949 0.20557199 5.0708447 5843739
-2.8617485 0.20557199 5.0708447 3347210
-2.8119018 0.20557199 5.0708447 1443334
-2.7620552 0.20557199 5.0708447 1050122
-2.7122085 0.20557199 5.0708447 786950
-2.6623619 0.20557199 5.0708447 984073
-2.6125152 0.20557199 5.0708447 918023
-2.9287641 0.23493941 5.7952509 1246988
-3.3504291 0.27409598 6.761126 984585
-3.283967 0.27409598 6.761126 2166031
-3.861006 0.32891521 8.1133518 11169878
-3.7812514 0.32891521 8.1133518 11432781
-3.7014968 0.32891521 8.1133518 11564108
-3.6217422 0.32891521 8.1133518 11565136
-3.5419877 0.32891521 8.1133518 11565135
-2.8851941 0.27409598 6.761126 11499343
-2.8187318 0.27409598 6.761126 11301453
-2.7522695 0.27409598 6.761126 11498574
-2.6858075 0.27409598 6.761126 11432780
-2.2451532 0.23493941 5.7952509 9724992
-2.1881855 0.23493941 5.7952509 9724226
-2.131218 0.23493941 5.7952509 10117955
-2.0742505 0.23493941 5.7952509 9790531
-2.0172827 0.23493941 5.7952509 9330753
-1.9603152 0.23493941 5.7952509 9197886
-1.9033476 0.23493941 5.7952509 7883316
-1.84638 0.23493941 5.7952509 9789507
-1.7894125 0.23493941 5.7952509 10120775
-1.7324449 0.23493941 5.7952509 10381636
-1.6754773 0.23493941 5.7952509 9658433
-1.6185098 0.23493941 5.7952509 11894360
-2.1861591 0.32891521 8.1133518 12155730
0 0 0 10644038
0 0 0 7688519
0 0 0 7689802
-0.16670898 0.029367426 0.72440636 6570551
-0.15958804 0.029367426 0.72440636 1378317
-0.15246709 0.029367426 0.72440636 589829
-0.14534613 0.029367426 0.72440636 787466
-0.1358002 0.028852209 0.71169752 458759
-0.12035801 0.026960261 0.66502881 720903
-0.11198492 0.026525419 0.65430254 524296
-0.086109102 0.021639157 0.53377312 720905
-0.074042395 0.019814169 0.48875612 459016
-0.066822626 0.019122977 0.47170648 786696
-0.058768932 0.018072262 0.44578853 721673
-0.052651059 0.017495489 0.43156123 852491
-0.048408795 0.017495489 0.43156123 852237
-0.044166528 0.017495489 0.43156123 918282
-0.03992426 0.017495489 0.43156123 786696
-0.034938619 0.017130999 0.42257038 655882
-0.030467367 0.01695439 0.41821399 786696
-0.026087362 0.016781388 0.41394651 1049611
-0.02201825 0.016781388 0.41394651 983818
-0.018515952 0.017311325 0.42701849 2166291
-0.014626262 0.017683612 0.43620169 2756883
-0.010450753 0.017875824 0.440943 4464413
-0.0061162636 0.017875824 0.440943 4464415
-0.0017626154 0.017683612 0.43620169 4135706
0.002498402 0.017495489 0.43156123 4858143
0.0067406683 0.017495489 0.43156123 5843235
0.010867326 0.017311325 0.42701849 5251611
0.015225201 0.017495489 0.43156123 4332312
0.019467467 0.017495489 0.43156123 3872277
0.023709733 0.017495489 0.43156123 4200726
0.028252561 0.017683612 0.43620169 3872275
0.032894142 0.017875824 0.440943 4332314
0.037637737 0.018072262 0.44578853 3610386
0.042019859 0.018072262 0.44578853 3477778
0.04744472 0.018478381 0.45580626 4266519
0.052515376 0.018688362 0.46098587 3938068
0.058373563 0.019122977 0.47170648 1639173
0.064510703 0.019578284 0.48293757 917512
0.071823113 0.020303406 0.50082415 589830
0.079698019 0.021084307 0.52008665 524553
0.09061943 0.022528438 0.555709 524296
0.097416557 0.022841332 0.56342721 720903
0.10295507 0.022841332 0.56342721 393220
0.11002166 0.023163041 0.57136279 524295
0.11563818 0.023163041 0.57136279 524551
0.1212547 0.023163041 0.57136279 720903
0.12687123 0.023163041 0.57136279 524295
0.13438043 0.023493942 0.57952511 524292
0.15320942 0.025696499 0.63385558 655366
0.16197105 0.026104379 0.64391679 589830
0.17101531 0.026525419 0.65430254 721160
0.18336202 0.027409598 0.67611259 786696
0.21510367 0.031029733 0.76541048 655367
0.24080139 0.033562776 0.82789302 524292
0.24893962 0.033562776 0.82789302 655623
0.26801732 0.034990977 0.86312246 590345
0.28879082 0.03654613 0.90148348 655624
0.29765245 0.03654613 0.90148348 524294
0.30651405 0.03654613 0.90148348 786951
0 0 0 852489
0 0 0 852233
0 0 0 720903
0 0 0 786696
0 0 0 983048
0 0 0 1181451
0 0 0 1115404
0.80872941 0.078313135 1.9317503 918538
0.82771862 0.078313135 1.9317503 984330
0.84670776 0.078313135 1.9317503 1180938
0.86569697 0.078313135 1.9317503 918281
0.88468617 0.078313135 1.9317503 918536
0.90367538 0.078313135 1.9317503 787466
0.92266452 0.078313135 1.9317503 918536
0.94165373 0.078313135 1.9317503 983563
0.96064293 0.078313135 1.9317503 918282
0.97963214 0.078313135 1.9317503 918284
0.95322943 0.074753448 1.8439435 1049355
0.9713555 0.074753448 1.8439435 1049868
1.0365998 0.078313135 1.9317503 1114891
1.1083684 0.082228802 2.028338 1509388
1.1876916 0.086556628 2.1350925 7092777
1.2086797 0.086556628 2.1350925 7554873
1.2296677 0.086556628 2.1350925 6176047
1.2506558 0.086556628 2.1350925 3217179
1.3422908 0.09136533 2.2537088 853002
1.3644449 0.09136533 2.2537088 721675
1.3865988 0.09136533 2.2537088 590343
1.4087529 0.09136533 2.2537088 590087
1.430907 0.09136533 2.2537088 655368
1.4530611 0.09136533 2.2537088 590087
1.4752151 0.09136533 2.2537088 721674
1.5854496 0.096739762 2.3862798 721675
1.6089069 0.096739762 2.3862798 524808
1.6323642 0.096739762 2.3862798 852491
1.6558213 0.096739762 2.3862798 590602
1.6792786 0.096739762 2.3862798 590348
1.4473255 0.082228802 2.028338 590602
1.3973943 0.078313135 1.9317503 655880
1.2932198 0.071503296 1.763772 786696
1.3701285 0.074753448 1.8439435 1049096
1.3882545 0.074753448 1.8439435 786951
1.3452337 0.071503296 1.763772 853259
1.3625716 0.071503296 1.763772 590087
1.3799095 0.071503296 1.763772 524550
1.4607588 0.074753448 1.8439435 590341
1.4788848 0.074753448 1.8439435 589830
1.4319234 0.071503296 1.763772 852487
1.3888755 0.068523996 1.6902815 655624
1.405491 0.068523996 1.6902815 589831
1.4221066 0.068523996 1.6902815 590088
1.4387221 0.068523996 1.6902815 458758
1.4553376 0.068523996 1.6902815 524293
1.5359511 0.071503296 1.763772 393221
1.6238931 0.074753448 1.8439435 655368
1.7202107 0.078313135 1.9317503 655367
1.7391998 0.078313135 1.9317503 590087
1.758189 0.078313135 1.9317503 720905
1.6963974 0.074753448 1.8439435 524296
1.6399789 0.071503296 1.763772 327685
1.6573169 0.071503296 1.763772 393477
1.6048776 0.068523996 1.6902815 524551
1.6214931 0.068523996 1.6902815 524294
1.7870276 0.074753448 1.8439435 590087
1.6547242 0.068523996 1.6902815 720905
1.6713398 0.068523996 1.6902815 721161
1.6879553 0.068523996 1.6902815 590087
1.7045708 0.068523996 1.6902815 852489
1.7211864 0.068523996 1.6902815 851975
1.7378019 0.068523996 1.6902815 786950
1.7544174 0.068523996 1.6902815 590087
1.7710329 0.068523996 1.6902815 720903
2.0430269 0.078313135 1.9317503 852743
2.062016 0.078313135 1.9317503 852743
2.1850557 0.082228802 2.028338 786696
2.2049944 0.082228802 2.028338 1049098
2.2249329 0.082228802 2.028338 787466
2.6410253 0.096739762 2.3862798 1049098
2.6644826 0.096739762 2.3862798 786696
2.6879399 0.096739762 2.3862798 918282
2.7113969 0.096739762 2.3862798 852488
2.9057827 0.102786 2.5354223 918024
2.930706 0.102786 2.5354223 918280
3.1526711 0.10963839 2.7044504 918280
3.179256 0.10963839 2.7044504 852743
5.3430686 0.18273066 4.5074177 852743
3.2324257 0.10963839 2.7044504 655881
6.1106453 0.20557199 5.0708447 786954
0 0 0 786953
0 0 0 918024
0 0 0 918536
0 0 0 852743
0 0 0 918537
0 0 0 1114890
0 0 0 1049352
0 0 0 918277
0 0 0 3876642
0 0 0 984077
0 0 0 984596
-4.8415465 0.2043349 4.0566759 3942699
-6.0020862 0.25541863 5.0708447 9334366
-7.9363189 0.34055814 6.761126 10646097
-5.9023929 0.25541863 5.0708447 10974033
-5.2022634 0.22703879 4.5074177 10907987
-4.6421599 0.2043349 4.0566759 10907733
-4.6022825 0.2043349 4.0566759 10973526
-4.5624051 0.2043349 4.0566759 10908757
-4.5225282 0.2043349 4.0566759 11039825
-4.4826508 0.2043349 4.0566759 10974291
-4.0388846 0.18575899 3.687887 11040083
-3.6690798 0.17027907 3.380563 11170643
-3.6358488 0.17027907 3.380563 11499096
-3.6026175 0.17027907 3.380563 11433816
-3.5693865 0.17027907 3.380563 11170900
-3.5361555 0.17027907 3.380563 11433556
-3.2334688 0.1571807 3.1205199 11302482
-3.78512 0.18575899 3.687887 10513222
-4.123755 0.2043349 4.0566759 7620135
-4.0838776 0.2043349 4.0566759 5715232
-3.6763637 0.18575899 3.687887 1771010
-3.6401114 0.18575899 3.687887 1378317
-3.9642456 0.2043349 4.0566759 1575438
-4.3604093 0.22703879 4.5074177 2823701
-4.3161011 0.22703879 4.5074177 3348243
-4.2717929 0.22703879 4.5074177 3413778
-4.2274847 0.22703879 4.5074177 3545877
-4.183177 0.22703879 4.5074177 3808536
-4.1388688 0.22703879 4.5074177 3611158
-4.0945606 0.22703879 4.5074177 3545878
-4.0502524 0.22703879 4.5074177 3611158
-4.0059443 0.22703879 4.5074177 3414806
-3.9616363 0.22703879 4.5074177 3414038
-3.9173281 0.22703879 4.5074177 3479829
-3.8730199 0.22703879 4.5074177 3545365
-3.8287117 0.22703879 4.5074177 3479829
-3.7844038 0.22703879 4.5074177 2888721
-3.7400956 0.22703879 4.5074177 1970450
-3.6957874 0.22703879 4.5074177 2495508
-3.6514795 0.22703879 4.5074177 983557
-3.6071713 0.22703879 4.5074177 918022
-3.5628631 0.22703879 4.5074177 2035985
-3.5185549 0.22703879 4.5074177 1443849
-3.474247 0.22703879 4.5074177 917766
-3.4299388 0.22703879 4.5074177 918282
-3.3856306 0.22703879 4.5074177 852489
-3.3413227 0.22703879 4.5074177 721160
-3.709141 0.25541863 5.0708447 786696
-3.6592944 0.25541863 5.0708447 1378063
-3.6094477 0.25541863 5.0708447 1312524
-4.0681157 0.29190698 5.7952509 918282
-3.5097547 0.25541863 5.0708447 918282
-3.9541805 0.29190698 5.7952509 918536
-4.5467482 0.34055814 6.761126 918535
-3.8402452 0.29190698 5.7952509 918024
-3.3103681 0.25541863 5.0708447 852743
-3.2605214 0.25541863 5.0708447 2364953
-3.2106748 0.25541863 5.0708447 3217429
-3.1608281 0.25541863 5.0708447 4729381
-3.1109815 0.25541863 5.0708447 6044461
-3.0611348 0.25541863 5.0708447 6636079
-3.0112882 0.25541863 5.0708447 6568227
-2.9614415 0.25541863 5.0708447 4329996
-2.9115949 0.25541863 5.0708447 4393744
-2.8617485 0.25541863 5.0708447 2296077
-2.8119018 0.25541863 5.0708447 1115145
-2.7620552 0.25541863 5.0708447 853513
-2.7122085 0.25541863 5.0708447 1049866
-2.6623619 0.25541863 5.0708447 1377546
-2.6125152 0.25541863 5.0708447 1312523
-2.5626686 0.25541863 5.0708447 1574150
-2.8717964 0.29190698 5.7952509 1443337
-2.4629753 0.25541863 5.0708447 1510160
-3.2175047 0.34055814 6.761126 10119253
-3.7812514 0.4086698 8.1133518 10841931
-3.7014968 0.4086698 8.1133518 11433294
-3.6217422 0.4086698 8.1133518 11302220
-3.5419877 0.4086698 8.1133518 11498573
-2.8851941 0.34055814 6.761126 11038796
-2.8187318 0.34055814 6.761126 11235918
-2.7522695 0.34055814 6.761126 11170637
-2.6858075 0.34055814 6.761126 11301453
-2.6193452 0.34055814 6.761126 10907721
-2.1881855 0.29190698 5.7952509 8476222
-2.131218 0.29190698 5.7952509 9067584
-2.0742505 0.29190698 5.7952509 9593925
-2.0172827 0.29190698 5.7952509 9658688
-1.9603152 0.29190698 5.7952509 8408885
-1.6654292 0.25541863 5.0708447 8278841
-1.84638 0.29190698 5.7952509 9725512
-1.7894125 0.29190698 5.7952509 9790276
-1.7324449 0.29190698 5.7952509 9659203
-1.6754773 0.29190698 5.7952509 9527362
-1.8882613 0.34055814 6.761126 11564880
-2.1861591 0.4086698 8.1133518 11826767
0 0 0 10513224
0 0 0 7820872
0 0 0 7559501
-0.16974005 0.037151799 0.73757738 5452842
-0.15958804 0.036488373 0.72440636 1180684
-0.15246709 0.036488373 0.72440636 393479
-0.14534613 0.036488373 0.72440636 787468
-0.12484857 0.032957241 0.65430254 590089
-0.12035801 0.033497524 0.66502881 524550
-0.11198492 0.032957241 0.65430254 458757
-0.086109102 0.026886171 0.53377312 590602
-0.074042395 0.024618663 0.48875612 590087
-0.066822626 0.023759872 0.47170648 720905
-0.058130138 0.022210315 0.440943 721675
-0.052651059 0.021737754 0.43156123 852489
-0.048408795 0.021737754 0.43156123 786696
-0.044641439 0.021971494 0.43620169 787466
-0.03992426 0.021737754 0.43156123 787468
-0.035681993 0.021737754 0.43156123 721675
-0.030467367 0.021065453 0.41821399 786696
-0.026087362 0.0208505 0.41394651 919051
-0.022476962 0.021284884 0.42257038 983303
-0.018712929 0.021737754 0.43156123 1639947
-0.014785243 0.022210315 0.440943 2756880
-0.010450753 0.022210315 0.440943 5056037
-0.0061162636 0.022210315 0.440943 4332830
-0.0017626154 0.021971494 0.43620169 4267548
0.002498402 0.021737754 0.43156123 4596000
0.0067406683 0.021737754 0.43156123 4661018
0.010982934 0.021737754 0.43156123 4595225
0.015225201 0.021737754 0.43156123 4397846
0.019467467 0.021737754 0.43156123 3806484
0.023964677 0.021971494 0.43620169 3806230
0.028559653 0.022210315 0.440943 3675411
0.032894142 0.022210315 0.440943 4397592
0.037637737 0.022454385 0.44578853 4004122
0.042019859 0.022454385 0.44578853 3609618
0.047983866 0.023219874 0.46098587 3806995
0.054368861 0.024039401 0.47725597 3741202
0.059060309 0.024039401 0.47725597 1180166
0.066899993 0.02522653 0.50082415 720903
0.07458555 0.026196783 0.52008665 589831
0 0 0 589832
0.09061943 0.027991083 0.555709 524294
0.096082076 0.027991083 0.555709 589831
0.10295507 0.028379848 0.56342721 590087
0.11002166 0.028779564 0.57136279 393223
0.11563818 0.028779564 0.57136279 458759
0.12298691 0.029190701 0.57952511 655626
0.12868367 0.029190701 0.57952511 524552
0.13632797 0.029613752 0.587924 524295
0.15320942 0.031927329 0.63385558 589830
0.15944025 0.031927329 0.63385558 655367
0.16830078 0.03243411 0.64391679 720904
0.19301267 0.03584823 0.71169752 524294
0.21510367 0.038553752 0.76541048 590089
0.24080139 0.041701 0.82789302 655367
0.24893962 0.041701 0.82789302 786439
0.27992919 0.045407753 0.90148348 655365
0.28879082 0.045407753 0.90148348 524294
0.27904916 0.042569768 0.84514076 590087
0.28735694 0.042569768 0.84514076 721416
0.2956647 0.042569768 0.84514076 786953
0.31043997 0.043475509 0.86312246 590344
0.53533757 0.072976746 1.4488127 720903
0 0 0 655368
0 0 0 655882
0 0 0 918280
0 0 0 1246731
0 0 0 1049609
0 0 0 721417
0 0 0 983814
0.95682299 0.10754468 2.1350925 852743
0.92892057 0.10216745 2.028338 984075
0.94885921 0.10216745 2.028338 918282
0.92266452 0.097302333 1.9317503 1246477
0.94165373 0.097302333 1.9317503 1246734
0.96064293 0.097302333 1.9317503 1181708
0.822891 0.081733957 1.6226703 1314064
0.83884192 0.081733957 1.6226703 1182223
0.9713555 0.092879497 1.8439435 1116431
1.0365998 0.097302333 1.9317503 1444110
1.0555888 0.097302333 1.9317503 1640974
1.1283071 0.10216745 2.028338 1771532
1.2086797 0.10754468 2.1350925 1509388
1.2296677 0.10754468 2.1350925 1313294
1.2506558 0.10754468 2.1350925 1115915
1.3422908 0.11351939 2.2537088 1246731
1.3644449 0.11351939 2.2537088 1312523
1.3865988 0.11351939 2.2537088 1378060
1.334608 0.10754468 2.1350925 1246731
1.430907 0.11351939 2.2537088 655624
1.4530611 0.11351939 2.2537088 590089
1.5619924 0.120197 2.3862798 721931
1.5854496 0.120197 2.3862798 722188
1.6089069 0.120197 2.3862798 721417
1.6323642 0.120197 2.3862798 918284
1.5638313 0.11351939 2.2537088 852489
1.5859854 0.11351939 2.2537088 721674
1.4473255 0.10216745 2.028338 1050382
1.3973943 0.097302333 1.9317503 1115659
1.4163835 0.097302333 1.9317503 1247244
1.4353727 0.097302333 1.9317503 2101268
1.4543619 0.097302333 1.9317503 1641231
1.4733511 0.097302333 1.9317503 1049609
1.4245067 0.092879497 1.8439435 787208
1.4426327 0.092879497 1.8439435 852489
1.4607588 0.092879497 1.8439435 918282
1.4788848 0.092879497 1.8439435 983559
1.4970108 0.092879497 1.8439435 1576212
1.3888755 0.085139535 1.6902815 1838611
1.405491 0.085139535 1.6902815 2233625
1.4221066 0.085139535 1.6902815 1839638
1.4387221 0.085139535 1.6902815 721673
1.5186132 0.088841259 1.763772 722187
1.5359511 0.088841259 1.763772 459015
1.5532892 0.088841259 1.763772 720903
1.5706271 0.088841259 1.763772 720905
1.587965 0.088841259 1.763772 590089
1.605303 0.088841259 1.763772 524550
1.622641 0.088841259 1.763772 524293
1.5716465 0.085139535 1.6902815 655366
1.588262 0.085139535 1.6902815 590087
1.6048776 0.085139535 1.6902815 720903
1.7689016 0.092879497 1.8439435 393222
1.7870276 0.092879497 1.8439435 655882
1.8051536 0.092879497 1.8439435 524296
1.8232797 0.092879497 1.8439435 590087
1.8414057 0.092879497 1.8439435 786696
1.8595318 0.092879497 1.8439435 590089
1.7211864 0.085139535 1.6902815 786696
1.7378019 0.085139535 1.6902815 852234
1.7544174 0.085139535 1.6902815 852488
1.7710329 0.085139535 1.6902815 786696
1.7876486 0.085139535 1.6902815 917769
1.8827103 0.088841259 1.763772 786953
2.1850557 0.10216745 2.028338 917768
2.2049944 0.10216745 2.028338 918025
2.4721477 0.11351939 2.2537088 721675
2.6410253 0.120197 2.3862798 786697
2.6644826 0.120197 2.3862798 786697
2.6879399 0.120197 2.3862798 852489
3.5456731 0.1571807 3.1205199 983562
3.5763481 0.1571807 3.1205199 983305
2.930706 0.12770931 2.5354223 983561
2.9556293 0.12770931 2.5354223 852743
3.179256 0.13622326 2.7044504 852489
6.010952 0.25541863 5.0708447 655882
6.9266267 0.29190698 5.7952509 852489
0 0 0 655880
0 0 0 852489
0 0 0 852489
0 0 0 918282
0 0 0 786953
0 0 0 787466
0 0 0 852489
0 0 0 721673
0 0 0 918534
0 0 0 3745569
0 0 0 984075
0 0 0 1443606
-4.4014053 0.22201109 3.687887 3679526
-6.0020862 0.30526525 5.0708447 9465182
-7.9363189 0.40702033 6.761126 10645587
-7.8698568 0.40702033 6.761126 10842962
-5.2022634 0.2713469 4.5074177 10777171
-4.6421599 0.24421221 4.0566759 10646355
-4.6022825 0.24421221 4.0566759 10842964
-5.0693393 0.2713469 4.5074177 10973782
-5.0250311 0.2713469 4.5074177 10908243
-4.4826508 0.24421221 4.0566759 10908755
-4.0388846 0.22201109 3.687887 10908756
-4.0026326 0.22201109 3.687887 11105620
-3.9663804 0.22201109 3.687887 11105876
-3.6026175 0.20351017 3.380563 11106389
-3.5693865 0.20351017 3.380563 11106133
-3.5361555 0.20351017 3.380563 11171413
-3.5029244 0.20351017 3.380563 11302739
-4.1636324 0.24421221 4.0566759 10513220
-4.123755 0.24421221 4.0566759 7816484
-4.0838776 0.24421221 4.0566759 5911838
-4.0440001 0.24421221 4.0566759 1902082
-4.0041227 0.24421221 4.0566759 1312524
-3.9642456 0.24421221 4.0566759 1444109
-4.3604093 0.2713469 4.5074177 2824472
-4.3161011 0.2713469 4.5074177 3414805
-4.2717929 0.2713469 4.5074177 3545877
-4.2274847 0.2713469 4.5074177 3677462
-4.183177 0.2713469 4.5074177 4069654
-4.1388688 0.2713469 4.5074177 4070167
-4.0945606 0.2713469 4.5074177 3808535
-4.0502524 0.2713469 4.5074177 3873558
-4.0059443 0.2713469 4.5074177 3874330
-3.9616363 0.2713469 4.5074177 3677210
-3.9173281 0.2713469 4.5074177 3480600
-3.8730199 0.2713469 4.5074177 3743514
-3.8287117 0.2713469 4.5074177 3874330
-3.7844038 0.2713469 4.5074177 3150866
-3.366086 0.24421221 4.0566759 1642256
-3.6957874 0.2713469 4.5074177 2101007
-3.6514795 0.2713469 4.5074177 2429716
-3.6071713 0.2713469 4.5074177 2692631
-3.5628631 0.2713469 4.5074177 1443338
-3.5185549 0.2713469 4.5074177 1181193
-3.474247 0.2713469 4.5074177 1115143
-3.4299388 0.2713469 4.5074177 852231
-3.3856306 0.2713469 4.5074177 786695
-3.3413227 0.2713469 4.5074177 786953
-3.2970145 0.2713469 4.5074177 918280
-3.6592944 0.30526525 5.0708447 984073
-3.6094477 0.30526525 5.0708447 1049095
-3.5596011 0.30526525 5.0708447 1114888
-3.5097547 0.30526525 5.0708447 1181194
-3.9541805 0.34887457 5.7952509 984329
-4.5467482 0.40702033 6.761126 984329
-4.4802861 0.40702033 6.761126 786438
-3.3103681 0.30526525 5.0708447 853259
-3.2605214 0.30526525 5.0708447 3218205
-3.2106748 0.30526525 5.0708447 3676697
-3.1608281 0.30526525 5.0708447 3807767
-3.1109815 0.30526525 5.0708447 3741974
-3.0611348 0.30526525 5.0708447 3675921
-3.0112882 0.30526525 5.0708447 3216650
-2.9614415 0.30526525 5.0708447 2953484
-2.9115949 0.30526525 5.0708447 2492936
-2.8617485 0.30526525 5.0708447 1312009
-2.8119018 0.30526525 5.0708447 917512
-2.7620552 0.30526525 5.0708447 1049351
-2.7122085 0.30526525 5.0708447 918024
-2.6623619 0.30526525 5.0708447 918282
-2.9857316 0.34887457 5.7952509 853002
-2.9287641 0.34887457 5.7952509 852489
-2.8717964 0.34887457 5.7952509 853257
-2.4629753 0.30526525 5.0708447 1378317
-3.2175047 0.40702033 6.761126 8739664
-3.1510427 0.40702033 6.761126 9922374
-3.7014968 0.48842442 8.1133518 10578249
-3.6217422 0.48842442 8.1133518 11038795
-2.9516561 0.40702033 6.761126 10973259
-2.8851941 0.40702033 6.761126 10906438
-2.8187318 0.40702033 6.761126 10775885
-2.7522695 0.40702033 6.761126 10907212
-2.6858075 0.40702033 6.761126 10907465
-2.6193452 0.40702033 6.761126 10907723
-2.1881855 0.34887457 5.7952509 9988165
-2.131218 0.34887457 5.7952509 8805185
-2.0742505 0.34887457 5.7952509 9461570
-2.0172827 0.34887457 5.7952509 9002562
-1.9603152 0.34887457 5.7952509 8212531
-1.9033476 0.34887457 5.7952509 8607292
-1.84638 0.34887457 5.7952509 8871233
-1.7894125 0.34887457 5.7952509 9395520
-1.7324449 0.34887457 5.7952509 8999995
-1.9547236 0.40702033 6.761126 11367759
-1.8882613 0.40702033 6.761126 11498828
-2.1861591 0.48842442 8.1133518 11433292
0 0 0 10184257
0 0 0 7426371
0 0 0 7755595
-0.16670898 0.043609321 0.72440636 5124645
-0.15958804 0.043609321 0.72440636 1180684
-0.15246709 0.043609321 0.72440636 393221
-0.14534613 0.043609321 0.72440636 721673
-0.1358002 0.042844247 0.71169752 459016
-0.12035801 0.040034786 0.66502881 655364
-0.11020738 0.038763843 0.64391679 327685
-0.093489885 0.034887459 0.57952511 655880
-0.075870603 0.030149654 0.50082415 655882
-0.070947476 0.030149654 0.50082415 655882
-0.065219179 0.029781977 0.49471655 721675
-0.054386809 0.026836505 0.44578853 852489
-0.048929319 0.026259376 0.43620169 852489
-0.044641439 0.026259376 0.43620169 524809
-0.040353555 0.026259376 0.43620169 852489
-0.035681993 0.02598002 0.43156123 786696
-0.030156476 0.024919612 0.41394651 721673
-0.026087362 0.024919612 0.41394651 918025
-0.022476962 0.025438771 0.42257038 655880
-0.018712929 0.02598002 0.43156123 590345
-0.014785243 0.026544804 0.440943 2034702
-0.010450753 0.026544804 0.440943 4728355
-0.0061162636 0.026544804 0.440943 4070170
-0.0017626154 0.026259376 0.43620169 4004892
0.0025252667 0.026259376 0.43620169 4070169
0.006813149 0.026259376 0.43620169 3872275
0.010982934 0.02598002 0.43156123 3806482
0.015225201 0.02598002 0.43156123 3478802
0.019676795 0.026259376 0.43620169 3872275
0.024225162 0.026544804 0.440943 3806484
0.028559653 0.026544804 0.440943 3609364
0.033255614 0.026836505 0.44578853 4200726
0.037637737 0.026836505 0.44578853 3872023
0.043452352 0.027751386 0.46098587 3675411
0.047983866 0.027751386 0.46098587 4069394
0.054368861 0.028730847 0.47725597 3609617
0.059060309 0.028730847 0.47725597 1049094
0.066899993 0.030149654 0.50082415 655880
0.07458555 0.031309258 0.52008665 655625
0 0 0 655367
0.09061943 0.033453725 0.555709 458759
0.097416557 0.033918362 0.56342721 589830
0.10295507 0.033918362 0.56342721 524293
0.10849358 0.033918362 0.56342721 524296
0.11729015 0.034887459 0.57952511 262149
0.12660417 0.035913561 0.59656996 524551
0.14074776 0.038158156 0.63385558 590089
0.14697859 0.038158156 0.63385558 590088
0.15320942 0.038158156 0.63385558 655367
0.15944025 0.038158156 0.63385558 655366
0.16830078 0.038763843 0.64391679 524294
0.17463051 0.038763843 0.64391679 458759
0.21510367 0.046077773 0.76541048 524550
0.24080139 0.049839225 0.82789302 458757
0 0 0 655367
0 0 0 590087
0.26521608 0.049839225 0.82789302 590088
0.27904916 0.050877541 0.84514076 721161
0.28735694 0.050877541 0.84514076 655623
0.2956647 0.050877541 0.84514076 655368
0.31043997 0.05196004 0.86312246 590087
0.34066936 0.055502772 0.92197174 590087
0 0 0 589831
0 0 0 655880
0 0 0 852233
0 0 0 1180940
0 0 0 983559
0 0 0 1050892
0 0 0 1313293
0 0 0 1313037
0.97781104 0.12853274 2.1350925 1312267
0.99879909 0.12853274 2.1350925 1115145
0.92266452 0.11629152 1.9317503 1049352
0.94165373 0.11629152 1.9317503 983562
0.96064293 0.11629152 1.9317503 852743
0.89444673 0.10617922 1.763772 655880
0.91178471 0.10617922 1.763772 721674
0.92912263 0.10617922 1.763772 852743
1.0365998 0.11629152 1.9317503 918282
1.0555888 0.11629152 1.9317503 983818
1.1283071 0.12210611 2.028338 1049095
1.1482457 0.12210611 2.028338 918025
1.2296677 0.12853274 2.1350925 852489
1.2506558 0.12853274 2.1350925 1115915
1.3422908 0.13567345 2.2537088 852485
1.3644449 0.13567345 2.2537088 1049352
1.31362 0.12853274 2.1350925 918023
1.334608 0.12853274 2.1350925 787465
1.3555961 0.12853274 2.1350925 983816
1.5385351 0.14365424 2.3862798 721674
1.5619924 0.14365424 2.3862798 721930
1.5854496 0.14365424 2.3862798 787466
1.6089069 0.14365424 2.3862798 853003
1.6323642 0.14365424 2.3862798 853259
1.5638313 0.13567345 2.2537088 787209
1.359416 0.11629152 1.9317503 787467
1.3157504 0.11100554 1.8439435 786696
1.3338765 0.11100554 1.8439435 786951
1.4163835 0.11629152 1.9317503 1772820
1.4353727 0.11629152 1.9317503 2299419
1.4543619 0.11629152 1.9317503 1904404
1.4733511 0.11629152 1.9317503 1838611
1.4923403 0.11629152 1.9317503 1707282
1.4426327 0.11100554 1.8439435 1576209
1.4607588 0.11100554 1.8439435 1838097
1.4145855 0.10617922 1.763772 1903633
1.4319234 0.10617922 1.763772 1707024
1.3888755 0.10175508 1.6902815 2364952
1.405491 0.10175508 1.6902815 1970197
1.4221066 0.10175508 1.6902815 1312270
1.5012753 0.10617922 1.763772 787466
1.5876411 0.11100554 1.8439435 458759
1.6822323 0.11629152 1.9317503 786696
1.7862827 0.12210611 2.028338 459016
1.7202107 0.11629152 1.9317503 524807
1.587965 0.10617922 1.763772 524294
1.4768788 0.097684883 1.6226703 590089
1.4928297 0.097684883 1.6226703 655880
1.5087806 0.097684883 1.6226703 786953
1.588262 0.10175508 1.6902815 655626
1.6746548 0.10617922 1.763772 655370
1.6919928 0.10617922 1.763772 590090
1.3556761 0.084211104 1.3988537 590089
1.5885353 0.097684883 1.6226703 655625
1.8232797 0.11100554 1.8439435 721159
1.8414057 0.11100554 1.8439435 786696
1.8595318 0.11100554 1.8439435 852489
1.8776579 0.11100554 1.8439435 852491
1.6682899 0.097684883 1.6226703 720905
1.7544174 0.10175508 1.6902815 786696
1.7001917 0.097684883 1.6226703 590089
1.7876486 0.10175508 1.6902815 590089
1.8042641 0.10175508 1.6902815 590087
2.1850557 0.12210611 2.028338 852489
2.594111 0.14365424 2.3862798 852489
2.617568 0.14365424 2.3862798 917768
2.8060894 0.15263262 2.5354223 721675
3.0197468 0.16280814 2.7044504 852489
4.5694981 0.24421221 4.0566759 786696
5.1215281 0.2713469 4.5074177 852744
5.8115654 0.30526525 5.0708447 852488
4.6891298 0.24421221 4.0566759 852489
2.9556293 0.15263262 2.5354223 984074
3.179256 0.16280814 2.7044504 786950
6.010952 0.30526525 5.0708447 852490
8.0810642 0.40702033 6.761126 721673
9.7770329 0.48842442 8.1133518 787467
0 0 0 655881
8.2804508 0.40702033 6.761126 721418
8.3469133 0.40702033 6.761126 852747
10.096051 0.48842442 8.1133518 852490
0 0 0 852743
0 0 0 852745
0 0 0 1049608
0 0 0 918277
0 0 0 3417377
0 0 0 853003
0 0 0 1247767
-5.3794961 0.31565502 4.5074177 3482917
-5.3351879 0.31565502 4.5074177 9464923
-7.9363189 0.47348249 6.761126 10579537
-9.4438286 0.56817901 8.1133518 10645585
-9.3640747 0.56817901 8.1133518 10842962
-4.6421599 0.28408951 4.0566759 10908239
-4.6022825 0.28408951 4.0566759 10973778
-4.5624051 0.28408951 4.0566759 10907985
-5.0250311 0.31565502 4.5074177 10842962
-4.4826508 0.28408951 4.0566759 11039571
-4.0388846 0.25826317 3.687887 11039573
-4.0026326 0.25826317 3.687887 11040085
-3.9663804 0.25826317 3.687887 11040083
-3.9301283 0.25826317 3.687887 11105618
-3.5693865 0.23674124 3.380563 11368534
-3.5361555 0.23674124 3.380563 11105620
-3.821372 0.25826317 3.687887 11105873
-4.1636324 0.28408951 4.0566759 10446656
-4.123755 0.28408951 4.0566759 7947813
-4.0838776 0.28408951 4.0566759 5846046
-4.0440001 0.28408951 4.0566759 1967618
-4.0041227 0.28408951 4.0566759 1115658
-3.9642456 0.28408951 4.0566759 1509645
-4.3604093 0.31565502 4.5074177 2955545
-4.3161011 0.31565502 4.5074177 3480343
-4.2717929 0.31565502 4.5074177 3611928
-4.2274847 0.31565502 4.5074177 3742742
-4.183177 0.31565502 4.5074177 4135960
-4.1388688 0.31565502 4.5074177 3611671
-4.0945606 0.31565502 4.5074177 3676949
-4.0502524 0.31565502 4.5074177 3545878
-4.0059443 0.31565502 4.5074177 3939353
-3.9616363 0.31565502 4.5074177 3939351
-3.9173281 0.31565502 4.5074177 3676949
-3.8730199 0.31565502 4.5074177 3480085
-3.8287117 0.31565502 4.5074177 3741974
-3.4059634 0.28408951 4.0566759 3216398
-3.366086 0.28408951 4.0566759 1378056
-3.3262088 0.28408951 4.0566759 1706509
-3.2863314 0.28408951 4.0566759 2298130
-3.6071713 0.31565502 4.5074177 2362379
-3.5628631 0.31565502 4.5074177 2427915
-3.5185549 0.31565502 4.5074177 2230536
-3.474247 0.31565502 4.5074177 1836037
-3.4299388 0.31565502 4.5074177 1179911
-3.3856306 0.31565502 4.5074177 786696
-3.3413227 0.31565502 4.5074177 721160
-3.2970145 0.31565502 4.5074177 459012
-3.2527063 0.31565502 4.5074177 655878
-3.6094477 0.3551119 5.0708447 655367
-3.5596011 0.3551119 5.0708447 721417
-3.5097547 0.3551119 5.0708447 524551
-3.9541805 0.40584216 5.7952509 524552
-4.5467482 0.47348249 6.761126 655882
-3.8402452 0.40584216 5.7952509 721157
-3.3103681 0.3551119 5.0708447 721671
-3.2605214 0.3551119 5.0708447 851973
-3.2106748 0.3551119 5.0708447 786950
-3.1608281 0.3551119 5.0708447 786694
-3.1109815 0.3551119 5.0708447 852489
-3.0611348 0.3551119 5.0708447 918023
-3.0112882 0.3551119 5.0708447 720903
-2.9614415 0.3551119 5.0708447 786696
-2.9115949 0.3551119 5.0708447 786696
-2.8617485 0.3551119 5.0708447 721157
-2.8119018 0.3551119 5.0708447 852489
-2.7620552 0.3551119 5.0708447 721673
-2.7122085 0.3551119 5.0708447 655878
-2.6623619 0.3551119 5.0708447 590087
-2.9857316 0.40584216 5.7952509 656395
-2.9287641 0.40584216 5.7952509 851976
-2.8717964 0.40584216 5.7952509 655882
-2.8148289 0.40584216 5.7952509 1115915
-3.2175047 0.47348249 6.761126 5452335
-3.1510427 0.47348249 6.761126 9526074
-3.0845804 0.47348249 6.761126 9919804
-3.0181184 0.47348249 6.761126 10579017
-2.9516561 0.47348249 6.761126 10776138
-2.8851941 0.47348249 6.761126 10578758
-2.8187318 0.47348249 6.761126 10512966
-2.7522695 0.47348249 6.761126 10644041
-2.6858075 0.47348249 6.761126 10710088
-2.2451532 0.40584216 5.7952509 10578758
-2.1881855 0.40584216 5.7952509 10906695
