# .PCD v0.7 - Point Cloud Data file format
VERSION 0.7
FIELDS x y z rgb
SIZE 4 4 4 4
TYPE F F F U
COUNT 1 1 1 1
WIDTH 1247
HEIGHT 1
VIEWPOINT 0 0 0 1 0 0 0
POINTS 1247
DATA ascii
-4.0681157 -0.16383362 5.7952509 10184263
-4.011148 -0.16383362 5.7952509 10382153
-3.9541805 -0.16383362 5.7952509 10382923
-3.8972127 -0.16383362 5.7952509 10645578
-3.3602147 -0.14335443 5.0708447 10841417
-3.7832778 -0.16383362 5.7952509 10907466
-3.72631 -0.16383362 5.7952509 11105102
-3.2106748 -0.14335443 5.0708447 11432528
-3.1608281 -0.14335443 5.0708447 11301968
-3.1109815 -0.14335443 5.0708447 11695696
-3.0611348 -0.14335443 5.0708447 11433296
-3.0112882 -0.14335443 5.0708447 11433293
-2.9614415 -0.14335443 5.0708447 11892816
-2.9115949 -0.14335443 5.0708447 12024660
-2.8617485 -0.14335443 5.0708447 11893843
-2.4994683 -0.12742616 4.5074177 11958865
-2.7620552 -0.14335443 5.0708447 11959892
-2.4108522 -0.12742616 4.5074177 12484180
-2.366544 -0.12742616 4.5074177 12222037
-2.3222358 -0.12742616 4.5074177 12352597
-2.2779276 -0.12742616 4.5074177 12418385
-2.2336197 -0.12742616 4.5074177 12223059
-2.1893115 -0.12742616 4.5074177 12616022
-2.1450033 -0.12742616 4.5074177 12944215
-2.363282 -0.14335443 5.0708447 12616277
-2.3134353 -0.14335443 5.0708447 13075798
-2.5869586 -0.16383362 5.7952509 12813142
-2.9516561 -0.19113922 6.761126 13009752
-2.4730234 -0.16383362 5.7952509 13207129
-2.4160559 -0.16383362 5.7952509 12878935
-2.3590882 -0.16383362 5.7952509 9920060
-2.0143557 -0.14335443 5.0708447 12157023
-1.964509 -0.14335443 5.0708447 13404505
-1.9146624 -0.14335443 5.0708447 13338715
-1.8648157 -0.14335443 5.0708447 13535579
-1.8149691 -0.14335443 5.0708447 13273434
-1.7651225 -0.14335443 5.0708447 13667677
-1.7152759 -0.14335443 5.0708447 13535321
-1.6654292 -0.14335443 5.0708447 13667934
-1.4360734 -0.12742616 4.5074177 13470044
-1.3917654 -0.12742616 4.5074177 13863773
-1.5158893 -0.14335443 5.0708447 13075797
-1.6754773 -0.16383362 5.7952509 12878678
-1.8882613 -0.19113922 6.761126 13404249
-3.6435983 -0.38227844 13.522252 13206098
-3.510674 -0.38227844 13.522252 10774596
0 0 0 7559500
0 0 0 7493194
0 0 0 7494223
0 0 0 7690573
-0.11088516 -0.014893966 0.52684098 5388842
-0.10570628 -0.014893966 0.52684098 1181196
-0.10052741 -0.014893966 0.52684098 721417
-0.096603133 -0.015089939 0.53377312 984076
-0.0878869 -0.014516904 0.51350325 984587
-0.08180365 -0.014335443 0.50708449 918537
-0.075870603 -0.014158461 0.50082415 852743
-0.071834326 -0.014335443 0.50708449 589831
-0.066024356 -0.014158461 0.50082415 918282
-0.061101232 -0.014158461 0.50082415 917769
-0.055493008 -0.013985798 0.49471655 918281
-0.046647795 -0.01288579 0.45580626 1049354
-0.040353555 -0.012331563 0.43620169 983562
-0.036065672 -0.012331563 0.43620169 3414299
-0.031777792 -0.012331563 0.43620169 6041642
-0.027489908 -0.012331563 0.43620169 6961455
-0.022955196 -0.012200376 0.43156123 7486252
-0.018712929 -0.012200376 0.43156123 6762792
-0.014470663 -0.012200376 0.43156123 5514526
-0.010228396 -0.012200376 0.43156123 3412500
-0.0060504978 -0.012331563 0.43620169 2296593
-0.0017626154 -0.012331563 0.43620169 2362128
0.002446352 -0.011946201 0.42257038 4465700
0.0066002379 -0.011946201 0.42257038 4267547
0.010754123 -0.011946201 0.42257038 4266521
0.015064936 -0.012071951 0.42701849 4660247
0.019262547 -0.012071951 0.42701849 4988954
0.023709733 -0.012200376 0.43156123 4398361
0.027952 -0.012200376 0.43156123 4332312
0.032194268 -0.012200376 0.43156123 4200983
0.037228633 -0.012465602 0.440943 4332570
0.04156312 -0.012465602 0.440943 4594969
0.046401981 -0.012602586 0.44578853 5646108
0.051925316 -0.01288579 0.45580626 5383197
0.057702601 -0.013182016 0.46628457 5448732
0.064510703 -0.013652802 0.48293757 4725525
0 0 0 3544338
0.080733053 -0.014893966 0.52684098 3609617
0.09061943 -0.015710074 0.555709 3215634
0.096082076 -0.015710074 0.555709 2493711
0.10440513 -0.016152611 0.57136279 786694
0.11002166 -0.016152611 0.57136279 590343
0.11729015 -0.016383363 0.57952511 655366
0.12298691 -0.016383363 0.57952511 786697
0.13054864 -0.016620802 0.587924 655623
0.13632797 -0.016620802 0.587924 918281
0.14419711 -0.016865226 0.59656996 787208
0.15698732 -0.017643621 0.62410396 787464
0 0 0 918024
0 0 0 852744
0 0 0 983560
0 0 0 1246475
0 0 0 1640458
0 0 0 3282188
0 0 0 9593414
0 0 0 12090967
0 0 0 12747612
0 0 0 12879967
0.60794497 -0.047784805 1.6902815 13208162
0.65171534 -0.049862407 1.763772 13142366
0.66905326 -0.049862407 1.763772 13207648
0.71759081 -0.052128881 1.8439435 13338976
0.770751 -0.054611206 1.9317503 13208414
0.7897402 -0.054611206 1.9317503 13209185
0.80872941 -0.054611206 1.9317503 13207902
0.82771862 -0.054611206 1.9317503 13339487
0.84670776 -0.054611206 1.9317503 13208160
0.82634711 -0.052128881 1.8439435 13272923
0.84447318 -0.052128881 1.8439435 12814430
0.86259919 -0.052128881 1.8439435 13339235
0.84243286 -0.049862407 1.763772 12749406
0.85977083 -0.049862407 1.763772 12813917
0.91697735 -0.052128881 1.8439435 12944988
0.97963214 -0.054611206 1.9317503 12877907
1.3106905 -0.071677215 2.5354223 12682073
1.5264157 -0.081916809 2.8976254 12682590
1.5548996 -0.081916809 2.8976254 12549971
1.5833833 -0.081916809 2.8976254 2428938
1.5044093 -0.07645569 2.7044504 1378063
1.5309942 -0.07645569 2.7044504 1443851
1.3743345 -0.067460902 2.3862798 1443852
1.3977917 -0.067460902 2.3862798 1378316
1.2716439 -0.060359757 2.1350925 1312780
1.2926319 -0.060359757 2.1350925 1247500
1.247939 -0.057341773 2.028338 1378316
1.334608 -0.060359757 2.1350925 655366
1.2878163 -0.057341773 2.028338 721416
1.2454808 -0.054611206 1.9317503 852489
1.26447 -0.054611206 1.9317503 787723
1.2834592 -0.054611206 1.9317503 787468
1.3024484 -0.054611206 1.9317503 853004
1.3875096 -0.057341773 2.028338 983307
1.3404268 -0.054611206 1.9317503 721675
1.359416 -0.054611206 1.9317503 721160
1.3784052 -0.054611206 1.9317503 786698
1.3973943 -0.054611206 1.9317503 786953
1.3520025 -0.052128881 1.8439435 589835
1.3701285 -0.052128881 1.8439435 590602
1.3278956 -0.049862407 1.763772 655879
1.3452337 -0.049862407 1.763772 786696
1.3625716 -0.049862407 1.763772 524809
1.3224133 -0.047784805 1.6902815 721417
1.3390288 -0.047784805 1.6902815 655368
1.3556443 -0.047784805 1.6902815 655881
1.37226 -0.047784805 1.6902815 590602
1.3888755 -0.047784805 1.6902815 590088
1.405491 -0.047784805 1.6902815 459016
1.4839373 -0.049862407 1.763772 524552
1.4387221 -0.047784805 1.6902815 655881
1.3971242 -0.045873415 1.6226703 655882
1.4130751 -0.045873415 1.6226703 656138
1.3740635 -0.044109054 1.5602599 655880
1.389401 -0.044109054 1.5602599 524809
1.4047384 -0.044109054 1.5602599 655880
1.4200758 -0.044109054 1.5602599 852489
1.4354132 -0.044109054 1.5602599 721930
1.4507507 -0.044109054 1.5602599 721161
1.4660881 -0.044109054 1.5602599 852490
1.4265579 -0.042475387 1.5024725 786696
1.4413272 -0.042475387 1.5024725 787208
1.5121003 -0.044109054 1.5602599 918537
1.5885353 -0.045873415 1.6226703 3349777
1.6044862 -0.045873415 1.6226703 8936507
1.6204371 -0.045873415 1.6226703 9133893
1.6363881 -0.045873415 1.6226703 9133893
1.5887874 -0.044109054 1.5602599 9265224
1.5447129 -0.042475387 1.5024725 9265225
1.4035339 -0.038227845 1.3522252 9724233
1.4168264 -0.038227845 1.3522252 9658952
1.4794333 -0.039546046 1.3988537 9396549
1.546512 -0.040958405 1.4488127 9593415
1.5607539 -0.040958405 1.4488127 9199172
1.5206857 -0.039546046 1.3988537 9593417
1.5344365 -0.039546046 1.3988537 9659721
1.5481873 -0.039546046 1.3988537 9397063
1.5098734 -0.038227845 1.3522252 9331018
1.5231658 -0.038227845 1.3522252 9265479
1.5364583 -0.038227845 1.3522252 9462858
1.5497507 -0.038227845 1.3522252 9396553
1.6169412 -0.039546046 1.3988537 9593676
1.751484 -0.042475387 1.5024725 9659469
1.8341863 -0.044109054 1.5602599 9527883
1.9235046 -0.045873415 1.6226703 9397326
1.9394555 -0.045873415 1.6226703 9462604
0 0 0 9527883
0 0 0 9791055
0 0 0 9528140
0 0 0 9594190
0 0 0 9594189
0 0 0 9922895
0 0 0 9529164
0 0 0 9463371
0 0 0 9463116
0 0 0 9528653
0 0 0 9067586
0 0 0 8936773
-4.4014053 -0.068005666 3.687887 9857358
-4.3651533 -0.068005666 3.687887 10909014
-3.9681594 -0.062338527 3.380563 11302484
-3.9349284 -0.062338527 3.380563 11433046
-3.9016974 -0.062338527 3.380563 11367250
-4.2201452 -0.068005666 3.687887 11564886
-4.1838932 -0.068005666 3.687887 11040595
-4.1476407 -0.068005666 3.687887 11302740
-4.5225282 -0.074806236 4.0566759 11236946
-4.4826508 -0.074806236 4.0566759 11500374
-4.4427733 -0.074806236 4.0566759 11434581
-3.6690798 -0.062338527 3.380563 11303252
-3.3561683 -0.057543259 3.1205199 11369560
-3.3254933 -0.057543259 3.1205199 11500890
-3.2948184 -0.057543259 3.1205199 11237719
-3.2641437 -0.057543259 3.1205199 11368790
-3.2334688 -0.057543259 3.1205199 11500374
-3.2027938 -0.057543259 3.1205199 10512444
-4.123755 -0.074806236 4.0566759 8212012
-4.0838776 -0.074806236 4.0566759 6108444
-4.0440001 -0.074806236 4.0566759 1837312
-4.0041227 -0.074806236 4.0566759 1772817
-3.9642456 -0.074806236 4.0566759 2035475
-3.5676074 -0.068005666 3.687887 3743002
-3.884491 -0.074806236 4.0566759 3743769
-3.8446138 -0.074806236 4.0566759 3874583
-3.8047364 -0.074806236 4.0566759 3874327
-3.7648592 -0.074806236 4.0566759 4004886
-4.1388688 -0.083118044 4.5074177 4071446
-4.0945606 -0.083118044 4.5074177 3808278
-4.0502524 -0.083118044 4.5074177 4005145
-4.0059443 -0.083118044 4.5074177 4005656
-4.4568405 -0.093507797 5.0708447 3940118
-4.4069939 -0.093507797 5.0708447 4005656
-4.3571472 -0.093507797 5.0708447 4005654
-4.3073006 -0.093507797 5.0708447 4136983
-4.2574539 -0.093507797 5.0708447 3348244
-4.2076073 -0.093507797 5.0708447 4272428
-3.6957874 -0.083118044 4.5074177 5846826
-4.107914 -0.093507797 5.0708447 6767407
-4.0580673 -0.093507797 5.0708447 8016435
-4.0082207 -0.093507797 5.0708447 7752751
-3.9583743 -0.093507797 5.0708447 4398086
-3.9085276 -0.093507797 5.0708447 1246472
-3.858681 -0.093507797 5.0708447 984073
-3.8088343 -0.093507797 5.0708447 1115144
-3.7589877 -0.093507797 5.0708447 1378061
-3.709141 -0.093507797 5.0708447 3677726
-3.6592944 -0.093507797 5.0708447 9264966
-4.125083 -0.10686605 5.7952509 9920834
-4.0681157 -0.10686605 5.7952509 9527104
-4.011148 -0.10686605 5.7952509 9527874
-3.459908 -0.093507797 5.0708447 10315335
-3.8972127 -0.10686605 5.7952509 9987653
-3.8402452 -0.10686605 5.7952509 10053442
-3.7832778 -0.10686605 5.7952509 10447686
-3.72631 -0.10686605 5.7952509 10775626
-3.2106748 -0.093507797 5.0708447 10775886
-3.1608281 -0.093507797 5.0708447 10907728
-3.1109815 -0.093507797 5.0708447 10974032
-3.0611348 -0.093507797 5.0708447 11301710
-3.0112882 -0.093507797 5.0708447 11695693
-2.9614415 -0.093507797 5.0708447 11433293
-2.9115949 -0.093507797 5.0708447 11957582
-2.8617485 -0.093507797 5.0708447 11696208
-2.8119018 -0.093507797 5.0708447 11695695
-2.7620552 -0.093507797 5.0708447 12023375
-2.4108522 -0.083118044 4.5074177 11828049
-2.366544 -0.083118044 4.5074177 12221265
-2.3222358 -0.083118044 4.5074177 11828819
-2.2779276 -0.083118044 4.5074177 12156244
-2.2336197 -0.083118044 4.5074177 12287828
-2.1893115 -0.083118044 4.5074177 12419158
-2.1450033 -0.083118044 4.5074177 12877907
-2.1006951 -0.083118044 4.5074177 12878936
-2.3134353 -0.093507797 5.0708447 12682584
-3.0181184 -0.12467705 6.761126 12944987
-2.9516561 -0.12467705 6.761126 12747348
-2.8851941 -0.12467705 6.761126 12681557
-2.8187318 -0.12467705 6.761126 11761745
-2.3590882 -0.10686605 5.7952509 8804417
-2.0143557 -0.093507797 5.0708447 11631449
-1.964509 -0.093507797 5.0708447 13141333
-1.9146624 -0.093507797 5.0708447 13207124
-1.8648157 -0.093507797 5.0708447 13009750
-1.8149691 -0.093507797 5.0708447 11893068
-1.7651225 -0.093507797 5.0708447 12022860
-1.7152759 -0.093507797 5.0708447 11892559
-1.6654292 -0.093507797 5.0708447 12025430
-1.6155826 -0.093507797 5.0708447 11760716
-1.7894125 -0.10686605 5.7952509 13404762
-1.7324449 -0.10686605 5.7952509 11367239
-1.6754773 -0.10686605 5.7952509 11761745
-1.8882613 -0.12467705 6.761126 12878679
-2.7326989 -0.18701559 10.141689 12944213
0 0 0 10314557
0 0 0 7492936
0 0 0 7493708
0 0 0 7362637
-0.1224237 -0.01024743 0.555709 7625293
-0.11234418 -0.0098429257 0.53377312 2231306
-0.10852512 -0.0099741649 0.5408901 984330
-0.10320815 -0.0099741649 0.5408901 786696
-0.097891174 -0.0099741649 0.5408901 984845
-0.091356121 -0.0098429257 0.53377312 787208
-0.08180365 -0.0093507795 0.50708449 852489
-0.075870603 -0.0092353374 0.50082415 524293
-0.070947476 -0.0092353374 0.50082415 786696
-0.065219179 -0.0091227116 0.49471655 786696
-0.060356095 -0.0091227116 0.49471655 590344
-0.054171745 -0.0089055039 0.48293757 852743
-0.047177881 -0.0085007083 0.46098587 787464
-0.041698672 -0.0083118035 0.45074174 983818
-0.035681993 -0.0079581095 0.43156123 918025
-0.031439729 -0.0079581095 0.43156123 3019801
-0.027197462 -0.0079581095 0.43156123 5976105
-0.022955196 -0.0079581095 0.43156123 5777698
-0.018712929 -0.0079581095 0.43156123 5712161
-0.014470663 -0.0079581095 0.43156123 4857369
-0.010228396 -0.0079581095 0.43156123 4792088
-0.0059861303 -0.0079581095 0.43156123 2953490
-0.0017438642 -0.0079581095 0.43156123 2690834
0.0024721033 -0.0078743408 0.42701849 3019024
0.0066002379 -0.0077923159 0.42257038 4267548
0.010754123 -0.0077923159 0.42257038 4070172
0.015064936 -0.0078743408 0.42701849 4397850
0.019262547 -0.0078743408 0.42701849 4595223
0.023709733 -0.0079581095 0.43156123 4857628
0.027952 -0.0079581095 0.43156123 4529177
0.032194268 -0.0079581095 0.43156123 4332570
0.036436532 -0.0079581095 0.43156123 4529435
0.041116208 -0.0080436813 0.43620169 4791834
0.046401981 -0.0082204649 0.44578853 5711647
0.051925316 -0.0084051946 0.45580626 4988698
0.05704689 -0.0085007083 0.46098587 4856854
0.063010462 -0.0086983992 0.47170648 4135189
0.071823113 -0.0092353374 0.50082415 3347217
0.080733053 -0.0097150952 0.52684098 3609876
0.09061943 -0.01024743 0.555709 3281169
0.096082076 -0.01024743 0.555709 1573894
0.10154472 -0.01024743 0.555709 589832
0.10849358 -0.010389755 0.56342721 589831
0.11563818 -0.01053609 0.57136279 720903
0.12298691 -0.010686605 0.57952511 655367
0.13054864 -0.010841483 0.587924 524550
0.13632797 -0.010841483 0.587924 720902
0.14419711 -0.011000916 0.59656996 655365
0.15006141 -0.011000916 0.59656996 786695
0.1631223 -0.011508652 0.62410396 852489
0 0 0 852489
0 0 0 984329
0 0 0 1115915
0 0 0 1312781
0 0 0 1378317
0 0 0 1378317
0 0 0 2624777
0 0 0 9001791
0 0 0 12420443
0 0 0 12945246
0 0 0 13076319
0.73277265 -0.035622016 1.9317503 13272669
0.75176179 -0.035622016 1.9317503 13207903
0.770751 -0.035622016 1.9317503 13141856
0.7897402 -0.035622016 1.9317503 13208159
0.80872941 -0.035622016 1.9317503 13142621
0.82771862 -0.035622016 1.9317503 13274209
0.84670776 -0.035622016 1.9317503 13404508
0.82634711 -0.034002833 1.8439435 13338460
0.84447318 -0.034002833 1.8439435 12879453
0.82509488 -0.032524448 1.763772 12813661
0.88072526 -0.034002833 1.8439435 12682073
0.89885128 -0.034002833 1.8439435 13010526
0.96064293 -0.035622016 1.9317503 12944990
0.93510342 -0.034002833 1.8439435 12748124
1.3106905 -0.046753898 2.5354223 12222297
0 0 0 12747098
0 0 0 12418644
1.3854605 -0.046753898 2.5354223 2428425
1.4103838 -0.046753898 2.5354223 1443851
1.4353071 -0.046753898 2.5354223 1444109
1.3743345 -0.044003665 2.3862798 1312523
1.3201367 -0.041559022 2.2537088 1312524
1.2716439 -0.039371703 2.1350925 1246987
1.2926319 -0.039371703 2.1350925 1312523
1.31362 -0.039371703 2.1350925 1312780
1.334608 -0.039371703 2.1350925 655366
1.2878163 -0.037403118 2.028338 720904
1.307755 -0.037403118 2.028338 918536
1.26447 -0.035622016 1.9317503 786953
1.3476323 -0.037403118 2.028338 786698
1.3675709 -0.037403118 2.028338 918540
1.3875096 -0.037403118 2.028338 721675
1.4074482 -0.037403118 2.028338 590602
1.4273869 -0.037403118 2.028338 590346
1.3784052 -0.035622016 1.9317503 655882
1.3973943 -0.035622016 1.9317503 721161
1.3520025 -0.034002833 1.8439435 852491
1.3701285 -0.034002833 1.8439435 655882
1.3882545 -0.034002833 1.8439435 655625
1.4063807 -0.034002833 1.8439435 655882
1.3625716 -0.032524448 1.763772 655882
1.3224133 -0.031169264 1.6902815 655624
1.3390288 -0.031169264 1.6902815 786696
1.3556443 -0.031169264 1.6902815 720903
1.37226 -0.031169264 1.6902815 590089
1.3888755 -0.031169264 1.6902815 524808
1.405491 -0.031169264 1.6902815 524807
1.4839373 -0.032524448 1.763772 590087
1.5012753 -0.032524448 1.763772 655880
1.3971242 -0.029922495 1.6226703 786696
1.4130751 -0.029922495 1.6226703 721158
1.3740635 -0.02877163 1.5602599 590341
1.389401 -0.02877163 1.5602599 655880
1.4047384 -0.02877163 1.5602599 721673
1.4200758 -0.02877163 1.5602599 852489
1.3822497 -0.027706014 1.5024725 786696
1.3970191 -0.027706014 1.5024725 655624
1.4117885 -0.027706014 1.5024725 786698
1.3756093 -0.026716512 1.4488127 720904
1.4413272 -0.027706014 1.5024725 786950
1.5121003 -0.02877163 1.5602599 852743
1.5885353 -0.029922495 1.6226703 3087378
1.6044862 -0.029922495 1.6226703 8870203
1.5581126 -0.02877163 1.5602599 9133379
1.5734501 -0.02877163 1.5602599 9265479
1.652339 -0.029922495 1.6226703 9133639
1.6041249 -0.02877163 1.5602599 9133640
1.5037863 -0.026716512 1.4488127 9264965
1.5180283 -0.026716512 1.4488127 9068355
1.4794333 -0.025795253 1.3988537 9134404
1.546512 -0.026716512 1.4488127 9134154
1.5069349 -0.025795253 1.3988537 9068102
1.5206857 -0.025795253 1.3988537 9331270
1.5344365 -0.025795253 1.3988537 9134404
1.5481873 -0.025795253 1.3988537 9200202
1.5098734 -0.024935411 1.3522252 9396552
1.5231658 -0.024935411 1.3522252 9593416
1.5364583 -0.024935411 1.3522252 9264969
1.6031904 -0.025795253 1.3988537 9199946
1.8035115 -0.02877163 1.5602599 9133896
1.8188488 -0.02877163 1.5602599 9396553
1.8341863 -0.02877163 1.5602599 9396553
1.9235046 -0.029922495 1.6226703 9397067
1.9394555 -0.029922495 1.6226703 9397581
0 0 0 9265735
0 0 0 9528137
0 0 0 9856845
0 0 0 9593674
0 0 0 9659724
0 0 0 9660493
0 0 0 9791307
0 0 0 9725259
0 0 0 9791310
0 0 0 9791053
0 0 0 8673854
0 0 0 8804932
-3.7242663 -0.026868409 3.1205199 9660239
-4.0013905 -0.02910744 3.380563 10646617
-3.9681594 -0.02910744 3.380563 10909270
-3.9349284 -0.02910744 3.380563 10909269
-3.9016974 -0.02910744 3.380563 11040084
-3.8684664 -0.02910744 3.380563 11105365
-3.8352351 -0.02910744 3.380563 11039830
-4.1476407 -0.031753574 3.687887 11040596
-4.1113887 -0.031753574 3.687887 11106131
-4.4826508 -0.034928933 4.0566759 11302740
-3.7023108 -0.02910744 3.380563 11499864
-3.386843 -0.026868409 3.1205199 11368791
-3.3561683 -0.026868409 3.1205199 11566169
-3.3254933 -0.026868409 3.1205199 11631446
-3.2948184 -0.026868409 3.1205199 11696985
-3.2641437 -0.026868409 3.1205199 11499863
-3.2334688 -0.026868409 3.1205199 11696981
-4.1636324 -0.034928933 4.0566759 10579009
-4.5819497 -0.038809925 4.5074177 8277292
-4.5376415 -0.038809925 4.5074177 5910297
-4.0440001 -0.034928933 4.0566759 1771264
-4.0041227 -0.034928933 4.0566759 1575438
-3.9642456 -0.034928933 4.0566759 1969940
-3.9243684 -0.034928933 4.0566759 3611931
-3.884491 -0.034928933 4.0566759 3677461
-3.8446138 -0.034928933 4.0566759 4005655
-3.8047364 -0.034928933 4.0566759 3873558
-3.7648592 -0.034928933 4.0566759 4005144
-4.1388688 -0.038809925 4.5074177 3808789
-4.0945606 -0.038809925 4.5074177 3677460
-4.0502524 -0.038809925 4.5074177 3809048
-4.0059443 -0.038809925 4.5074177 4136730
-4.4568405 -0.043661162 5.0708447 4267800
-4.4069939 -0.043661162 5.0708447 4136727
-4.3571472 -0.043661162 5.0708447 4267542
-4.3073006 -0.043661162 5.0708447 4136984
-4.2574539 -0.043661162 5.0708447 3545111
-4.2076073 -0.043661162 5.0708447 3746085
-4.1577606 -0.043661162 5.0708447 5255975
-4.107914 -0.043661162 5.0708447 5518889
-4.0580673 -0.043661162 5.0708447 6374446
-4.0082207 -0.043661162 5.0708447 6503974
-3.9583743 -0.043661162 5.0708447 3610376
-3.9085276 -0.043661162 5.0708447 1180937
-3.858681 -0.043661162 5.0708447 1180681
-4.3529534 -0.049898472 5.7952509 984329
-3.7589877 -0.043661162 5.0708447 1049354
-3.709141 -0.043661162 5.0708447 2496536
-3.6592944 -0.043661162 5.0708447 8541763
-4.125083 -0.049898472 5.7952509 8738621
-4.0681157 -0.049898472 5.7952509 6502169
-3.5097547 -0.043661162 5.0708447 6172188
-3.459908 -0.043661162 5.0708447 5581593
-3.4100614 -0.043661162 5.0708447 5713438
-3.8402452 -0.049898472 5.7952509 5647901
-3.7832778 -0.049898472 5.7952509 5583135
-3.2605214 -0.043661162 5.0708447 5779487
-3.2106748 -0.043661162 5.0708447 5713439
-3.1608281 -0.043661162 5.0708447 5910561
-3.5554073 -0.049898472 5.7952509 8015400
-3.0611348 -0.043661162 5.0708447 10907215
-3.0112882 -0.043661162 5.0708447 11301453
-2.9614415 -0.043661162 5.0708447 11367246
-3.3275371 -0.049898472 5.7952509 11629902
-3.2705696 -0.049898472 5.7952509 11302221
-2.8119018 -0.043661162 5.0708447 11171148
-2.7620552 -0.043661162 5.0708447 11499086
-2.7122085 -0.043661162 5.0708447 11565136
-2.366544 -0.038809925 4.5074177 12023888
-2.3222358 -0.038809925 4.5074177 12024659
-2.2779276 -0.038809925 4.5074177 11958095
-2.2336197 -0.038809925 4.5074177 12352590
-2.1893115 -0.038809925 4.5074177 12484434
-2.1450033 -0.038809925 4.5074177 12353103
-2.1006951 -0.038809925 4.5074177 12878164
-2.3134353 -0.043661162 5.0708447 12747098
-2.5869586 -0.049898472 5.7952509 12615764
-2.9516561 -0.058214881 6.761126 12813141
-2.8851941 -0.058214881 6.761126 12485461
-2.8187318 -0.058214881 6.761126 11695439
-2.3590882 -0.049898472 5.7952509 7358516
-2.3021207 -0.049898472 5.7952509 11171927
-1.964509 -0.043661162 5.0708447 12484943
-1.9146624 -0.043661162 5.0708447 12944729
-1.8648157 -0.043661162 5.0708447 11170121
-1.8149691 -0.043661162 5.0708447 10512449
-1.7651225 -0.043661162 5.0708447 10843214
-1.7152759 -0.043661162 5.0708447 11431753
-1.6654292 -0.043661162 5.0708447 11104333
-1.84638 -0.049898472 5.7952509 12091221
-1.7894125 -0.049898472 5.7952509 11564620
-1.7324449 -0.049898472 5.7952509 11498059
-1.6754773 -0.049898472 5.7952509 12418898
-1.8882613 -0.058214881 6.761126 12747861
-2.1861591 -0.069857866 8.1133518 12484178
0 0 0 10511677
0 0 0 7624006
0 0 0 7230792
0 0 0 7559757
-0.11759119 -0.0045959121 0.53377312 7756106
-0.11384209 -0.0046571908 0.5408901 1246729
-0.10999168 -0.0047201258 0.54819942 918537
-0.10460285 -0.0047201258 0.54819942 852745
-0.099214025 -0.0047201258 0.54819942 984845
-0.11020738 -0.0055442746 0.64391679 655880
-0.087257229 -0.0046571908 0.5408901 589832
-0.076818988 -0.0043661166 0.50708449 524294
-0.07008227 -0.0042596254 0.49471655 458758
-0.065219179 -0.0042596254 0.49471655 655623
-0.058919042 -0.0041582058 0.48293757 721418
-0.053534433 -0.0041092858 0.47725597 787724
-0.047177881 -0.0039691967 0.46098587 721673
-0.041698672 -0.0038809921 0.45074174 787467
-0.035681993 -0.0037158434 0.43156123 655623
-0.031439729 -0.0037158434 0.43156123 787210
-0.027197462 -0.0037158434 0.43156123 2625557
-0.022713562 -0.0036767295 0.42701849 4595998
-0.018515952 -0.0036767295 0.42701849 4464412
-0.01431834 -0.0036767295 0.42701849 4726553
-0.01012073 -0.0036767295 0.42701849 4726554
-0.0058614193 -0.00363843 0.42257038 4858396
-0.0017255078 -0.0036767295 0.42701849 3414040
0.0024721033 -0.0036767295 0.42701849 3873047
0.0066697141 -0.0036767295 0.42701849 4398878
0.010754123 -0.00363843 0.42257038 4464413
0.015064936 -0.0036767295 0.42701849 4070169
0.019262547 -0.0036767295 0.42701849 4463384
0.023460157 -0.0036767295 0.42701849 5185818
0.027952 -0.0037158434 0.43156123 4397847
0.032194268 -0.0037158434 0.43156123 4200982
0.036436532 -0.0037158434 0.43156123 4135191
0.041116208 -0.003755799 0.43620169 4726557
0.04589761 -0.0037966226 0.440943 5185561
0.05134837 -0.0038809921 0.45074174 4988440
0.05704689 -0.0039691967 0.46098587 4266006
0.063751757 -0.0041092858 0.47725597 3544082
0 0 0 3346962
0 0 0 3346962
0.09061943 -0.0047847847 0.555709 3281427
0.096082076 -0.0047847847 0.555709 786436
0.10154472 -0.0047847847 0.555709 589830
0.10700736 -0.0047847847 0.555709 524294
0.11563818 -0.0049195676 0.57136279 458756
0.12298691 -0.0049898471 0.57952511 655367
0.12868367 -0.0049898471 0.57952511 589830
0.13632797 -0.0050621638 0.587924 524295
0.14419711 -0.0051366072 0.59656996 655366
0.15006141 -0.0051366072 0.59656996 655366
0.1631223 -0.0053736814 0.62410396 655624
0.1803561 -0.0057260543 0.66502881 655366
0 0 0 917769
0 0 0 852231
0 0 0 852231
0 0 0 1115145
0 0 0 1049865
0 0 0 1312780
0 0 0 1575181
0 0 0 2493448
0 0 0 8475707
0 0 0 12355160
0 0 0 13141595
0 0 0 13207901
0.770751 -0.016632823 1.9317503 13273183
0.7897402 -0.016632823 1.9317503 13142112
0.80872941 -0.016632823 1.9317503 13142366
0.82771862 -0.016632823 1.9317503 13010780
0.84670776 -0.016632823 1.9317503 13207132
0.82634711 -0.015876787 1.8439435 13010781
0.80775696 -0.01518649 1.763772 13010013
0.86259919 -0.015876787 1.8439435 12879711
0.88072526 -0.015876787 1.8439435 12813145
0.94165373 -0.016632823 1.9317503 12813915
0.96064293 -0.016632823 1.9317503 12616793
0.97963214 -0.016632823 1.9317503 12943704
0.99862134 -0.016632823 1.9317503 12485468
1.3356138 -0.021830581 2.5354223 12550233
1.3605372 -0.021830581 2.5354223 12156758
1.3854605 -0.021830581 2.5354223 2626316
1.4103838 -0.021830581 2.5354223 852486
1.3508773 -0.020546429 2.3862798 1246731
1.2979827 -0.019404963 2.2537088 1312523
1.2506558 -0.018383648 2.1350925 1115915
1.2080617 -0.017464466 2.028338 1247244
1.2926319 -0.018383648 2.1350925 1181965
1.31362 -0.018383648 2.1350925 1246989
1.334608 -0.018383648 2.1350925 459016
1.2878163 -0.017464466 2.028338 655623
1.3765841 -0.018383648 2.1350925 721417
1.3276936 -0.017464466 2.028338 721161
1.4185603 -0.018383648 2.1350925 655882
1.3675709 -0.017464466 2.028338 655882
1.3875096 -0.017464466 2.028338 590089
1.3404268 -0.016632823 1.9317503 655366
1.4273869 -0.017464466 2.028338 589832
1.3784052 -0.016632823 1.9317503 459016
1.3973943 -0.016632823 1.9317503 524554
1.4163835 -0.016632823 1.9317503 524555
1.3701285 -0.015876787 1.8439435 524296
1.3882545 -0.015876787 1.8439435 786951
1.4063807 -0.015876787 1.8439435 786950
1.3625716 -0.01518649 1.763772 852489
1.3224133 -0.01455372 1.6902815 655626
1.3390288 -0.01455372 1.6902815 590089
1.3556443 -0.01455372 1.6902815 655882
1.37226 -0.01455372 1.6902815 655368
1.3888755 -0.01455372 1.6902815 721418
1.405491 -0.01455372 1.6902815 393222
1.4221066 -0.01455372 1.6902815 655882
1.3811733 -0.013971572 1.6226703 656141
1.5186132 -0.01518649 1.763772 721161
1.4130751 -0.013971572 1.6226703 655880
1.3740635 -0.013434204 1.5602599 655880
1.389401 -0.013434204 1.5602599 524809
1.4047384 -0.013434204 1.5602599 721675
1.4200758 -0.013434204 1.5602599 590602
1.4354132 -0.013434204 1.5602599 721417
1.4507507 -0.013434204 1.5602599 720903
1.4660881 -0.013434204 1.5602599 655880
1.4814255 -0.013434204 1.5602599 590087
1.496763 -0.013434204 1.5602599 590087
1.5725844 -0.013971572 1.6226703 1049095
1.5885353 -0.013971572 1.6226703 3022356
1.6044862 -0.013971572 1.6226703 8804151
1.6204371 -0.013971572 1.6226703 9198659
1.7045708 -0.01455372 1.6902815 8805441
1.652339 -0.013971572 1.6226703 8936773
1.6041249 -0.013434204 1.5602599 9002053
1.6194624 -0.013434204 1.5602599 9002568
1.6347997 -0.013434204 1.5602599 9134152
1.7161427 -0.013971572 1.6226703 9068100
1.6654747 -0.013434204 1.5602599 8936773
1.4567037 -0.011642976 1.3522252 8872004
1.5206857 -0.012044459 1.3988537 8937027
1.6480985 -0.012936641 1.5024725 9330243
1.7268243 -0.013434204 1.5602599 9133893
1.561938 -0.012044459 1.3988537 9461831
1.5756888 -0.012044459 1.3988537 9264711
1.5894396 -0.012044459 1.3988537 9462345
1.788174 -0.013434204 1.5602599 9396551
1.8756518 -0.013971572 1.6226703 9330758
1.8916028 -0.013971572 1.6226703 9462345
1.9075537 -0.013971572 1.6226703 9593676
1.9235046 -0.013971572 1.6226703 9527883
1.9394555 -0.013971572 1.6226703 9462858
0 0 0 9724231
0 0 0 9659210
0 0 0 9462601
0 0 0 9594187
0 0 0 9725516
0 0 0 9790796
0 0 0 9725514
0 0 0 9791305
0 0 0 9791050
0 0 0 10053966
0 0 0 8607547
0 0 0 8411200
-3.7242663 0.0038064423 3.1205199 9528138
-3.6935916 0.0038064423 3.1205199 10908503
-3.6629167 0.0038064423 3.1205199 10974548
-3.6322417 0.0038064423 3.1205199 10777687
-3.601567 0.0038064423 3.1205199 11039573
-3.5708921 0.0038064423 3.1205199 11104853
-3.5402174 0.0038064423 3.1205199 11039571
-3.5095425 0.0038064423 3.1205199 11367508
-3.4788675 0.0038064423 3.1205199 11302741
-3.7355418 0.0041236454 3.380563 11302996
-3.4175179 0.0038064423 3.1205199 11302228
-3.386843 0.0038064423 3.1205199 11499095
-3.3561683 0.0038064423 3.1205199 11302740
-3.3254933 0.0038064423 3.1205199 11368789
-3.2948184 0.0038064423 3.1205199 11566169
-3.2641437 0.0038064423 3.1205199 11303767
-3.2334688 0.0038064423 3.1205199 11631447
-3.2027938 0.0038064423 3.1205199 10644804
-4.5819497 0.0054981946 4.5074177 7818283
-4.5376415 0.0054981946 4.5074177 5977630
-4.0440001 0.0049483748 4.0566759 1771264
-4.0041227 0.0049483748 4.0566759 1641488
-3.9642456 0.0049483748 4.0566759 2035731
-3.9243684 0.0049483748 4.0566759 3415324
-3.884491 0.0049483748 4.0566759 3940121
-3.8446138 0.0049483748 4.0566759 3940634
-3.8047364 0.0049483748 4.0566759 3874585
-4.183177 0.0054981946 4.5074177 3940375
-4.1388688 0.0054981946 4.5074177 3940121
-4.0945606 0.0054981946 4.5074177 4267800
-4.0502524 0.0054981946 4.5074177 4267800
-4.0059443 0.0054981946 4.5074177 4267800
-3.9616363 0.0054981946 4.5074177 4268570
-4.4069939 0.0061854683 5.0708447 4268570
-4.3571472 0.0061854683 5.0708447 4136983
-4.3073006 0.0061854683 5.0708447 4333591
-3.7844038 0.0054981946 4.5074177 3479572
-3.7400956 0.0054981946 4.5074177 3417890
-4.1577606 0.0061854683 5.0708447 4730145
-4.107914 0.0061854683 5.0708447 4203804
-4.0580673 0.0061854683 5.0708447 4400926
-4.0082207 0.0061854683 5.0708447 5188898
-3.9583743 0.0061854683 5.0708447 2822923
-3.9085276 0.0061854683 5.0708447 918280
-3.858681 0.0061854683 5.0708447 984075
-3.8088343 0.0061854683 5.0708447 984075
-3.7589877 0.0061854683 5.0708447 1312267
-3.709141 0.0061854683 5.0708447 2102037
-3.6592944 0.0061854683 5.0708447 6635058
-3.6094477 0.0061854683 5.0708447 7555633
-4.0681157 0.0070691067 5.7952509 3217162
-3.5097547 0.0061854683 5.0708447 1181708
-3.0754738 0.0054981946 4.5074177 1378574
-3.0311658 0.0054981946 4.5074177 1444110
-3.3602147 0.0061854683 5.0708447 1246989
-3.3103681 0.0061854683 5.0708447 1443853
-3.2605214 0.0061854683 5.0708447 1313037
-3.2106748 0.0061854683 5.0708447 1379087
-3.1608281 0.0061854683 5.0708447 1509903
-3.1109815 0.0061854683 5.0708447 3746087
-3.0611348 0.0061854683 5.0708447 10513226
-3.0112882 0.0061854683 5.0708447 10710347
-3.3845046 0.0070691067 5.7952509 10907722
-3.3275371 0.0070691067 5.7952509 10841931
-3.2705696 0.0070691067 5.7952509 10908752
-2.8119018 0.0061854683 5.0708447 11039310
-2.7620552 0.0061854683 5.0708447 11301712
-2.7122085 0.0061854683 5.0708447 11235917
-2.6623619 0.0061854683 5.0708447 11827281
-2.6125152 0.0061854683 5.0708447 11892303
-2.5626686 0.0061854683 5.0708447 11893074
-2.5128219 0.0061854683 5.0708447 12090451
-2.1893115 0.0054981946 4.5074177 12287574
-2.1450033 0.0054981946 4.5074177 12353625
-2.363282 0.0061854683 5.0708447 12353105
-2.3134353 0.0061854683 5.0708447 12681557
-2.5869586 0.0070691067 5.7952509 12550228
-2.5299909 0.0070691067 5.7952509 12616277
-2.8851941 0.0082472907 6.761126 12484437
-2.8187318 0.0082472907 6.761126 11762768
-2.7522695 0.0082472907 6.761126 8278063
-2.3021207 0.0070691067 5.7952509 11565393
-1.964509 0.0061854683 5.0708447 12548942
-1.9146624 0.0061854683 5.0708447 10776649
-1.8648157 0.0061854683 5.0708447 10513224
-1.8149691 0.0061854683 5.0708447 10250054
-1.7651225 0.0061854683 5.0708447 10710605
-1.7152759 0.0061854683 5.0708447 10447175
-1.6654292 0.0061854683 5.0708447 10841163
-1.84638 0.0070691067 5.7952509 11038538
-1.7894125 0.0070691067 5.7952509 11039051
-1.7324449 0.0070691067 5.7952509 11433296
-1.6754773 0.0070691067 5.7952509 12681560
-1.8882613 0.0082472907 6.761126 13010524
-1.8217992 0.0082472907 6.761126 12681300
0 0 0 10840644
0 0 0 7164745
0 0 0 7427654
0 0 0 7626064
0 0 0 5584939
-0.13771221 0.00079812494 0.65430254 852745
-0.13128039 0.00079812494 0.65430254 918536
-0.12484857 0.00079812494 0.65430254 853259
-0.12035801 0.00081120897 0.66502881 918282
-0.11382074 0.00081120897 0.66502881 721673
-0.10728347 0.00081120897 0.66502881 459016
-0.08418519 0.00067785953 0.555709 589830
-0.07008227 0.00060346036 0.49471655 852746
-0.063666344 0.0005890922 0.48293757 524552
-0.058225881 0.00058216171 0.47725597 786696
-0.052911937 0.00057539239 0.47170648 787466
-0.046647795 0.00055599713 0.45580626 786696
-0.041698672 0.00054981938 0.45074174 984077
-0.035681993 0.00052642281 0.43156123 655881
-0.031439729 0.00052642281 0.43156123 984842
-0.026911173 0.00052088156 0.42701849 786949
-0.022713562 0.00052088156 0.42701849 3677729
-0.018323077 0.00051545567 0.42257038 4596514
-0.01431834 0.00052088156 0.42701849 4726812
-0.01012073 0.00052088156 0.42701849 4857883
-0.0058614193 0.00051545567 0.42257038 4792089
-0.0017075337 0.00051545567 0.42257038 4595484
0.002446352 0.00051545567 0.42257038 4396818
0.0066697141 0.00052088156 0.42701849 4924449
0.010754123 0.00051545567 0.42257038 5055780
0.014908009 0.00051545567 0.42257038 4267292
0.019061895 0.00051545567 0.42257038 4398362
0.023460157 0.00052088156 0.42701849 5054749
0.02765777 0.00052088156 0.42701849 4922905
0.032194268 0.00052642281 0.43156123 4069653
0.036436532 0.00052642281 0.43156123 4332058
0.041116208 0.00053208333 0.43620169 4791580
0.04589761 0.00053786678 0.440943 4725785
0.05134837 0.00054981938 0.45074174 4659476
0.05704689 0.00056231528 0.46098587 4266774
0.063751757 0.00058216171 0.47725597 3346963
0 0 0 3413268
0 0 0 3215891
0 0 0 1376772
0.097416557 0.00068727433 0.56342721 459014
0.10154472 0.00067785953 0.555709 590087
0.10700736 0.00067785953 0.555709 590087
0.11095014 0.00066869927 0.54819942 655622
0.11793265 0.00067785953 0.555709 589830
0.12868367 0.00070691068 0.57952511 458758
0.13632797 0.00071715575 0.587924 786439
0.14419711 0.00072770217 0.59656996 524293
0.15230113 0.00073856342 0.605474 590087
0.16065073 0.00074975373 0.61464781 655366
0.16925727 0.00076128845 0.62410396 852231
0.18689336 0.00081120897 0.66502881 459017
0 0 0 655624
0 0 0 852744
0 0 0 1049865
0 0 0 1050378
0 0 0 1181451
0 0 0 1312267
0 0 0 1443851
0 0 0 1443852
0 0 0 2823185
0 0 0 11369558
0 0 0 13273438
0 0 0 13011038
0.7897402 0.0023563688 1.9317503 12945502
0.80872941 0.0023563688 1.9317503 13010781
0.79009503 0.0022492611 1.8439435 13076575
0.773081 0.0021514671 1.763772 12616539
0.79041898 0.0021514671 1.763772 12879454
0.84447318 0.0022492611 1.8439435 12945759
0.86259919 0.0022492611 1.8439435 12747867
0.92266452 0.0023563688 1.9317503 12484696
0.89885128 0.0022492611 1.8439435 12813661
0.96064293 0.0023563688 1.9317503 12485721
0.97963214 0.0023563688 1.9317503 12419415
1.0485525 0.0024741874 2.028338 12485210
1.1872123 0.0027490973 2.2537088 12157276
1.3605372 0.0030927341 2.5354223 11894613
1.3039628 0.0029108087 2.3862798 2560781
1.2536745 0.0027490973 2.2537088 1641233
1.2086797 0.0026044077 2.1350925 1181965
1.2296677 0.0026044077 2.1350925 1116173
1.2506558 0.0026044077 2.1350925 1443852
1.2080617 0.0024741874 2.028338 1180938
1.2926319 0.0026044077 2.1350925 1312524
1.247939 0.0024741874 2.028338 1443853
1.334608 0.0026044077 2.1350925 590344
1.2878163 0.0024741874 2.028338 655882
1.3765841 0.0026044077 2.1350925 655880
1.3276936 0.0024741874 2.028338 721931
1.3476323 0.0024741874 2.028338 655880
1.3675709 0.0024741874 2.028338 590602
1.3875096 0.0024741874 2.028338 655625
1.3404268 0.0023563688 1.9317503 655882
1.359416 0.0023563688 1.9317503 655625
1.3784052 0.0023563688 1.9317503 655624
1.3973943 0.0023563688 1.9317503 655882
1.4163835 0.0023563688 1.9317503 655370
1.4353727 0.0023563688 1.9317503 721161
1.3882545 0.0022492611 1.8439435 655624
1.4063807 0.0022492611 1.8439435 590088
1.3625716 0.0021514671 1.763772 524553
1.3799095 0.0021514671 1.763772 721162
1.3972476 0.0021514671 1.763772 655881
1.4145855 0.0021514671 1.763772 524552
1.4319234 0.0021514671 1.763772 589833
1.4492614 0.0021514671 1.763772 721160
1.4665993 0.0021514671 1.763772 721417
1.4839373 0.0021514671 1.763772 655623
1.6442538 0.0023563688 1.9317503 786953
1.6632431 0.0023563688 1.9317503 655625
1.6822323 0.0023563688 1.9317503 590088
1.4885688 0.0020618227 1.6902815 655367
1.389401 0.0019032211 1.5602599 721160
1.4047384 0.0019032211 1.5602599 786696
1.4200758 0.0019032211 1.5602599 721162
1.4354132 0.0019032211 1.5602599 655625
1.4507507 0.0019032211 1.5602599 786953
1.5247315 0.0019793499 1.6226703 721417
1.5406824 0.0019793499 1.6226703 721414
1.5566334 0.0019793499 1.6226703 852488
1.5725844 0.0019793499 1.6226703 721159
1.5885353 0.0019793499 1.6226703 2758930
1.6044862 0.0019793499 1.6226703 8279611
1.6879553 0.0020618227 1.6902815 8870721
1.7045708 0.0020618227 1.6902815 9002054
1.652339 0.0019793499 1.6226703 8673605
1.6682899 0.0019793499 1.6226703 8673860
1.6842408 0.0019793499 1.6226703 8740166
1.7710329 0.0020618227 1.6902815 8805961
1.8653724 0.0021514671 1.763772 8936006
1.7320936 0.0019793499 1.6226703 8870469
1.4567037 0.0016494582 1.3522252 8739396
1.4699961 0.0016494582 1.3522252 8673603
1.7799463 0.0019793499 1.6226703 9002309
1.7958972 0.0019793499 1.6226703 8608067
1.8118482 0.0019793499 1.6226703 8805190
1.7574992 0.0019032211 1.5602599 9068104
1.7728366 0.0019032211 1.5602599 9265225
1.8597009 0.0019793499 1.6226703 9133894
1.8756518 0.0019793499 1.6226703 9199429
1.8916028 0.0019793499 1.6226703 9330759
1.9075537 0.0019793499 1.6226703 9527882
1.9235046 0.0019793499 1.6226703 9527623
1.9394555 0.0019793499 1.6226703 9527881
0 0 0 9462602
0 0 0 9199432
0 0 0 9527883
0 0 0 9527883
0 0 0 9528141
0 0 0 9462603
0 0 0 9725005
0 0 0 9594440
0 0 0 9660490
0 0 0 9726028
0 0 0 7095606
0 0 0 6766898
-3.2276974 0.029883785 2.7044504 8542016
-3.6935916 0.034481294 3.1205199 10580051
-3.6629167 0.034481294 3.1205199 10974290
-3.6322417 0.034481294 3.1205199 10711891
-3.601567 0.034481294 3.1205199 10712149
-3.5708921 0.034481294 3.1205199 11171411
-3.5402174 0.034481294 3.1205199 11171668
-3.5095425 0.034481294 3.1205199 11433298
-3.4788675 0.034481294 3.1205199 11564883
-3.4481928 0.034481294 3.1205199 11499091
-3.4175179 0.034481294 3.1205199 11565142
-3.6690798 0.03735473 3.380563 11499864
-3.6358488 0.03735473 3.380563 11434585
-3.6026175 0.03735473 3.380563 11631450
-3.2948184 0.034481294 3.1205199 11434583
-3.2641437 0.034481294 3.1205199 11434070
-3.2334688 0.034481294 3.1205199 11368019
-4.1636324 0.044825681 4.0566759 10118460
-4.5819497 0.049806312 4.5074177 8015148
-4.5376415 0.049806312 4.5074177 5780251
-4.0440001 0.044825681 4.0566759 1705472
-4.0041227 0.044825681 4.0566759 1313037
-3.9642456 0.044825681 4.0566759 1641744
-4.3604093 0.049806312 4.5074177 3151896
-4.3161011 0.049806312 4.5074177 3348501
-3.8446138 0.044825681 4.0566759 3545620
-3.8047364 0.044825681 4.0566759 3742999
-4.183177 0.049806312 4.5074177 3611414
-4.1388688 0.049806312 4.5074177 3545618
-4.0945606 0.049806312 4.5074177 3611923
-4.0502524 0.049806312 4.5074177 3480083
-4.0059443 0.049806312 4.5074177 3480598
-3.9616363 0.049806312 4.5074177 3612184
-4.4069939 0.056032099 5.0708447 3742999
-4.3571472 0.056032099 5.0708447 3742998
-4.3073006 0.056032099 5.0708447 3808019
-3.7844038 0.049806312 4.5074177 3085843
-3.7400956 0.049806312 4.5074177 2825503
-3.6957874 0.049806312 4.5074177 4138272
-4.107914 0.056032099 5.0708447 3875614
-4.0580673 0.056032099 5.0708447 3941406
-4.0082207 0.056032099 5.0708447 3546902
-3.9583743 0.056032099 5.0708447 2493961
-3.9085276 0.056032099 5.0708447 1114887
-3.858681 0.056032099 5.0708447 918280
-3.8088343 0.056032099 5.0708447 1181451
-3.7589877 0.056032099 5.0708447 1246989
-3.709141 0.056032099 5.0708447 1904658
-3.6592944 0.056032099 5.0708447 5452842
-3.6094477 0.056032099 5.0708447 5452322
-3.5596011 0.056032099 5.0708447 3217680
-3.5097547 0.056032099 5.0708447 1312523
-3.0754738 0.049806312 4.5074177 1312524
-3.0311658 0.049806312 4.5074177 1181708
-2.9868577 0.049806312 4.5074177 1444109
-2.9425495 0.049806312 4.5074177 1378317
-2.8982413 0.049806312 4.5074177 1312524
-2.8539333 0.049806312 4.5074177 1443853
-3.1608281 0.056032099 5.0708447 1378062
-3.1109815 0.056032099 5.0708447 3022623
-3.0611348 0.056032099 5.0708447 9724234
-3.0112882 0.056032099 5.0708447 10117186
-3.3845046 0.064036682 5.7952509 10381896
-3.3275371 0.064036682 5.7952509 10382667
-3.2705696 0.064036682 5.7952509 7752748
-2.8119018 0.056032099 5.0708447 4925204
-2.7620552 0.056032099 5.0708447 4662292
-2.7122085 0.056032099 5.0708447 4991001
-2.6623619 0.056032099 5.0708447 5056280
-2.6125152 0.056032099 5.0708447 5516061
-2.9287641 0.064036682 5.7952509 8805962
-3.3504291 0.07470946 6.761126 11762511
-3.9407606 0.089651361 8.1133518 11960153
-3.861006 0.089651361 8.1133518 12286808
-2.7008936 0.064036682 5.7952509 12483155
-2.6439261 0.064036682 5.7952509 12352594
-2.5869586 0.064036682 5.7952509 12352851
-2.5299909 0.064036682 5.7952509 12353619
-2.8851941 0.07470946 6.761126 12156496
-2.8187318 0.07470946 6.761126 12419155
-2.3590882 0.064036682 5.7952509 10907464
-2.3021207 0.064036682 5.7952509 12287058
-2.2451532 0.064036682 5.7952509 11235139
-1.9146624 0.056032099 5.0708447 9921347
-2.131218 0.064036682 5.7952509 9986114
-2.0742505 0.064036682 5.7952509 10053191
-2.0172827 0.064036682 5.7952509 10380867
-1.7152759 0.056032099 5.0708447 9066298
-1.6654292 0.056032099 5.0708447 9133634
-1.84638 0.064036682 5.7952509 9854273
-1.7894125 0.064036682 5.7952509 10447688
-1.7324449 0.064036682 5.7952509 11236174
-1.6754773 0.064036682 5.7952509 11366731
-1.6185098 0.064036682 5.7952509 12812887
-1.8217992 0.07470946 6.761126 12811343
0 0 0 10840643
0 0 0 7493452
0 0 0 7231305
0 0 0 7559498
0 0 0 3283217
-0.13771221 0.0072299484 0.65430254 786696
-0.13795567 0.0075975731 0.68757218 984075
-0.12901019 0.0074709463 0.67611259 787466
-0.12236396 0.0074709463 0.67611259 786698
-0.11382074 0.0073484723 0.66502881 589830
-0.10728347 0.0073484723 0.66502881 327683
-0.094546445 0.0068962583 0.62410396 721159
-0.07008227 0.0054665464 0.49471655 786696
-0.063666344 0.0053363903 0.48293757 786696
-0.058225881 0.0052736094 0.47725597 852490
-0.051709395 0.0050938269 0.46098587 852744
-0.046129484 0.0049806307 0.45074174 722186
-0.041240446 0.0049258987 0.44578853 722186
-0.035681993 0.0047686892 0.43156123 721673
-0.031108785 0.0047184927 0.42701849 1049353
-0.026630849 0.0046693413 0.42257038 786695
-0.022476962 0.0046693413 0.42257038 1706768
-0.018323077 0.0046693413 0.42257038 4400677
-0.014169191 0.0046693413 0.42257038 4924703
-0.01012073 0.0047184927 0.42701849 4529433
-0.0058614193 0.0046693413 0.42257038 4923418
-0.0017075337 0.0046693413 0.42257038 5054747
0.002446352 0.0046693413 0.42257038 4857627
0.0066002379 0.0046693413 0.42257038 5712163
0.010754123 0.0046693413 0.42257038 5055268
0.014908009 0.0046693413 0.42257038 4464155
0.019061895 0.0046693413 0.42257038 4595228
0.023215782 0.0046693413 0.42257038 4857883
0.02765777 0.0047184927 0.42701849 5251612
0.032194268 0.0047686892 0.43156123 4135189
0.036828324 0.0048199655 0.43620169 3872018
0.041116208 0.0048199655 0.43620169 4069398
0.046401981 0.0049258987 0.44578853 4134677
0.051925316 0.0050365929 0.45580626 4134678
0.05704689 0.0050938269 0.46098587 3873044
0 0 0 3150351
0 0 0 3019025
0 0 0 1114629
0 0 0 589830
0.10165205 0.0064964751 0.587924 589830
0.10154472 0.006140504 0.555709 589829
0.10700736 0.006140504 0.555709 458756
0.11247001 0.006140504 0.555709 655624
0.1212547 0.0063134762 0.57136279 720903
0.12687123 0.0063134762 0.57136279 524295
0.13632797 0.0064964751 0.587924 524295
0.1463493 0.0066904002 0.605474 589830
0.15460871 0.0067917691 0.61464781 590087
0.16065073 0.0067917691 0.61464781 590089
0.16925727 0.0068962583 0.62410396 655366
0.17539224 0.0068962583 0.62410396 524551
0.19343063 0.0073484723 0.66502881 589830
0 0 0 720902
0 0 0 852229
0 0 0 918281
0 0 0 1049865
0 0 0 1049866
0 0 0 1246474
0 0 0 1312524
0 0 0 1443852
0 0 0 2231052
0 0 0 8541756
0 0 0 6568994
0 0 0 6437923
0 0 0 6437924
0.72425377 0.018677365 1.6902815 6634274
0.773081 0.019489426 1.763772 6765604
0.79041898 0.019489426 1.763772 6700068
0.88468617 0.021345561 1.9317503 6634273
0.90367538 0.021345561 1.9317503 6568222
0.92266452 0.021345561 1.9317503 6437153
0.94165373 0.021345561 1.9317503 6371618
0.96064293 0.021345561 1.9317503 6436640
0.97963214 0.021345561 1.9317503 6240029
1.1037394 0.023592463 2.1350925 6436894
1.1872123 0.024903156 2.2537088 6305055
1.2805055 0.026368046 2.3862798 5256735
1.2315204 0.024903156 2.2537088 1575950
1.2536745 0.024903156 2.2537088 1116171
1.2758286 0.024903156 2.2537088 1181451
1.2979827 0.024903156 2.2537088 852488
1.2506558 0.023592463 2.1350925 1313038
1.2080617 0.02241284 2.028338 1378573
1.2280003 0.02241284 2.028338 1312779
1.247939 0.02241284 2.028338 1378317
1.334608 0.023592463 2.1350925 524552
1.2878163 0.02241284 2.028338 655625
1.307755 0.02241284 2.028338 524292
1.26447 0.021345561 1.9317503 589830
1.2834592 0.021345561 1.9317503 720903
1.3024484 0.021345561 1.9317503 589830
1.3875096 0.02241284 2.028338 459016
1.4074482 0.02241284 2.028338 458756
1.4273869 0.02241284 2.028338 327685
1.3784052 0.021345561 1.9317503 327686
1.3973943 0.021345561 1.9317503 393222
1.3520025 0.020375308 1.8439435 524295
1.3701285 0.020375308 1.8439435 655368
1.3882545 0.020375308 1.8439435 393221
1.4063807 0.020375308 1.8439435 393222
1.3625716 0.019489426 1.763772 590089
1.4426327 0.020375308 1.8439435 721160
1.4607588 0.020375308 1.8439435 393220
1.4788848 0.020375308 1.8439435 458759
1.4319234 0.019489426 1.763772 721160
2.2222006 0.029883785 2.7044504 524293
1.9842227 0.026368046 2.3862798 327685
1.6252646 0.021345561 1.9317503 655366
1.5012753 0.019489426 1.763772 655366
1.6632431 0.021345561 1.9317503 655623
1.6822323 0.021345561 1.9317503 524295
1.7012215 0.021345561 1.9317503 655368
1.389401 0.017240647 1.5602599 458759
1.4047384 0.017240647 1.5602599 459272
1.4200758 0.017240647 1.5602599 327684
1.4928297 0.017930271 1.6226703 524294
1.5087806 0.017930271 1.6226703 589830
1.5247315 0.017930271 1.6226703 720903
1.5406824 0.017930271 1.6226703 590089
1.5566334 0.017930271 1.6226703 590087
1.5725844 0.017930271 1.6226703 2098703
1.5885353 0.017930271 1.6226703 1377806
1.6044862 0.017930271 1.6226703 2954763
1.6879553 0.018677365 1.6902815 3674888
1.7045708 0.018677365 1.6902815 3478282
1.652339 0.017930271 1.6226703 3413261
1.7378019 0.018677365 1.6902815 3479052
1.9139099 0.020375308 1.8439435 3413261
2.0240376 0.021345561 1.9317503 3544077
2.0430269 0.021345561 1.9317503 3609356
1.9682881 0.020375308 1.8439435 3544847
1.8208796 0.018677365 1.6902815 3282958
1.7639954 0.017930271 1.6226703 3347984
1.7799463 0.017930271 1.6226703 3544847
1.7958972 0.017930271 1.6226703 3610640
1.8118482 0.017930271 1.6226703 3282445
1.8277991 0.017930271 1.6226703 3479570
1.84375 0.017930271 1.6226703 3216654
1.8597009 0.017930271 1.6226703 3282704
1.8756518 0.017930271 1.6226703 3414290
1.9704195 0.018677365 1.6902815 3151119
1.987035 0.018677365 1.6902815 3150606
2.0036507 0.018677365 1.6902815 3150606
0 0 0 3085326
0 0 0 3085325
0 0 0 2954764
0 0 0 2954765
0 0 0 2955021
0 0 0 2889228
0 0 0 2692364
0 0 0 3020813
0 0 0 2757642
0 0 0 3083782
0 0 0 5977125
0 0 0 1443599
0 0 0 1967635
-3.7242663 0.065156147 3.1205199 5386803
-3.6935916 0.065156147 3.1205199 9792862
-3.6629167 0.065156147 3.1205199 10514769
-3.6322417 0.065156147 3.1205199 10712148
-3.601567 0.065156147 3.1205199 10712400
-3.5708921 0.065156147 3.1205199 11039571
-3.5402174 0.065156147 3.1205199 11236437
-3.2588606 0.060502131 2.8976254 11170898
-3.230377 0.060502131 2.8976254 11170644
-3.4481928 0.065156147 3.1205199 11433302
-3.4175179 0.065156147 3.1205199 11301973
-4.0026326 0.077002712 3.687887 11302999
-4.3630185 0.084702991 4.0566759 11368278
-3.9301283 0.077002712 3.687887 11433303
-4.2832642 0.084702991 4.0566759 11368536
-3.5361555 0.070585817 3.380563 11368536
-3.5029244 0.070585817 3.380563 11566169
