# .PCD v0.7 - Point Cloud Data file format
VERSION 0.7
FIELDS x y z rgb
SIZE 4 4 4 4
TYPE F F F U
COUNT 1 1 1 1
WIDTH 1328
HEIGHT 1
VIEWPOINT 0 0 0 1 0 0 0
POINTS 1328
DATA ascii
-4.2076073 0.55449843 5.0708447 1114118
-3.6957874 0.4928875 4.5074177 852489
-3.6514795 0.4928875 4.5074177 852743
-3.6071713 0.4928875 4.5074177 786950
-3.5628631 0.4928875 4.5074177 918535
-3.1666996 0.44359875 4.0566759 918536
-3.1268222 0.44359875 4.0566759 1049095
-3.0869448 0.44359875 4.0566759 984075
-3.0470676 0.44359875 4.0566759 984073
-3.3413227 0.4928875 4.5074177 786694
-3.2970145 0.4928875 4.5074177 721415
-3.2527063 0.4928875 4.5074177 721415
-3.2083981 0.4928875 4.5074177 786694
-3.1640902 0.4928875 4.5074177 1049352
-3.119782 0.4928875 4.5074177 984328
-3.0754738 0.4928875 4.5074177 919306
-3.0311658 0.4928875 4.5074177 787463
-2.9868577 0.4928875 4.5074177 786950
-2.9425495 0.4928875 4.5074177 786952
-2.8982413 0.4928875 4.5074177 656134
-3.2106748 0.55449843 5.0708447 918536
-3.1608281 0.55449843 5.0708447 1180680
-3.1109815 0.55449843 5.0708447 721927
-3.0611348 0.55449843 5.0708447 852743
-3.0112882 0.55449843 5.0708447 1049352
-2.9614415 0.55449843 5.0708447 1115144
-2.9115949 0.55449843 5.0708447 918280
-3.2705696 0.63371247 5.7952509 1378574
-3.2136018 0.63371247 5.7952509 1181451
-3.1566343 0.63371247 5.7952509 1181452
-2.7122085 0.55449843 5.0708447 1246730
-2.6623619 0.55449843 5.0708447 1180680
-2.6125152 0.55449843 5.0708447 918536
-2.9287641 0.63371247 5.7952509 1181194
-2.5128219 0.55449843 5.0708447 1312524
-2.4629753 0.55449843 5.0708447 1312523
-2.7578614 0.63371247 5.7952509 2758679
-2.7008936 0.63371247 5.7952509 5454902
-2.6439261 0.63371247 5.7952509 8079924
-2.5869586 0.63371247 5.7952509 8343349
-2.5299909 0.63371247 5.7952509 9000763
-2.4730234 0.63371247 5.7952509 9592895
-2.4160559 0.63371247 5.7952509 8475699
-2.3590882 0.63371247 5.7952509 7424560
-2.3021207 0.63371247 5.7952509 6897702
-2.2451532 0.63371247 5.7952509 7357480
-1.9146624 0.55449843 5.0708447 7094826
-2.131218 0.63371247 5.7952509 6963497
-2.0742505 0.63371247 5.7952509 6964271
-2.0172827 0.63371247 5.7952509 7293236
-1.7152759 0.55449843 5.0708447 8279616
-1.6654292 0.55449843 5.0708447 7753271
-1.84638 0.63371247 5.7952509 6834747
-1.7894125 0.63371247 5.7952509 7491131
-1.7324449 0.63371247 5.7952509 7555126
-1.6754773 0.63371247 5.7952509 8213050
-1.8882613 0.73933119 6.761126 9660231
-3.6435983 1.4786624 13.522252 9331005
-3.510674 1.4786624 13.522252 9592131
-0.17777631 0.077824339 0.71169752 4797226
-0.16783579 0.076482534 0.69942683 4731431
-0.16096039 0.076482534 0.69942683 1049349
-0.154085 0.076482534 0.69942683 524296
-0.15523921 0.080654308 0.73757738 458759
-0.1403342 0.076482534 0.69942683 655880
-0.13345881 0.076482534 0.69942683 459014
-0.12035801 0.072721101 0.66502881 589829
-0.11382074 0.072721101 0.66502881 393220
-0.1055531 0.071548179 0.65430254 720903
-0.085354432 0.061610937 0.56342721 458757
-0.077658728 0.059945773 0.54819942 524809
-0.071306303 0.059146497 0.5408901 721673
-0.06598933 0.059146497 0.5408901 720903
-0.058338806 0.056871634 0.52008665 393479
-0.053226329 0.056871634 0.52008665 590087
-0.043136559 0.050988361 0.46628457 655623
-0.038552962 0.050988361 0.46628457 524295
-0.033583347 0.050408944 0.46098587 524809
-0.029051835 0.050408944 0.46098587 721160
-0.024520323 0.050408944 0.46098587 589830
-0.019988811 0.050408944 0.46098587 721158
-0.0154573 0.050408944 0.46098587 720905
-0.010682993 0.049288746 0.45074174 1311495
-0.0062521808 0.049288746 0.45074174 4070680
-0.0018213693 0.049288746 0.45074174 3675157
0.002580767 0.048747111 0.44578853 3478548
0.0068872049 0.048217252 0.440943 3346962
0.011221694 0.048217252 0.440943 3871761
0.015556184 0.048217252 0.440943 3740689
0.019890673 0.048217252 0.440943 3609618
0.024491373 0.048747111 0.44578853 3740691
0.028873496 0.048747111 0.44578853 3740691
0.033255614 0.048747111 0.44578853 3806997
0.038920842 0.050408944 0.46098587 3938068
0.045521513 0.052809373 0.48293757 4266773
0.05026881 0.052809373 0.48293757 3872275
0.055016108 0.052809373 0.48293757 2229253
0.060483452 0.05344563 0.48875612 589831
0.068593666 0.056151737 0.51350325 720905
0 0 0 721159
0.081795335 0.058368254 0.53377312 720903
0.08591193 0.057610221 0.52684098 720903
0.092289366 0.058368254 0.53377312 589830
0.1001725 0.059945773 0.54819942 589829
0.10700736 0.06076695 0.555709 655366
0.11247001 0.06076695 0.555709 655366
0.11793265 0.06076695 0.555709 327683
0.1233953 0.06076695 0.555709 524808
0.12885794 0.06076695 0.555709 655366
0.13618615 0.061610937 0.56342721 917512
0.15230113 0.066208765 0.605474 720903
0.15825297 0.066208765 0.605474 589835
0.16925727 0.068245955 0.62410396 589830
0.20728172 0.080654308 0.73757738 720905
0 0 0 655365
0 0 0 655366
0.28629124 0.10081789 0.92197174 524294
0.29535425 0.10081789 0.92197174 524293
0.33485901 0.11089969 1.014169 524292
0.34482834 0.11089969 1.014169 720903
0.33004433 0.1031625 0.94341296 590599
0.31718868 0.096434504 0.88188601 590341
0.37473634 0.11089969 1.014169 720901
0 0 0 655366
0 0 0 655880
0 0 0 721158
0.69102269 0.1848328 1.6902815 852743
0.51464599 0.13442385 1.2292956 918536
0.52673 0.13442385 1.2292956 524296
0.53881401 0.13442385 1.2292956 590601
0.56811363 0.13862461 1.2677112 655623
0.59930354 0.14309636 1.3086051 852743
0.65438563 0.15296507 1.3988537 852743
0.84243286 0.19286901 1.763772 918536
0 0 0 852489
0 0 0 918281
0 0 0 852742
0 0 0 918280
0 0 0 984330
1.0365998 0.21123749 1.9317503 721160
0.92364031 0.1848328 1.6902815 721675
1.0257336 0.20163578 1.8439435 720905
1.2758286 0.24644375 2.2537088 655880
1.2979827 0.24644375 2.2537088 590087
1.0331504 0.19286901 1.763772 917766
1.006718 0.1848328 1.6902815 786950
0.98240024 0.1774395 1.6226703 655366
0.99835116 0.1774395 1.6226703 590089
0.97529048 0.1706149 1.5602599 1641229
1.0302529 0.1774395 1.6226703 2891294
1.046204 0.1774395 1.6226703 3350816
1.0621549 0.1774395 1.6226703 3152667
1.0781058 0.1774395 1.6226703 3087902
1.1396424 0.1848328 1.6902815 2036502
1.20653 0.19286901 1.763772 1181196
1.2238679 0.19286901 1.763772 786951
1.2976243 0.20163578 1.8439435 721673
1.3157504 0.20163578 1.8439435 655882
1.3973943 0.21123749 1.9317503 852491
1.4163835 0.21123749 1.9317503 2691856
1.3701285 0.20163578 1.8439435 6702643
1.3882545 0.20163578 1.8439435 6242356
1.4733511 0.21123749 1.9317503 6373689
1.4923403 0.21123749 1.9317503 7752515
1.5113295 0.21123749 1.9317503 7293763
1.4607588 0.20163578 1.8439435 7164232
1.4788848 0.20163578 1.8439435 6768702
1.4970108 0.20163578 1.8439435 6373944
1.4492614 0.19286901 1.763772 6310463
1.4665993 0.19286901 1.763772 3545368
1.4839373 0.19286901 1.763772 2888979
1.5695151 0.20163578 1.8439435 1509645
1.5876411 0.20163578 1.8439435 917511
1.6057671 0.20163578 1.8439435 589830
1.6238931 0.20163578 1.8439435 589831
1.7202107 0.21123749 1.9317503 524292
1.7391998 0.21123749 1.9317503 524294
1.8460985 0.22179937 2.028338 655364
1.8660372 0.22179937 2.028338 655366
1.7961674 0.21123749 1.9317503 720903
1.7326494 0.20163578 1.8439435 459014
1.6746548 0.19286901 1.763772 590086
1.6214931 0.1848328 1.6902815 2035216
1.6381086 0.1848328 1.6902815 4926499
1.6547242 0.1848328 1.6902815 6701875
1.6713398 0.1848328 1.6902815 6701362
1.6879553 0.1848328 1.6902815 7161656
1.7045708 0.1848328 1.6902815 7359288
1.7211864 0.1848328 1.6902815 7227706
1.8133585 0.19286901 1.763772 6504501
1.8306965 0.19286901 1.763772 5981241
1.8480344 0.19286901 1.763772 1838357
1.9501621 0.20163578 1.8439435 787466
0 0 0 655880
0 0 0 590089
2.9399922 0.29573247 2.7044504 786698
2.1189837 0.21123749 1.9317503 852489
2.2448716 0.22179937 2.028338 786696
2.2648103 0.22179937 2.028338 983816
2.284749 0.22179937 2.028338 983303
2.7113969 0.26094043 2.3862798 851974
2.1132965 0.20163578 1.8439435 721159
2.1314225 0.20163578 1.8439435 655622
2.9556293 0.27724922 2.5354223 786950
3.4063458 0.31685624 2.8976254 983305
3.6990473 0.3412298 3.1205199 720903
0 0 0 655880
0 0 0 852746
0 0 0 918537
0 0 0 852487
0 0 0 786696
0 0 0 786696
0 0 0 720903
0 0 0 786696
0 0 0 917768
0 0 0 1114633
0 0 0 3088414
0 0 0 721673
0 0 0 1247765
-9.6830931 0.96695209 8.1133518 2958119
-12.004172 1.20869 10.141689 9857112
-15.872638 1.6115867 13.522252 10514773
-23.609571 2.4173801 20.283379 10646098
-11.705092 1.20869 10.141689 10645585
-9.2843199 0.96695209 8.1133518 10776658
-5.7528529 0.60434502 5.0708447 10711891
-4.5624051 0.48347604 4.0566759 10777683
-5.0250311 0.53719562 4.5074177 10974032
-4.9807229 0.53719562 4.5074177 10646354
-4.9364147 0.53719562 4.5074177 10908757
-4.8921065 0.53719562 4.5074177 11041113
-4.8477983 0.53719562 4.5074177 10711378
-3.9301283 0.43952367 3.687887 10908757
-3.2948184 0.37190464 3.1205199 11170899
-3.2641437 0.37190464 3.1205199 10908752
-3.2334688 0.37190464 3.1205199 10908492
-4.1636324 0.48347604 4.0566759 10645064
-4.123755 0.48347604 4.0566759 7226921
-4.0838776 0.48347604 4.0566759 5780516
-3.6763637 0.43952367 3.687887 1706243
-3.6401114 0.43952367 3.687887 1181193
-3.9642456 0.48347604 4.0566759 1115143
-3.9243684 0.48347604 4.0566759 3085075
-4.3161011 0.53719562 4.5074177 3282963
-4.8057671 0.60434502 5.0708447 3282452
-4.7559204 0.60434502 5.0708447 3217429
-4.7060738 0.60434502 5.0708447 3217683
-4.6562271 0.60434502 5.0708447 3414038
-4.6063805 0.60434502 5.0708447 3479830
-5.2074671 0.69068003 5.7952509 3413777
-5.1504993 0.69068003 5.7952509 3414291
-5.9424539 0.80579334 6.761126 3217685
-5.0365644 0.69068003 5.7952509 3085843
-4.3571472 0.60434502 5.0708447 3151635
-3.8287117 0.53719562 4.5074177 3216656
-3.7844038 0.53719562 4.5074177 2691602
-4.2076073 0.60434502 5.0708447 983558
-3.6957874 0.53719562 4.5074177 655878
-3.6514795 0.53719562 4.5074177 1115915
-3.6071713 0.53719562 4.5074177 1050122
-3.5628631 0.53719562 4.5074177 852743
-3.5185549 0.53719562 4.5074177 721673
-3.1268222 0.48347604 4.0566759 721673
-3.0869448 0.48347604 4.0566759 786696
-2.5392227 0.40289667 3.380563 590345
-2.5059917 0.40289667 3.380563 590087
-2.6975572 0.43952367 3.687887 918536
-2.9274356 0.48347604 4.0566759 853000
-2.8875585 0.48347604 4.0566759 918279
-2.847681 0.48347604 4.0566759 1115145
-3.119782 0.53719562 4.5074177 1115915
-3.0754738 0.53719562 4.5074177 1181708
-3.4100614 0.60434502 5.0708447 1049609
-3.3602147 0.60434502 5.0708447 984075
-3.3103681 0.60434502 5.0708447 1180682
-3.2605214 0.60434502 5.0708447 1049098
-3.2106748 0.60434502 5.0708447 1378060
-3.1608281 0.60434502 5.0708447 1313294
-3.1109815 0.60434502 5.0708447 852743
-3.0611348 0.60434502 5.0708447 1378059
-3.0112882 0.60434502 5.0708447 1378059
-2.9614415 0.60434502 5.0708447 1114888
-2.9115949 0.60434502 5.0708447 851974
-3.2705696 0.69068003 5.7952509 1378316
-3.2136018 0.69068003 5.7952509 1509645
-3.1566343 0.69068003 5.7952509 1444108
-2.7122085 0.60434502 5.0708447 1509387
-2.6623619 0.60434502 5.0708447 1575436
-2.6125152 0.60434502 5.0708447 1247500
-2.5626686 0.60434502 5.0708447 1509643
-2.5128219 0.60434502 5.0708447 853513
-2.4629753 0.60434502 5.0708447 852489
-2.7578614 0.69068003 5.7952509 3283484
-2.7008936 0.69068003 5.7952509 3873042
-2.6439261 0.69068003 5.7952509 3676431
-2.5869586 0.69068003 5.7952509 3282445
-2.5299909 0.69068003 5.7952509 3807248
-2.4730234 0.69068003 5.7952509 3675663
-2.4160559 0.69068003 5.7952509 3216400
-2.3590882 0.69068003 5.7952509 2953487
-2.3021207 0.69068003 5.7952509 3215626
-2.2451532 0.69068003 5.7952509 4398865
-2.1881855 0.69068003 5.7952509 7160365
-2.131218 0.69068003 5.7952509 8541500
-2.0742505 0.69068003 5.7952509 7819830
-2.0172827 0.69068003 5.7952509 6701098
-1.7152759 0.60434502 5.0708447 7030326
-1.9033476 0.69068003 5.7952509 5781026
-1.84638 0.69068003 5.7952509 4205089
-1.7894125 0.69068003 5.7952509 2493963
-1.7324449 0.69068003 5.7952509 1903627
-1.6754773 0.69068003 5.7952509 1313549
-1.8882613 0.80579334 6.761126 1181705
-3.6435983 1.6115867 13.522252 1967622
-3.510674 1.6115867 13.522252 9264194
-0.18095088 0.086335003 0.72440636 6374714
-0.17078029 0.08482036 0.71169752 6308918
-0.16378428 0.08482036 0.71169752 1114626
-0.16248964 0.087904729 0.73757738 721673
-0.15523921 0.087904729 0.73757738 458757
-0.14534613 0.086335003 0.72440636 524807
-0.13345881 0.08335793 0.69942683 262151
-0.12443794 0.081945091 0.68757218 458757
-0.11382074 0.079258367 0.66502881 262149
-0.10387765 0.076742224 0.64391679 589831
-0.08418519 0.066229597 0.555709 590087
-0.077658728 0.065334596 0.54819942 459014
-0.070368066 0.06361527 0.53377312 590089
-0.065121047 0.06361527 0.53377312 655366
-0.059874035 0.06361527 0.53377312 459016
-0.053917579 0.06278909 0.52684098 590600
-0.043638147 0.056218144 0.47170648 590087
-0.038552962 0.055571958 0.46628457 524294
-0.033969365 0.055571958 0.46628457 721418
-0.029051835 0.054940458 0.46098587 786954
-0.024520323 0.054940458 0.46098587 721416
-0.019988811 0.054940458 0.46098587 524551
-0.015816772 0.056218144 0.47170648 524552
-0.011179876 0.056218144 0.47170648 786696
-0.00632243 0.054323148 0.45580626 4333854
-0.001841834 0.054323148 0.45580626 3807767
0.0026387619 0.054323148 0.45580626 3740950
0.0069628884 0.053129233 0.44578853 3215378
0.011221694 0.052551743 0.440943 3478802
0.015556184 0.052551743 0.440943 3741204
0.019890673 0.052551743 0.440943 3544595
0.024491373 0.053129233 0.44578853 3411985
0.028873496 0.053129233 0.44578853 3609364
0.033625122 0.053719558 0.45074174 4069142
0.038920842 0.054940458 0.46098587 4200980
0.044985969 0.056879532 0.47725597 4134933
0.049677417 0.056879532 0.47725597 3938322
0.055016108 0.05755667 0.48293757 2360069
0.061221052 0.05896049 0.49471655 655882
0.068593666 0.061199497 0.51350325 786696
0.073641419 0.061199497 0.51350325 851973
0.07868918 0.061199497 0.51350325 655367
0.083736941 0.061199497 0.51350325 720903
0.092289366 0.06361527 0.53377312 720902
0.1001725 0.065334596 0.54819942 721414
0.10700736 0.066229597 0.555709 720905
0.1080304 0.06361527 0.53377312 458759
0.11793265 0.066229597 0.555709 458758
0.1233953 0.066229597 0.555709 524296
0.13064764 0.067149453 0.56342721 720903
0.14210728 0.070068985 0.587924 655366
0.17006959 0.080579333 0.67611259 459016
0 0 0 589829
0 0 0 458757
0 0 0 458757
0 0 0 655364
0 0 0 655367
0 0 0 589829
0.32488969 0.12086901 1.014169 720901
0.36200973 0.13066919 1.0963988 589831
0.37278739 0.13066919 1.0963988 589831
0.35479769 0.12086901 1.014169 590085
0.33931813 0.11243629 0.94341296 590087
0.42827007 0.13813601 1.1590502 720903
0.48088205 0.15108626 1.2677112 524294
0 0 0 721159
0 0 0 852486
0.50256193 0.14650787 1.2292956 852489
0.51464599 0.14650787 1.2292956 1049098
0.52673 0.14650787 1.2292956 590087
0.53881401 0.14650787 1.2292956 589829
0.56811363 0.15108626 1.2677112 590087
0.59930354 0.15596001 1.3086051 720903
0.61216718 0.15596001 1.3086051 524294
0.66813642 0.16671586 1.3988537 721158
0 0 0 786696
0 0 0 852231
0 0 0 721158
0 0 0 851976
0 0 0 786952
0.90702474 0.20144834 1.6902815 721158
0.88669467 0.19339041 1.6226703 458756
0.90264559 0.19339041 1.6226703 524294
0.95687139 0.20144834 1.6902815 720903
0.9734869 0.20144834 1.6902815 720903
0.9504984 0.19339041 1.6226703 918023
0.96644932 0.19339041 1.6226703 721157
0.98240024 0.19339041 1.6226703 393221
0.95995307 0.18595232 1.5602599 655368
0.97529048 0.18595232 1.5602599 3677212
0.99062788 0.18595232 1.5602599 4137241
1.046204 0.19339041 1.6226703 4137242
1.0621549 0.19339041 1.6226703 3940122
1.0781058 0.19339041 1.6226703 3743256
1.1396424 0.20144834 1.6902815 2035470
1.20653 0.21020697 1.763772 2691348
1.2794983 0.21976183 1.8439435 2035988
1.2976243 0.21976183 1.8439435 2626838
1.3157504 0.21976183 1.8439435 3086874
1.3338765 0.21976183 1.8439435 3217690
1.3520025 0.21976183 1.8439435 3216401
1.3701285 0.21976183 1.8439435 3874328
1.3882545 0.21976183 1.8439435 4136984
1.4063807 0.21976183 1.8439435 4071457
1.4245067 0.21976183 1.8439435 4136730
1.4426327 0.21976183 1.8439435 4466208
1.4607588 0.21976183 1.8439435 4795430
1.4788848 0.21976183 1.8439435 5058344
1.4319234 0.21020697 1.763772 4993322
1.3888755 0.20144834 1.6902815 4468784
1.4665993 0.21020697 1.763772 3216665
1.551389 0.21976183 1.8439435 2822674
1.5695151 0.21976183 1.8439435 1246473
1.5876411 0.21976183 1.8439435 786696
1.6057671 0.21976183 1.8439435 786952
1.6238931 0.21976183 1.8439435 918792
1.6420193 0.21976183 1.8439435 787720
1.7391998 0.23022668 1.9317503 918536
1.758189 0.23022668 1.9317503 786950
1.6963974 0.21976183 1.8439435 786950
1.7145234 0.21976183 1.8439435 786951
1.6573169 0.21020697 1.763772 786951
1.6746548 0.21020697 1.763772 721671
1.6214931 0.20144834 1.6902815 1640972
1.5725844 0.19339041 1.6226703 4795171
1.5885353 0.19339041 1.6226703 6504751
1.6044862 0.19339041 1.6226703 6506038
1.6879553 0.20144834 1.6902815 6110764
1.7045708 0.20144834 1.6902815 6505264
1.7211864 0.20144834 1.6902815 6046255
1.8133585 0.21020697 1.763772 5715762
1.8306965 0.21020697 1.763772 5780012
1.8480344 0.21020697 1.763772 2233366
1.8653724 0.21020697 1.763772 787468
0 0 0 655881
0 0 0 655623
0 0 0 721160
1.8541107 0.20144834 1.6902815 721417
1.8707262 0.20144834 1.6902815 786695
2.2648103 0.24173802 2.028338 983559
2.284749 0.24173802 2.028338 1049096
2.8808594 0.30217251 2.5354223 983305
2.7348542 0.28439766 2.3862798 655366
1.8756518 0.19339041 1.6226703 721673
1.8916028 0.19339041 1.6226703 918282
2.9805527 0.30217251 2.5354223 918282
3.2058408 0.32231733 2.7044504 852489
0 0 0 786696
0 0 0 655624
0 0 0 655880
0 0 0 590088
0 0 0 655882
0 0 0 655880
0 0 0 655881
0 0 0 787466
0 0 0 787208
0 0 0 984328
0 0 0 2956568
0 0 0 853259
0 0 0 1246992
-9.6830931 1.0467067 8.1133518 2891304
-9.6033382 1.0467067 8.1133518 9659995
-9.5235834 1.0467067 8.1133518 10448462
-9.4438286 1.0467067 8.1133518 10579790
-9.3640747 1.0467067 8.1133518 10711377
-9.2843199 1.0467067 8.1133518 10579536
-5.7528529 0.65419167 5.0708447 10842196
-5.0693393 0.58150375 4.5074177 10579538
-5.0250311 0.58150375 4.5074177 10711378
-4.9807229 0.58150375 4.5074177 10515024
-4.9364147 0.58150375 4.5074177 10712403
-4.4028959 0.52335334 4.0566759 10842962
-3.9663804 0.47577575 3.687887 11039571
-3.9301283 0.47577575 3.687887 10842962
-3.2948184 0.40257949 3.1205199 11105104
-3.2641437 0.40257949 3.1205199 10842959
-3.2334688 0.40257949 3.1205199 11170896
-3.4696932 0.43612778 3.380563 10645835
-4.123755 0.52335334 4.0566759 6701093
-4.0838776 0.52335334 4.0566759 5649444
-3.3699999 0.43612778 3.380563 1443845
-3.3367689 0.43612778 3.380563 1049352
-3.6038594 0.47577575 3.687887 1181454
-3.9243684 0.52335334 4.0566759 3020054
-4.3161011 0.58150375 4.5074177 3283222
-4.2717929 0.58150375 4.5074177 3479572
-4.7559204 0.65419167 5.0708447 3479830
-4.7060738 0.65419167 5.0708447 3677208
-4.6562271 0.65419167 5.0708447 3611157
-4.6063805 0.65419167 5.0708447 3479570
-4.5565338 0.65419167 5.0708447 3611411
-5.1504993 0.74764758 5.7952509 3741459
-5.9424539 0.87225556 6.761126 3741972
-5.0365644 0.74764758 5.7952509 3545363
-3.485718 0.52335334 4.0566759 3348497
-3.4458406 0.52335334 4.0566759 3282452
-3.7844038 0.58150375 4.5074177 2494223
-3.7400956 0.58150375 4.5074177 852744
-3.6957874 0.58150375 4.5074177 590598
-3.6514795 0.58150375 4.5074177 721416
-3.6071713 0.58150375 4.5074177 721160
-3.5628631 0.58150375 4.5074177 721159
-3.5185549 0.58150375 4.5074177 917766
-3.1268222 0.52335334 4.0566759 918282
-2.572454 0.43612778 3.380563 1049354
-2.5392227 0.43612778 3.380563 984329
-2.5059917 0.43612778 3.380563 852743
-2.6975572 0.47577575 3.687887 1049866
-3.2527063 0.58150375 4.5074177 1180680
-2.8875585 0.52335334 4.0566759 1050121
-3.1640902 0.58150375 4.5074177 1115915
-3.119782 0.58150375 4.5074177 984329
-3.0754738 0.58150375 4.5074177 1049352
-3.4100614 0.65419167 5.0708447 1115147
-3.3602147 0.65419167 5.0708447 984076
-3.3103681 0.65419167 5.0708447 918539
-3.2605214 0.65419167 5.0708447 1444109
-3.2106748 0.65419167 5.0708447 1772815
-3.1608281 0.65419167 5.0708447 1903629
-3.1109815 0.65419167 5.0708447 1246728
-2.721009 0.58150375 4.5074177 458757
-2.6767008 0.58150375 4.5074177 655368
-2.9614415 0.65419167 5.0708447 393477
-2.9115949 0.65419167 5.0708447 590087
-3.2705696 0.74764758 5.7952509 918536
-2.8119018 0.65419167 5.0708447 1312779
-3.1566343 0.74764758 5.7952509 918536
-2.7122085 0.65419167 5.0708447 983816
-2.6623619 0.65419167 5.0708447 852486
-2.6125152 0.65419167 5.0708447 655880
-2.5626686 0.65419167 5.0708447 721158
-2.8717964 0.74764758 5.7952509 918023
-2.4629753 0.65419167 5.0708447 720900
-2.4131286 0.65419167 5.0708447 1246728
-2.1006951 0.58150375 4.5074177 1442823
-2.6439261 0.74764758 5.7952509 1968909
-2.5869586 0.74764758 5.7952509 3151636
-2.5299909 0.74764758 5.7952509 3480085
-2.4730234 0.74764758 5.7952509 3479572
-2.4160559 0.74764758 5.7952509 3216913
-2.3590882 0.74764758 5.7952509 3347732
-2.3021207 0.74764758 5.7952509 3216402
-2.2451532 0.74764758 5.7952509 3413779
-2.1881855 0.74764758 5.7952509 3610901
-2.4864209 0.87225556 6.761126 8080951
-1.8149691 0.65419167 5.0708447 7554865
-2.0172827 0.74764758 5.7952509 3611409
-1.7152759 0.65419167 5.0708447 5651258
-1.9033476 0.74764758 5.7952509 2297864
-1.84638 0.74764758 5.7952509 2885643
-1.7894125 0.74764758 5.7952509 1115658
-2.0211856 0.87225556 6.761126 983558
-1.9547236 0.87225556 6.761126 984329
-1.8882613 0.87225556 6.761126 5120541
-3.6435983 1.7445111 13.522252 1509384
-3.510674 1.7445111 13.522252 9001539
-0.19119337 0.098745905 0.76541048 7162431
-0.18366936 0.098745905 0.76541048 6374969
-0.16378428 0.091816381 0.71169752 917764
-0.15678826 0.091816381 0.71169752 918025
-0.15246709 0.093455948 0.72440636 720903
-0.14279622 0.091816381 0.71169752 393220
-0.1358002 0.091816381 0.71169752 590087
-0.12880418 0.091816381 0.71169752 393222
-0.11767907 0.08870396 0.68757218 327685
-0.10728347 0.085795626 0.66502881 655882
-0.085354432 0.072687969 0.56342721 655882
-0.078722544 0.071692236 0.555709 786696
-0.070368066 0.068862282 0.53377312 786696
-0.065121047 0.068862282 0.53377312 524296
-0.059096448 0.067967966 0.52684098 720903
-0.053917579 0.067967966 0.52684098 524294
-0.04633186 0.064611524 0.50082415 786954
-0.038552962 0.060155556 0.46628457 458757
-0.033969365 0.060155556 0.46628457 655880
-0.029051835 0.059471969 0.46098587 918024
-0.025090564 0.060855038 0.47170648 786951
-0.020453667 0.060855038 0.47170648 655365
-0.015816772 0.060855038 0.47170648 655365
-0.011179876 0.060855038 0.47170648 721160
-0.0064677736 0.060155556 0.46628457 4202782
-0.001841834 0.058803745 0.45580626 3479833
0.0026387619 0.058803745 0.45580626 3216148
0.0071193581 0.058803745 0.45580626 3477265
0.011345009 0.057511356 0.44578853 3281423
0.015727131 0.057511356 0.44578853 3675411
0.020109253 0.057511356 0.44578853 3478548
0.0247635 0.05815037 0.45074174 3675411
0.029194312 0.05815037 0.45074174 3806484
0.033625122 0.05815037 0.45074174 4003349
0.038920842 0.059471969 0.46098587 4003599
0.044985969 0.06157098 0.47725597 3806482
0.049677417 0.06157098 0.47725597 3806482
0.055016108 0.062303968 0.48293757 2163973
0.062751584 0.065419167 0.50708449 655880
0.068593666 0.066247255 0.51350325 720905
0.073641419 0.066247255 0.51350325 590087
0.07868918 0.066247255 0.51350325 655880
0.082690239 0.065419167 0.50708449 590087
0.089922972 0.067096584 0.52008665 589831
0.10154472 0.071692236 0.555709 720903
0 0 0 458757
0 0 0 720903
0 0 0 655366
0 0 0 720903
0 0 0 655366
0 0 0 787206
0 0 0 1246470
0 0 0 1180676
0 0 0 1902087
0 0 0 2690826
0 0 0 2888208
0 0 0 2034184
0 0 0 1640455
0 0 0 1706250
0.36200973 0.14144684 1.0963988 1245959
0.37278739 0.14144684 1.0963988 1114888
0.38356504 0.14144684 1.0963988 720902
0.40529668 0.14537594 1.1268544 852489
0.46842039 0.16354792 1.2677112 786698
0 0 0 721413
0 0 0 918279
0 0 0 721159
0 0 0 918282
0 0 0 1049868
0.57940298 0.1744511 1.3522252 983302
0.59269542 0.1744511 1.3522252 852230
0.60598785 0.1744511 1.3522252 786438
0.64063483 0.18046667 1.3988537 786696
0.65438563 0.18046667 1.3988537 917766
0.66813642 0.18046667 1.3988537 786696
0.68188721 0.18046667 1.3988537 786952
0.695638 0.18046667 1.3988537 852489
0.7347241 0.1869119 1.4488127 721160
0.87379366 0.21806389 1.6902815 589830
0.89040917 0.21806389 1.6902815 721157
0.87074375 0.20934133 1.6226703 852744
0.76439196 0.18046667 1.3988537 917509
0.90264559 0.20934133 1.6226703 590341
0.91859657 0.20934133 1.6226703 1181451
0.93454748 0.20934133 1.6226703 1509645
0.91394079 0.20128974 1.5602599 1509645
0.92927819 0.20128974 1.5602599 1049352
0.9446156 0.20128974 1.5602599 524294
0.92439926 0.19383457 1.5024725 786696
1.014302 0.20934133 1.6226703 3808792
0.99062788 0.20128974 1.5602599 4070677
1.046204 0.20934133 1.6226703 4005144
1.0621549 0.20934133 1.6226703 4005914
1.1230268 0.21806389 1.6902815 3677463
1.1396424 0.21806389 1.6902815 3414810
1.20653 0.22754492 1.763772 2363154
1.2794983 0.23788787 1.8439435 2035215
1.2976243 0.23788787 1.8439435 2035217
1.3157504 0.23788787 1.8439435 1575436
1.22272 0.21806389 1.6902815 1574664
1.2393357 0.21806389 1.6902815 1772302
1.3105577 0.22754492 1.763772 2888466
1.3882545 0.23788787 1.8439435 3348497
1.3452337 0.22754492 1.763772 3808279
1.3625716 0.22754492 1.763772 3611157
1.3799095 0.22754492 1.763772 3611158
1.3972476 0.22754492 1.763772 3808280
1.4145855 0.22754492 1.763772 3807767
1.4319234 0.22754492 1.763772 3676697
1.4492614 0.22754492 1.763772 3940123
1.4665993 0.22754492 1.763772 2888721
1.551389 0.23788787 1.8439435 2166030
1.5695151 0.23788787 1.8439435 1575436
1.5876411 0.23788787 1.8439435 1443850
1.6057671 0.23788787 1.8439435 1509643
1.6238931 0.23788787 1.8439435 1837836
1.5706271 0.22754492 1.763772 2297873
1.587965 0.22754492 1.763772 2561044
1.6782713 0.23788787 1.8439435 2561045
1.6963974 0.23788787 1.8439435 2364179
1.6399789 0.22754492 1.763772 2429975
1.6573169 0.22754492 1.763772 2364182
1.6746548 0.22754492 1.763772 2167573
1.5566334 0.20934133 1.6226703 2232853
1.5725844 0.20934133 1.6226703 3611419
1.5885353 0.20934133 1.6226703 5648939
1.6044862 0.20934133 1.6226703 5453101
1.6204371 0.20934133 1.6226703 5715502
1.7045708 0.21806389 1.6902815 6242361
1.7211864 0.21806389 1.6902815 5979444
1.7378019 0.21806389 1.6902815 5649451
1.8306965 0.22754492 1.763772 5189674
1.7710329 0.21806389 1.6902815 2298646
1.8653724 0.22754492 1.763772 984333
1.8827103 0.22754492 1.763772 787466
0 0 0 786952
0 0 0 1049868
1.9347242 0.22754492 1.763772 1050123
1.9520621 0.22754492 1.763772 1115915
2.2648103 0.26167667 2.028338 918536
6.5278535 0.74764758 5.7952509 786950
7.6822915 0.87225556 6.761126 852232
7.7487535 0.87225556 6.761126 786696
2.930706 0.32709584 2.5354223 852232
3.1526711 0.3489022 2.7044504 983560
3.179256 0.3489022 2.7044504 918023
3.6990473 0.40257949 3.1205199 786696
0 0 0 721673
0 0 0 655623
0 0 0 786439
0 0 0 917766
0 0 0 786696
0 0 0 852743
0 0 0 655880
0 0 0 983818
0 0 0 983561
0 0 0 918539
0 0 0 1640972
0 0 0 918284
0 0 0 1181456
-9.6830931 1.1264614 8.1133518 2760238
-9.6033382 1.1264614 8.1133518 9265754
-9.5235834 1.1264614 8.1133518 10381385
-23.609571 2.8161533 20.283379 10513741
-23.410185 2.8161533 20.283379 10513740
-9.2843199 1.1264614 8.1133518 10645329
-7.6704702 0.93871772 6.761126 10645587
-5.7030063 0.70403832 5.0708447 10973265
-5.6531596 0.70403832 5.0708447 10579792
-4.4826508 0.56323069 4.0566759 10646101
-4.4427733 0.56323069 4.0566759 10777171
-4.0026326 0.51202786 3.687887 10842964
-3.6358488 0.46935886 3.380563 10842194
-3.3254933 0.43325436 3.1205199 10907472
-3.0594742 0.4023076 2.8976254 10907472
-3.2641437 0.43325436 3.1205199 10514769
-3.2334688 0.43325436 3.1205199 10515023
-3.4696932 0.46935886 3.380563 10382406
-3.4364622 0.46935886 3.380563 6898214
-3.4032311 0.46935886 3.380563 5452579
-3.3699999 0.46935886 3.380563 1772295
-3.3367689 0.46935886 3.380563 984329
-3.3035378 0.46935886 3.380563 1050122
-3.9243684 0.56323069 4.0566759 3085850
-3.884491 0.56323069 4.0566759 3415060
-4.2717929 0.62581187 4.5074177 3480083
-4.7559204 0.70403832 5.0708447 3414290
-4.7060738 0.70403832 5.0708447 3545624
-4.6562271 0.70403832 5.0708447 3480085
-4.6063805 0.70403832 5.0708447 3414035
-4.5565338 0.70403832 5.0708447 3282450
-4.5066872 0.70403832 5.0708447 3217428
-5.0935321 0.8046152 5.7952509 3020821
-3.5255952 0.56323069 4.0566759 3348245
-3.485718 0.56323069 4.0566759 2954511
-3.4458406 0.56323069 4.0566759 2757135
-3.7844038 0.62581187 4.5074177 1311493
-3.7400956 0.62581187 4.5074177 786950
-3.6957874 0.62581187 4.5074177 984075
-4.107914 0.70403832 5.0708447 786696
-3.6071713 0.62581187 4.5074177 786953
-3.5628631 0.62581187 4.5074177 918282
-3.5185549 0.62581187 4.5074177 983817
-3.474247 0.62581187 4.5074177 983817
-2.374573 0.43325436 3.1205199 918279
-2.3438981 0.43325436 3.1205199 983559
-2.5059917 0.46935886 3.380563 918536
-2.4727607 0.46935886 3.380563 984072
-3.2527063 0.62581187 4.5074177 1050122
-3.2083981 0.62581187 4.5074177 1115145
-3.1640902 0.62581187 4.5074177 1115145
-3.119782 0.62581187 4.5074177 918536
-3.0754738 0.62581187 4.5074177 1115144
-3.0311658 0.62581187 4.5074177 984075
-2.9868577 0.62581187 4.5074177 524296
-3.3103681 0.70403832 5.0708447 786698
-3.2605214 0.70403832 5.0708447 1707025
-3.2106748 0.70403832 5.0708447 1904402
-3.612375 0.8046152 5.7952509 1970193
-3.1109815 0.70403832 5.0708447 2035729
-2.721009 0.62581187 4.5074177 786691
-2.6767008 0.62581187 4.5074177 655877
-2.6323926 0.62581187 4.5074177 458757
-2.9115949 0.70403832 5.0708447 786696
-2.8617485 0.70403832 5.0708447 720903
-3.2136018 0.8046152 5.7952509 853257
-2.7620552 0.70403832 5.0708447 786436
-2.7122085 0.70403832 5.0708447 590089
-2.6623619 0.70403832 5.0708447 656137
-2.6125152 0.70403832 5.0708447 983817
-2.5626686 0.70403832 5.0708447 786695
-2.8717964 0.8046152 5.7952509 918280
-2.4629753 0.70403832 5.0708447 1115146
-2.4131286 0.70403832 5.0708447 1115144
-2.1006951 0.62581187 4.5074177 1246473
-2.6439261 0.8046152 5.7952509 1772045
-2.5869586 0.8046152 5.7952509 2822932
-2.5299909 0.8046152 5.7952509 3151378
-2.1638956 0.70403832 5.0708447 3150866
-2.4160559 0.8046152 5.7952509 2887694
-2.3590882 0.8046152 5.7952509 2626321
-2.3021207 0.8046152 5.7952509 3281938
-2.2451532 0.8046152 5.7952509 3479315
-2.1881855 0.8046152 5.7952509 3544595
-2.4864209 0.93871772 6.761126 8408377
-1.8149691 0.70403832 5.0708447 7030578
-2.0172827 0.8046152 5.7952509 4268824
-1.9603152 0.8046152 5.7952509 5650997
-1.9033476 0.8046152 5.7952509 1246209
-1.84638 0.8046152 5.7952509 1704711
-2.0876479 0.93871772 6.761126 4995377
-2.0211856 0.93871772 6.761126 5256229
-1.9547236 0.93871772 6.761126 4531746
-1.8882613 0.93871772 6.761126 983558
-2.7326989 1.4080766 10.141689 1773326
-2.6330056 1.4080766 10.141689 8409917
-0.20680101 0.11494503 0.82789302 3481369
-0.18366936 0.10626993 0.76541048 2562071
-0.16974005 0.10240557 0.73757738 786954
-0.15678826 0.098812394 0.71169752 852491
-0.15246709 0.1005769 0.72440636 590086
-0.14279622 0.098812394 0.71169752 393222
-0.1358002 0.098812394 0.71169752 655368
-0.12658341 0.097108729 0.69942683 589831
-0.11767907 0.095462821 0.68757218 131079
-0.11092021 0.095462821 0.68757218 656395
-0.093113922 0.085337974 0.61464781 655366
-0.077658728 0.076112248 0.54819942 524552
-0.070368066 0.074109294 0.53377312 786696
-0.065121047 0.074109294 0.53377312 590087
-0.059096448 0.073146835 0.52684098 393223
-0.053917579 0.073146835 0.52684098 590089
-0.04750482 0.071295016 0.51350325 590087
-0.039001253 0.065491937 0.47170648 393223
-0.034364354 0.065491937 0.47170648 590090
-0.029727459 0.065491937 0.47170648 918282
-0.025090564 0.065491937 0.47170648 786698
-0.021192957 0.067859113 0.48875612 721160
-0.016588321 0.068686664 0.49471655 590087
-0.011725236 0.068686664 0.49471655 590088
-0.0065429802 0.065491937 0.47170648 2165262
-0.0018841751 0.064739153 0.46628457 3741722
0.0026387619 0.063284338 0.45580626 3281171
0.0071193581 0.063284338 0.45580626 3216148
0.011599954 0.063284338 0.45580626 3346962
0.015901877 0.062581182 0.45074174 3281941
0.020332688 0.062581182 0.45074174 3543571
0.0247635 0.062581182 0.45074174 3412755
0.029522337 0.063284338 0.45580626 3610134
0.034389332 0.064003482 0.46098587 3806484
0.040294521 0.066262431 0.47725597 3872790
0.044985969 0.066262431 0.47725597 4266519
0.049677417 0.066262431 0.47725597 3806230
0.055016108 0.067051262 0.48293757 2360067
0.061976869 0.069534644 0.50082415 590089
0 0 0 721675
0 0 0 851975
0 0 0 786441
0.083736941 0.071295016 0.51350325 655366
0.096082076 0.077154882 0.555709 590089
0.10295507 0.078226484 0.56342721 983305
0 0 0 720905
0 0 0 786698
0 0 0 1378061
0 0 0 4530205
0 0 0 9188645
0 0 0 10565408
0 0 0 11026729
0 0 0 11222052
0 0 0 11485735
0 0 0 11419689
0 0 0 11419945
0 0 0 11420200
0 0 0 11617581
0 0 0 11355180
0 0 0 11224366
0.38314262 0.15645297 1.1268544 11421488
0.39421964 0.15645297 1.1268544 11094837
0.44214177 0.17067595 1.2292956 10897203
0.45422581 0.17067595 1.2292956 10896949
0.48088205 0.17600958 1.2677112 10437425
0 0 0 9782066
0 0 0 9651252
0 0 0 8863282
0 0 0 8074793
0 0 0 5777695
0 0 0 4990492
0 0 0 4529943
0 0 0 3873556
0 0 0 3283734
0.66813642 0.19421746 1.3988537 2495248
0.68188721 0.19421746 1.3988537 2363407
0.695638 0.19421746 1.3988537 2232595
0.7347241 0.2011538 1.4488127 2233110
0.87379366 0.23467943 1.6902815 2232084
0 0 0 918282
0 0 0 1969168
0.88669467 0.22529225 1.6226703 1773074
0.90264559 0.22529225 1.6226703 918535
0.91859657 0.22529225 1.6226703 1772815
0.89860338 0.21662718 1.5602599 1575436
0.91394079 0.21662718 1.5602599 1444110
0.92927819 0.21662718 1.5602599 786439
0.9446156 0.21662718 1.5602599 524293
0.99835116 0.22529225 1.6226703 787721
1.014302 0.22529225 1.6226703 3874585
1.0302529 0.22529225 1.6226703 4333336
1.046204 0.22529225 1.6226703 4202522
1.0621549 0.22529225 1.6226703 4202523
1.1230268 0.23467943 1.6902815 4269340
1.1396424 0.23467943 1.6902815 4137754
1.1562579 0.23467943 1.6902815 4203293
1.1728734 0.23467943 1.6902815 4006427
1.189489 0.23467943 1.6902815 3874843
1.2061045 0.23467943 1.6902815 2494479
1.22272 0.23467943 1.6902815 1377543
1.2393357 0.23467943 1.6902815 917765
1.2559512 0.23467943 1.6902815 1180164
1.3278956 0.24488288 1.763772 3152405
1.3452337 0.24488288 1.763772 3217680
1.3625716 0.24488288 1.763772 3808537
1.3224133 0.23467943 1.6902815 4465949
1.3390288 0.23467943 1.6902815 4465695
1.4145855 0.24488288 1.763772 4465436
1.4319234 0.24488288 1.763772 4202523
1.4492614 0.24488288 1.763772 4136730
1.4665993 0.24488288 1.763772 3676949
1.551389 0.25601393 1.8439435 3348505
1.5695151 0.25601393 1.8439435 2363155
1.5876411 0.25601393 1.8439435 2297876
1.6057671 0.25601393 1.8439435 2363410
1.6238931 0.25601393 1.8439435 2363666
1.5706271 0.24488288 1.763772 2429457
1.587965 0.24488288 1.763772 2560530
1.605303 0.24488288 1.763772 2692114
1.622641 0.24488288 1.763772 2560530
1.6399789 0.24488288 1.763772 2494737
1.6573169 0.24488288 1.763772 2822932
1.6048776 0.23467943 1.6902815 2692116
1.5566334 0.22529225 1.6226703 3020566
1.5725844 0.22529225 1.6226703 3479831
1.6547242 0.23467943 1.6902815 4268060
1.6713398 0.23467943 1.6902815 3611671
1.6204371 0.22529225 1.6226703 3676696
1.7045708 0.23467943 1.6902815 3872789
1.7211864 0.23467943 1.6902815 3742746
1.7378019 0.23467943 1.6902815 3742492
1.7544174 0.23467943 1.6902815 3741722
1.7710329 0.23467943 1.6902815 2494225
1.8653724 0.24488288 1.763772 2297361
1.8827103 0.24488288 1.763772 2626324
0 0 0 2429715
0 0 0 2232851
2.4721477 0.31290594 2.2537088 2298901
1.9520621 0.24488288 1.763772 2232852
2.6644826 0.33131215 2.3862798 2232594
9.1389961 1.1264614 8.1133518 2298132
0 0 0 2035987
0 0 0 2102039
0 0 0 2101012
0 0 0 2101012
5.9611053 0.70403832 5.0708447 1904404
0 0 0 1970196
0 0 0 1641488
0 0 0 1641745
9.8567877 1.1264614 8.1133518 1575696
9.9365416 1.1264614 8.1133518 1312524
0 0 0 1246730
0 0 0 1246476
0 0 0 1180681
0 0 0 983817
0 0 0 984075
0 0 0 1049868
0 0 0 1969424
0 0 0 1246476
0 0 0 919054
-9.6830931 1.206216 8.1133518 2694444
-9.6033382 1.206216 8.1133518 8806750
0 0 0 10185552
0 0 0 10381643
0 0 0 10710608
-9.2843199 1.206216 8.1133518 10776401
-9.204565 1.206216 8.1133518 10842193
-9.1248102 1.206216 8.1133518 10645070
-5.6531596 0.75388491 5.0708447 10777169
-4.9807229 0.67011994 4.5074177 10711891
-3.7023108 0.50258994 3.380563 10711123
-3.1449256 0.43079138 2.8976254 10711380
-2.908679 0.40207195 2.7044504 10776400
-3.0879579 0.43079138 2.8976254 10842446
-3.0594742 0.43079138 2.8976254 10646868
-3.2641437 0.46392921 3.1205199 10907985
-3.2334688 0.46392921 3.1205199 10646607
-3.2027938 0.46392921 3.1205199 10381893
-3.4364622 0.50258994 3.380563 7292202
-3.4032311 0.50258994 3.380563 5451809
-3.3699999 0.50258994 3.380563 1969161
-3.3367689 0.50258994 3.380563 984075
-3.6038594 0.54827994 3.687887 1377549
-3.5676074 0.54827994 3.687887 2560277
-3.884491 0.60310799 4.0566759 3020307
-4.2717929 0.67011994 4.5074177 3085586
-4.2274847 0.67011994 4.5074177 3151636
-4.183177 0.67011994 4.5074177 3216659
-4.6562271 0.75388491 5.0708447 3020050
-4.0945606 0.67011994 4.5074177 3085843
-4.5565338 0.75388491 5.0708447 3020307
-4.5066872 0.75388491 5.0708447 3086102
-3.9616363 0.67011994 4.5074177 2888721
-3.5255952 0.60310799 4.0566759 2888722
-3.1688342 0.54827994 3.687887 2757394
-3.1325822 0.54827994 3.687887 2494222
-3.7844038 0.67011994 4.5074177 1509130
-3.7400956 0.67011994 4.5074177 1246730
-4.1577606 0.75388491 5.0708447 1246730
-4.107914 0.75388491 5.0708447 1115145
-4.0580673 0.75388491 5.0708447 983816
-4.0082207 0.75388491 5.0708447 1180427
-3.5185549 0.67011994 4.5074177 918282
-3.1268222 0.60310799 4.0566759 1114888
-2.374573 0.46392921 3.1205199 721416
-2.5392227 0.50258994 3.380563 721158
-2.5059917 0.50258994 3.380563 458755
-2.9673131 0.60310799 4.0566759 852746
-3.2527063 0.67011994 4.5074177 1049609
-3.2083981 0.67011994 4.5074177 1246731
-3.1640902 0.67011994 4.5074177 918279
-3.5097547 0.75388491 5.0708447 918536
-3.0754738 0.67011994 4.5074177 984071
-3.0311658 0.67011994 4.5074177 1115915
-2.9868577 0.67011994 4.5074177 1049868
-2.9425495 0.67011994 4.5074177 917769
-3.2605214 0.75388491 5.0708447 1838868
-3.2106748 0.75388491 5.0708447 1970194
-3.1608281 0.75388491 5.0708447 2035217
-3.1109815 0.75388491 5.0708447 2035729
-3.0611348 0.75388491 5.0708447 2298387
-2.6767008 0.67011994 4.5074177 2429715
-2.9614415 0.75388491 5.0708447 2363921
-2.9115949 0.75388491 5.0708447 2035728
-2.8617485 0.75388491 5.0708447 1837838
-3.2136018 0.86158276 5.7952509 656136
-2.7620552 0.75388491 5.0708447 590600
-2.7122085 0.75388491 5.0708447 1707024
-2.6623619 0.75388491 5.0708447 1970195
-2.9857316 0.86158276 5.7952509 1574666
-2.5626686 0.75388491 5.0708447 983305
-2.8717964 0.86158276 5.7952509 983816
-2.8148289 0.86158276 5.7952509 1509901
-2.7578614 0.86158276 5.7952509 1443079
-2.363282 0.75388491 5.0708447 983816
-2.3134353 0.75388491 5.0708447 1641231
-2.2635887 0.75388491 5.0708447 2626069
-2.2137423 0.75388491 5.0708447 3020053
-2.1638956 0.75388491 5.0708447 3677722
-2.114049 0.75388491 5.0708447 4398619
-2.0642023 0.75388491 5.0708447 4727838
-2.3021207 0.86158276 5.7952509 5253919
-2.2451532 0.86158276 5.7952509 5648933
-2.1881855 0.86158276 5.7952509 6172706
-1.8648157 0.75388491 5.0708447 3413261
-1.8149691 0.75388491 5.0708447 4072220
-2.0172827 0.86158276 5.7952509 5057054
-1.9603152 0.86158276 5.7952509 5846055
-1.9033476 0.86158276 5.7952509 1246982
-2.15411 1.0051799 6.761126 1246987
-2.0876479 1.0051799 6.761126 5257518
-2.0211856 1.0051799 6.761126 5189926
-1.9547236 1.0051799 6.761126 3085847
-2.2659137 1.206216 8.1133518 919049
-2.1861591 1.206216 8.1133518 2493963
-2.1064045 1.206216 8.1133518 7554866
-0.20680101 0.12308326 0.82789302 7229499
-0.19866279 0.12308326 0.82789302 6045231
-0.16974005 0.10965598 0.73757738 721672
-0.15958804 0.10769784 0.72440636 852490
-0.15246709 0.10769784 0.72440636 721159
-0.14279622 0.10580841 0.71169752 589829
-0.1358002 0.10580841 0.71169752 655880
-0.12443794 0.10222169 0.68757218 589831
-0.11767907 0.10222169 0.68757218 393221
-0.11092021 0.10222169 0.68757218 590089
-0.10074621 0.098870158 0.66502881 655366
-0.084510967 0.088692345 0.59656996 327685
-0.071306303 0.080414392 0.5408901 590087
-0.065121047 0.079356305 0.53377312 524292
-0.059096448 0.078325704 0.52684098 590089
-0.053226329 0.077321537 0.52008665 720903
-0.04750482 0.076342776 0.51350325 852489
-0.042457059 0.076342776 0.51350325 590088
-0.036485612 0.074457772 0.50082415 655623
-0.030077195 0.070953876 0.47725597 918282
-0.025997452 0.072663605 0.48875612 721418
-0.021451408 0.073549747 0.49471655 655368
-0.016588321 0.073549747 0.49471655 721158
-0.011725236 0.073549747 0.49471655 720904
-0.0067794733 0.072663605 0.48875612 917512
-0.0019060841 0.070128828 0.47170648 3610906
0.0026387619 0.067764938 0.45580626 3282456
0.0071193581 0.067764938 0.45580626 3149841
0.011599954 0.067764938 0.45580626 3084562
0.016080549 0.067764938 0.45580626 3281169
0.020561146 0.067764938 0.45580626 3347216
0.025041742 0.067764938 0.45580626 3346962
0.029857818 0.068534993 0.46098587 3806997
0.035603072 0.070953876 0.47725597 3806484
0.040294521 0.070953876 0.47725597 4003349
0.044985969 0.070953876 0.47725597 4068879
0.05026881 0.071798563 0.48293757 3741972
0.057053745 0.074457772 0.50082415 3149583
0.062751584 0.075388499 0.50708449 786696
0 0 0 852489
0 0 0 590087
0 0 0 852489
0 0 0 984075
0 0 0 1904404
0 0 0 4334627
0 0 0 9058861
0 0 0 10828328
0 0 0 11156261
0 0 0 11681318
0 0 0 11812904
0 0 0 11616808
0 0 0 12009767
0 0 0 12141866
0 0 0 11878951
0 0 0 11748135
0 0 0 12010538
0 0 0 12012333
0 0 0 12338987
0 0 0 12010793
0 0 0 11879208
0.41797373 0.18275997 1.2292956 12075815
0.40548304 0.17231655 1.1590502 12077613
0.44214177 0.18275997 1.2292956 12208168
0.45422581 0.18275997 1.2292956 11553584
0.615529 0.24124318 1.6226703 11552042
0 0 0 11225392
0 0 0 11094578
0 0 0 11289131
0 0 0 10438185
0 0 0 10438186
0 0 0 11094059
0 0 0 11028012
0 0 0 10765871
0 0 0 10831149
0 0 0 10962222
0.68188721 0.20796825 1.3988537 10700591
0.695638 0.20796825 1.3988537 10439220
0.76193613 0.22337332 1.5024725 9980215
0.87379366 0.25129497 1.6902815 9324083
0.89040917 0.25129497 1.6902815 8536373
0.90702474 0.25129497 1.6902815 7683631
0.88669467 0.24124318 1.6226703 5909282
0.90264559 0.24124318 1.6226703 4530203
0.82017547 0.21539569 1.4488127 3215628
0.86532176 0.22337332 1.5024725 2361861
0.88009113 0.22337332 1.5024725 1574406
0.92927819 0.2319646 1.5602599 1246727
0.98240024 0.24124318 1.6226703 983559
0.99835116 0.24124318 1.6226703 1707535
1.014302 0.24124318 1.6226703 4597277
1.0302529 0.24124318 1.6226703 4793629
1.046204 0.24124318 1.6226703 4728093
1.0621549 0.24124318 1.6226703 4465695
1.0781058 0.24124318 1.6226703 4531488
1.1396424 0.25129497 1.6902815 4662304
1.1562579 0.25129497 1.6902815 4202523
1.1728734 0.25129497 1.6902815 4267803
1.189489 0.25129497 1.6902815 4136987
1.2061045 0.25129497 1.6902815 4070680
1.22272 0.25129497 1.6902815 4070424
1.2393357 0.25129497 1.6902815 4070682
1.2559512 0.25129497 1.6902815 4202267
1.2725667 0.25129497 1.6902815 4728349
1.2891822 0.25129497 1.6902815 4794142
1.3057978 0.25129497 1.6902815 4991520
1.3224133 0.25129497 1.6902815 4991521
1.3390288 0.25129497 1.6902815 4991521
1.3556443 0.25129497 1.6902815 4925986
1.37226 0.25129497 1.6902815 4269342
1.4492614 0.26222083 1.763772 4138786
1.4665993 0.26222083 1.763772 3415577
1.551389 0.27413997 1.8439435 2561558
1.5695151 0.27413997 1.8439435 1509390
1.5876411 0.27413997 1.8439435 1246477
1.6057671 0.27413997 1.8439435 1772815
1.6238931 0.27413997 1.8439435 3152665
1.5706271 0.26222083 1.763772 3545623
1.587965 0.26222083 1.763772 3414293
1.605303 0.26222083 1.763772 3414808
1.6963974 0.27413997 1.8439435 3414808
1.6399789 0.26222083 1.763772 3282710
1.6573169 0.26222083 1.763772 3086358
1.5406824 0.24124318 1.6226703 2889236
1.5566334 0.24124318 1.6226703 3283480
1.6381086 0.25129497 1.6902815 3809566
1.6547242 0.25129497 1.6902815 4268573
1.6713398 0.25129497 1.6902815 4137500
1.6879553 0.25129497 1.6902815 4269086
1.7045708 0.25129497 1.6902815 4137244
1.7211864 0.25129497 1.6902815 4070938
1.7378019 0.25129497 1.6902815 4268575
1.7544174 0.25129497 1.6902815 4202525
1.8480344 0.26222083 1.763772 3349015
1.8653724 0.26222083 1.763772 2889236
1.8827103 0.26222083 1.763772 2823444
1.9864142 0.27413997 1.8439435 2954516
2.0045402 0.27413997 1.8439435 3086102
2.0226662 0.27413997 1.8439435 3086102
2.4943018 0.33505997 2.2537088 2954516
2.5164559 0.33505997 2.2537088 3086100
5.7118721 0.75388491 5.0708447 3151638
6.5848212 0.86158276 5.7952509 3151638
0 0 0 3151893
0 0 0 3020822
0 0 0 2955030
0 0 0 2823703
0 0 0 3020824
8.0810642 1.0051799 6.761126 2823702
9.7770329 1.206216 8.1133518 2955032
0 0 0 2888725
0 0 0 2757907
0 0 0 2627091
0 0 0 2495507
0 0 0 2627606
0 0 0 2824729
0 0 0 2824473
0 0 0 3021081
0 0 0 3350555
0 0 0 1772043
0 0 0 1509905
-9.6830931 1.2859706 8.1133518 2628650
0 0 0 8084310
0 0 0 10382930
0 0 0 10316624
0 0 0 10579023
0 0 0 10710866
-9.204565 1.2859706 8.1133518 10448208
-9.1248102 1.2859706 8.1133518 10448465
-7.5375462 1.071642 6.761126 10645584
-5.603313 0.80373156 5.0708447 10777426
-3.4175179 0.49460405 3.1205199 10514769
-2.7518098 0.40186578 2.5354223 10580562
-2.7268865 0.40186578 2.5354223 10777423
-2.7019632 0.40186578 2.5354223 10843216
-2.855509 0.42865682 2.7044504 10908243
-3.8576241 0.58453202 3.687887 11104851
-3.2334688 0.49460405 3.1205199 10777681
-2.9740229 0.45927516 2.8976254 10381378
-3.1721191 0.49460405 3.1205199 7292198
-3.4032311 0.53582102 3.380563 5517854
-3.6763637 0.58453202 3.687887 2428425
-3.6401114 0.58453202 3.687887 852743
-3.6038594 0.58453202 3.687887 1246731
-3.5676074 0.58453202 3.687887 2494485
-3.5313554 0.58453202 3.687887 3019280
-3.8446138 0.64298528 4.0566759 2822928
-4.2274847 0.71442807 4.5074177 2888208
-4.183177 0.71442807 4.5074177 2888722
-4.1388688 0.71442807 4.5074177 2888466
-4.0945606 0.71442807 4.5074177 3086103
-4.0502524 0.71442807 4.5074177 3217690
-4.0059443 0.71442807 4.5074177 2890011
-3.9616363 0.71442807 4.5074177 2559506
-3.5255952 0.64298528 4.0566759 2560530
-3.485718 0.64298528 4.0566759 2559759
-3.4458406 0.64298528 4.0566759 2428687
-3.7844038 0.71442807 4.5074177 1772557
-3.7400956 0.71442807 4.5074177 1312264
-4.1577606 0.80373156 5.0708447 1049609
-4.107914 0.80373156 5.0708447 1115915
-4.0580673 0.80373156 5.0708447 852488
-4.0082207 0.80373156 5.0708447 786696
-3.5185549 0.71442807 4.5074177 787720
-3.1268222 0.64298528 4.0566759 917766
-2.572454 0.53582102 3.380563 917768
-2.5392227 0.53582102 3.380563 786438
-2.5059917 0.53582102 3.380563 524292
-2.9673131 0.64298528 4.0566759 721160
-2.9274356 0.64298528 4.0566759 852743
-3.2083981 0.71442807 4.5074177 852744
-3.1640902 0.71442807 4.5074177 918282
-3.5097547 0.80373156 5.0708447 852743
-3.0754738 0.71442807 4.5074177 1246987
-3.4100614 0.80373156 5.0708447 1773072
-3.3602147 0.80373156 5.0708447 1904399
-3.3103681 0.80373156 5.0708447 1575438
-3.2605214 0.80373156 5.0708447 1313294
-3.2106748 0.80373156 5.0708447 2100752
-3.1608281 0.80373156 5.0708447 2232594
-3.1109815 0.80373156 5.0708447 2101265
-3.0611348 0.80373156 5.0708447 2232596
-3.0112882 0.80373156 5.0708447 2561558
-2.9614415 0.80373156 5.0708447 2363666
-2.9115949 0.80373156 5.0708447 2166801
-2.8617485 0.80373156 5.0708447 2232594
-2.8119018 0.80373156 5.0708447 1838608
-2.7620552 0.80373156 5.0708447 2363923
-2.7122085 0.80373156 5.0708447 2494733
-2.6623619 0.80373156 5.0708447 1575179
-2.9857316 0.91855031 5.7952509 1245701
-2.5626686 0.80373156 5.0708447 1049352
-2.8717964 0.91855031 5.7952509 983817
-2.8148289 0.91855031 5.7952509 1180681
-2.7578614 0.91855031 5.7952509 1705480
-2.363282 0.80373156 5.0708447 1114631
-2.3134353 0.80373156 5.0708447 1443852
-2.2635887 0.80373156 5.0708447 2428690
-1.9677709 0.71442807 4.5074177 3020566
-2.1638956 0.80373156 5.0708447 3743257
-2.4160559 0.91855031 5.7952509 4268316
-2.3590882 0.91855031 5.7952509 4465949
-2.3021207 0.91855031 5.7952509 5056799
-2.2451532 0.91855031 5.7952509 5910306
-2.1881855 0.91855031 5.7952509 5712156
-1.8648157 0.80373156 5.0708447 2165770
