# .PCD v0.7 - Point Cloud Data file format
VERSION 0.7
FIELDS x y z rgb
SIZE 4 4 4 4
TYPE F F F U
COUNT 1 1 1 1
WIDTH 1239
HEIGHT 1
VIEWPOINT 0 0 0 1 0 0 0
POINTS 1239
DATA ascii
-0.96006131 -0.18337734 1.4488127 12287058
-0.64592546 -0.12523331 0.98943311 12222035
-0.59282207 -0.11669467 0.92197174 12943448
-0.58375901 -0.11669467 0.92197174 12682074
-0.574696 -0.11669467 0.92197174 12549971
-0.565633 -0.11669467 0.92197174 12616791
-0.54420173 -0.11410146 0.90148348 13009495
-0.52370226 -0.11162099 0.88188601 12681556
-0.49357358 -0.10697012 0.84514076 12616275
-0.48526582 -0.10697012 0.84514076 12879191
-0.46722424 -0.10478706 0.82789302 12943959
-0.459086 -0.10478706 0.82789302 13009750
-0.4419288 -0.10269132 0.81133515 13141588
-0.43395334 -0.10269132 0.81133515 13336918
-0.38725263 -0.093355738 0.73757738 13010260
-0.36666882 -0.090080105 0.71169752 11168064
-0.35347152 -0.088526994 0.69942683 6698799
-0.34072164 -0.087026544 0.68757218 5712934
-0.33396277 -0.087026544 0.68757218 4595738
-0.3272039 -0.087026544 0.68757218 4594199
-0.32044503 -0.087026544 0.68757218 3346704
-0.30845803 -0.085576095 0.67611259 3743007
-0.30181181 -0.085576095 0.67611259 4729643
-0.30016842 -0.087026544 0.68757218 4663847
-0.29340959 -0.087026544 0.68757218 4400674
-0.28665072 -0.087026544 0.68757218 4137503
-0.27989185 -0.087026544 0.68757218 4070939
-0.27313298 -0.087026544 0.68757218 3610647
-0.26637411 -0.087026544 0.68757218 3545111
-0.25961524 -0.087026544 0.68757218 3479318
-0.25285637 -0.087026544 0.68757218 3413779
-0.24609752 -0.087026544 0.68757218 3216661
-0.23933865 -0.087026544 0.68757218 3150611
-0.23658976 -0.088526994 0.69942683 2953746
-0.22971436 -0.088526994 0.69942683 3150868
-0.22283897 -0.088526994 0.69942683 3085075
-0.21596357 -0.088526994 0.69942683 3544341
-0.21275641 -0.090080105 0.71169752 3872788
-0.20943466 -0.09168867 0.72440636 3938583
-0.20980683 -0.095084555 0.75123626 4134420
-0.20242214 -0.095084555 0.75123626 4332823
-0.19503745 -0.095084555 0.75123626 4332566
-0.19119337 -0.096878596 0.76541048 4267286
-0.18366936 -0.096878596 0.76541048 4070678
-0.17953277 -0.098741651 0.78012997 4135703
-0.17186405 -0.098741651 0.78012997 4989467
-0.17076315 -0.10269132 0.81133515 7558729
-0.1808752 -0.11410146 0.90148348 7230794
0 0 0 7164489
0 0 0 7558988
0 0 0 7689804
0 0 0 8808019
0 0 0 10383442
0 0 0 11499089
0 0 0 12156246
0 0 0 12551002
0 0 0 12814172
0 0 0 13141588
-0.75057614 -1.0269132 8.1133518 13471838
-0.67082155 -1.0269132 8.1133518 13864799
-0.59106696 -1.0269132 8.1133518 14126684
-0.42609358 -0.85576093 6.761126 10708541
-0.35963139 -0.85576093 6.761126 14258271
-0.25128791 -0.73350936 5.7952509 14456419
-0.22670706 -0.85576093 6.761126 14587749
-0.16024488 -0.85576093 6.761126 14718308
-0.080385178 -0.73350936 5.7952509 15112549
-0.023417605 -0.73350936 5.7952509 14784354
0.029356226 -0.64182073 5.0708447 15310697
0.079202853 -0.64182073 5.0708447 15047525
0.12904948 -0.64182073 5.0708447 15112802
0.17889611 -0.64182073 5.0708447 14915941
0.22874275 -0.64182073 5.0708447 14914912
0.37145251 -0.85576093 6.761126 14916193
0.37535542 -0.73350936 5.7952509 13995100
0.37828264 -0.64182073 5.0708447 1312270
0.38055938 -0.57050735 4.5074177 984329
0.4779759 -0.64182073 5.0708447 1114891
0.52782255 -0.64182073 5.0708447 918536
0.57766914 -0.64182073 5.0708447 1049352
0.62751579 -0.64182073 5.0708447 852489
0.67736244 -0.64182073 5.0708447 1050892
0.72720903 -0.64182073 5.0708447 1180681
0.77705568 -0.64182073 5.0708447 1378059
0.82690233 -0.64182073 5.0708447 1574669
1.0019988 -0.73350936 5.7952509 1970453
1.0589664 -0.73350936 5.7952509 1575438
1.1159339 -0.73350936 5.7952509 1378317
1.1729015 -0.73350936 5.7952509 3218976
1.0761355 -0.64182073 5.0708447 6307883
1.125982 -0.64182073 5.0708447 8147257
1.1758287 -0.64182073 5.0708447 10117443
1.2256753 -0.64182073 5.0708447 10513227
1.4577394 -0.73350936 5.7952509 11958355
1.514707 -0.73350936 5.7952509 12222809
1.5716746 -0.73350936 5.7952509 13010006
1.6286421 -0.73350936 5.7952509 13010011
2.3598537 -1.0269132 8.1133518 12944984
2.4396083 -1.0269132 8.1133518 13338715
2.5193629 -1.0269132 8.1133518 13602400
2.5991175 -1.0269132 8.1133518 13536093
2.6788721 -1.0269132 8.1133518 13733216
2.7586267 -1.0269132 8.1133518 13667680
2.8383815 -1.0269132 8.1133518 13601889
2.9181361 -1.0269132 8.1133518 13667423
1.6654948 -0.57050735 4.5074177 13733727
1.0258816 -0.34230438 2.7044504 13734497
1.0524665 -0.34230438 2.7044504 13603170
1.0116107 -0.32091036 2.5354223 13669735
1.1056362 -0.34230438 2.7044504 13866596
1.2130941 -0.36675468 2.8976254 13930847
1.2415779 -0.36675468 2.8976254 14061921
1.2700616 -0.36675468 2.8976254 14192736
1.2985455 -0.36675468 2.8976254 13799268
1.3270292 -0.36675468 2.8976254 13799263
1.1860739 -0.32091036 2.5354223 14259042
1.2109972 -0.32091036 2.5354223 14062178
1.2359205 -0.32091036 2.5354223 14062691
1.2608439 -0.32091036 2.5354223 14193251
1.2101338 -0.30203328 2.3862798 14061666
1.2335911 -0.30203328 2.3862798 13864802
1.2570482 -0.30203328 2.3862798 13602654
1.2805055 -0.30203328 2.3862798 13536094
1.3039628 -0.30203328 2.3862798 13667682
1.32742 -0.30203328 2.3862798 13404765
1.3508773 -0.30203328 2.3862798 13404510
1.3743345 -0.30203328 2.3862798 13076826
1.2506558 -0.27024031 2.1350925 13273694
1.3422908 -0.28525367 2.2537088 13142621
1.3644449 -0.28525367 2.2537088 13141597
1.3865988 -0.28525367 2.2537088 11498582
1.334608 -0.27024031 2.1350925 2165262
1.3555961 -0.27024031 2.1350925 1181452
1.4530611 -0.28525367 2.2537088 1247245
1.4752151 -0.28525367 2.2537088 1181968
1.5854496 -0.30203328 2.3862798 1182223
1.6089069 -0.30203328 2.3862798 1050892
1.6323642 -0.30203328 2.3862798 1181454
1.6558213 -0.30203328 2.3862798 1181454
1.6792786 -0.30203328 2.3862798 1181456
1.8091568 -0.32091036 2.5354223 1116432
1.8340801 -0.32091036 2.5354223 1181454
1.7496502 -0.30203328 2.3862798 1050899
1.7731075 -0.30203328 2.3862798 1378576
1.7965648 -0.30203328 2.3862798 1181709
1.820022 -0.30203328 2.3862798 1050893
1.8434793 -0.30203328 2.3862798 1247504
1.8669364 -0.30203328 2.3862798 1247247
1.8903937 -0.30203328 2.3862798 1247247
1.9138509 -0.30203328 2.3862798 1116432
1.9373082 -0.30203328 2.3862798 1116432
1.9607655 -0.30203328 2.3862798 1116433
1.9842227 -0.30203328 2.3862798 984847
2.0076799 -0.30203328 2.3862798 1116432
2.0311372 -0.30203328 2.3862798 985100
2.0545943 -0.30203328 2.3862798 1181708
2.0780516 -0.30203328 2.3862798 1246734
1.7862827 -0.25672829 2.028338 1180940
1.7202107 -0.24450313 1.9317503 1115661
1.7391998 -0.24450313 1.9317503 984588
1.6782713 -0.23338935 1.8439435 918282
1.622641 -0.22324198 1.763772 984075
1.5087806 -0.20538263 1.6226703 1049868
1.5247315 -0.20538263 1.6226703 984329
1.5406824 -0.20538263 1.6226703 1049098
1.5566334 -0.20538263 1.6226703 984329
1.4560966 -0.19016911 1.5024725 1115914
1.5274378 -0.1974833 1.5602599 4337192
1.6044862 -0.20538263 1.6226703 9987913
1.7613447 -0.22324198 1.763772 10382665
1.7045708 -0.21394023 1.6902815 10448207
1.652339 -0.20538263 1.6226703 10513488
1.6682899 -0.20538263 1.6226703 10513743
1.4035339 -0.17115219 1.3522252 10251600
1.3711224 -0.16563116 1.3086051 10447954
1.383986 -0.16563116 1.3086051 10250318
1.4434112 -0.17115219 1.3522252 10316368
1.4567037 -0.17115219 1.3522252 10447694
1.4699961 -0.17115219 1.3522252 10316365
1.4832885 -0.17115219 1.3522252 10185551
2.6410253 -0.30203328 2.3862798 10119759
3.4843235 -0.3949666 3.1205199 10185553
3.5149984 -0.3949666 3.1205199 9922635
2.7113969 -0.30203328 2.3862798 9987148
2.7348542 -0.30203328 2.3862798 10119507
1.8756518 -0.20538263 1.6226703 10119249
2.488951 -0.27024031 2.1350925 9988686
1.9075537 -0.20538263 1.6226703 10251856
2.5309272 -0.27024031 2.1350925 10120272
0 0 0 10119502
0 0 0 10119246
0 0 0 10185552
0 0 0 9922382
0 0 0 9988175
0 0 0 9988688
0 0 0 9857363
0 0 0 9856848
0 0 0 9988432
0 0 0 9857362
0 0 0 10119504
0 0 0 10185034
0 0 0 10711376
-4.8415465 -0.47357929 4.0566759 11499089
-4.8016691 -0.47357929 4.0566759 11893592
-4.7617917 -0.47357929 4.0566759 11696984
-4.2926493 -0.43052661 3.687887 11631705
-4.6820374 -0.47357929 4.0566759 11763291
-4.6421599 -0.47357929 4.0566759 11894107
-4.6022825 -0.47357929 4.0566759 12092512
-4.1476407 -0.43052661 3.687887 11959900
-4.1113887 -0.43052661 3.687887 12222816
-4.0751367 -0.43052661 3.687887 12222814
-4.0388846 -0.43052661 3.687887 12223584
-4.0026326 -0.43052661 3.687887 12223584
-3.9663804 -0.43052661 3.687887 12288607
-3.9301283 -0.43052661 3.687887 12551522
-3.8938763 -0.43052661 3.687887 12222812
-3.8576241 -0.43052661 3.687887 12485468
-3.821372 -0.43052661 3.687887 12484949
-3.78512 -0.43052661 3.687887 10578241
-4.123755 -0.47357929 4.0566759 9330236
-4.5376415 -0.52619922 4.5074177 8804922
-4.4933338 -0.52619922 4.5074177 8870203
-4.4490256 -0.52619922 4.5074177 8738361
-4.4047174 -0.52619922 4.5074177 8606779
-4.3604093 -0.52619922 4.5074177 8410170
-4.3161011 -0.52619922 4.5074177 8607033
-4.2717929 -0.52619922 4.5074177 8738619
-4.2274847 -0.52619922 4.5074177 8672824
-4.183177 -0.52619922 4.5074177 8936512
-4.1388688 -0.52619922 4.5074177 9461827
-4.0945606 -0.52619922 4.5074177 10250309
-4.0502524 -0.52619922 4.5074177 10973260
-4.0059443 -0.52619922 4.5074177 11695180
-3.9616363 -0.52619922 4.5074177 11499597
-3.9173281 -0.52619922 4.5074177 11498827
-2.6813214 -0.36429176 3.1205199 11695952
-2.6506467 -0.36429176 3.1205199 11301967
-2.6199718 -0.36429176 3.1205199 11498827
-2.5892968 -0.36429176 3.1205199 11761744
-2.5586221 -0.36429176 3.1205199 11301710
-2.5279472 -0.36429176 3.1205199 11367755
-2.4972725 -0.36429176 3.1205199 11827279
-2.4665976 -0.36429176 3.1205199 11695694
-2.4359226 -0.36429176 3.1205199 11499343
-2.2334442 -0.3382709 2.8976254 11499343
-2.0579631 -0.31571952 2.7044504 11761233
-1.9044172 -0.29598704 2.5354223 12023887
-1.8794938 -0.29598704 2.5354223 12287056
-2.2825484 -0.36429176 3.1205199 12221778
-2.2518735 -0.36429176 3.1205199 11959122
-2.2211988 -0.36429176 3.1205199 12024659
-1.6751064 -0.27857605 2.3862798 12221267
-1.559891 -0.26309961 2.2537088 11959633
-1.3839632 -0.23678964 2.028338 12157014
-1.299071 -0.22551394 1.9317503 12352596
-1.2800817 -0.22551394 1.9317503 12418133
-1.2037702 -0.21526331 1.8439435 12681561
-0.59282207 -0.10763165 0.92197174 12419416
-0.58375901 -0.10763165 0.92197174 13141084
-0.574696 -0.10763165 0.92197174 12746580
-0.565633 -0.10763165 0.92197174 12681558
-0.53237128 -0.10295202 0.88188601 12878164
-0.50188136 -0.098662347 0.84514076 12681559
-0.49357358 -0.098662347 0.84514076 12485205
-0.47536245 -0.096648835 0.82789302 12813397
-0.46722424 -0.096648835 0.82789302 13141078
-0.44990426 -0.094715856 0.81133515 13076055
-0.4419288 -0.094715856 0.81133515 13010520
-0.42544445 -0.09285868 0.79542661 12747861
-0.37366483 -0.083084084 0.71169752 12944983
-0.36034691 -0.081651598 0.69942683 10378811
-0.35347152 -0.081651598 0.69942683 5647913
-0.34072164 -0.080267675 0.68757218 3871763
-0.33396277 -0.080267675 0.68757218 1573385
-0.3272039 -0.080267675 0.68757218 1968653
-0.32044503 -0.080267675 0.68757218 2755855
-0.30845803 -0.078929879 0.67611259 3809059
-0.30181181 -0.078929879 0.67611259 4926251
-0.30016842 -0.080267675 0.68757218 4531750
-0.29340959 -0.080267675 0.68757218 4269089
-0.28665072 -0.080267675 0.68757218 4070939
-0.27989185 -0.080267675 0.68757218 3939869
-0.27313298 -0.080267675 0.68757218 3611160
-0.26637411 -0.080267675 0.68757218 3413525
-0.25961524 -0.080267675 0.68757218 3283224
-0.25285637 -0.080267675 0.68757218 3282452
-0.24609752 -0.080267675 0.68757218 2954259
-0.23933865 -0.080267675 0.68757218 2494480
-0.23658976 -0.081651598 0.69942683 2559760
-0.22971436 -0.081651598 0.69942683 3085073
-0.22283897 -0.081651598 0.69942683 2953489
-0.21596357 -0.081651598 0.69942683 3216148
-0.21275641 -0.083084084 0.71169752 3806482
-0.20943466 -0.084567726 0.72440636 3741204
-0.20980683 -0.087699868 0.75123626 4266262
-0.20242214 -0.087699868 0.75123626 4332566
-0.1987174 -0.089354575 0.76541048 4529174
-0.19119337 -0.089354575 0.76541048 4529686
-0.18366936 -0.089354575 0.76541048 4464150
-0.17614534 -0.089354575 0.76541048 4004115
-0.17186405 -0.091072939 0.78012997 4003860
-0.16741484 -0.09285868 0.79542661 4397591
-0.16610989 -0.096648835 0.82789302 5123102
0 0 0 1902340
0 0 0 2624778
0 0 0 3216140
0 0 0 7687478
0 0 0 10317649
0 0 0 11040595
0 0 0 11959383
0 0 0 12353623
0 0 0 12420438
0 0 0 13010522
0 0 0 13338715
0 0 0 13601884
-0.59106696 -0.94715858 8.1133518 13995870
-0.42609358 -0.78929877 6.761126 10971196
-0.35963139 -0.78929877 6.761126 14324834
-0.25128791 -0.67654181 5.7952509 14455649
-0.19432034 -0.67654181 5.7952509 14521699
-0.12018367 -0.59197408 5.0708447 15112806
-0.070337035 -0.59197408 5.0708447 14718562
-0.020490404 -0.59197408 5.0708447 14916967
0.029356226 -0.59197408 5.0708447 14850407
0.079202853 -0.59197408 5.0708447 15048038
0.12904948 -0.59197408 5.0708447 14981734
0.17889611 -0.59197408 5.0708447 14719845
0.22874275 -0.59197408 5.0708447 14457443
0.27858937 -0.59197408 5.0708447 14850148
0.32843602 -0.59197408 5.0708447 12946782
0.37828264 -0.59197408 5.0708447 1312013
0.38055938 -0.52619922 4.5074177 1313040
0.4779759 -0.59197408 5.0708447 2035989
0.52782255 -0.59197408 5.0708447 3088157
0.57766914 -0.59197408 5.0708447 3809823
0.62751579 -0.59197408 5.0708447 4465695
0.67736244 -0.59197408 5.0708447 4531488
0.72720903 -0.59197408 5.0708447 4531742
0.77705568 -0.59197408 5.0708447 4005914
0.82690233 -0.59197408 5.0708447 4400674
1.0019988 -0.67654181 5.7952509 5385252
1.0589664 -0.67654181 5.7952509 2427398
1.1159339 -0.67654181 5.7952509 1576465
1.1729015 -0.67654181 5.7952509 1641229
1.2298691 -0.67654181 5.7952509 1575693
1.2868366 -0.67654181 5.7952509 1312523
1.1758287 -0.59197408 5.0708447 8279366
1.2256753 -0.59197408 5.0708447 10053196
1.275522 -0.59197408 5.0708447 10972492
1.514707 -0.67654181 5.7952509 12090709
1.5716746 -0.67654181 5.7952509 12550486
1.6286421 -0.67654181 5.7952509 12944985
1.9665446 -0.78929877 6.761126 12814169
2.0330069 -0.78929877 6.761126 13403486
2.0994689 -0.78929877 6.761126 13339486
2.1659312 -0.78929877 6.761126 13273948
2.6788721 -0.94715858 8.1133518 13536353
2.7586267 -0.94715858 8.1133518 13471071
2.8383815 -0.94715858 8.1133518 13799009
1.6211867 -0.52619922 4.5074177 13996899
1.0706751 -0.3382709 2.8976254 14061411
1.0258816 -0.31571952 2.7044504 14126944
1.0524665 -0.31571952 2.7044504 13865057
1.0116107 -0.29598704 2.5354223 13996899
1.1056362 -0.31571952 2.7044504 13930854
1.2130941 -0.3382709 2.8976254 14192479
1.2415779 -0.3382709 2.8976254 13601889
1.2700616 -0.3382709 2.8976254 13931108
1.2985455 -0.3382709 2.8976254 13931876
1.3270292 -0.3382709 2.8976254 13734497
1.2651454 -0.31571952 2.7044504 13537374
1.2917304 -0.31571952 2.7044504 13800289
1.2359205 -0.29598704 2.5354223 13799266
1.2608439 -0.29598704 2.5354223 13865057
1.2857672 -0.29598704 2.5354223 14061668
1.2335911 -0.27857605 2.3862798 13667937
1.3356138 -0.29598704 2.5354223 13929824
1.2805055 -0.27857605 2.3862798 13865060
1.3854605 -0.29598704 2.5354223 13601889
1.6118671 -0.3382709 2.8976254 13405026
1.6403509 -0.3382709 2.8976254 13536612
1.4602304 -0.29598704 2.5354223 13536096
1.3977917 -0.27857605 2.3862798 13273183
1.3422908 -0.26309961 2.2537088 13011035
1.3644449 -0.26309961 2.2537088 13207648
1.31362 -0.24925226 2.1350925 12023377
1.334608 -0.24925226 2.1350925 1377801
1.3555961 -0.24925226 2.1350925 1116177
1.4530611 -0.26309961 2.2537088 1181967
1.4752151 -0.26309961 2.2537088 1181967
1.4973692 -0.26309961 2.2537088 1116431
1.5195233 -0.26309961 2.2537088 1181454
1.5416772 -0.26309961 2.2537088 1050896
1.6558213 -0.27857605 2.3862798 1116431
1.6792786 -0.27857605 2.3862798 1050640
1.7027358 -0.27857605 2.3862798 1050639
1.7261931 -0.27857605 2.3862798 984847
1.7496502 -0.27857605 2.3862798 985103
1.7731075 -0.27857605 2.3862798 1181454
1.7965648 -0.27857605 2.3862798 1050640
1.820022 -0.27857605 2.3862798 1115663
1.7410638 -0.26309961 2.2537088 1247249
1.8669364 -0.27857605 2.3862798 1181711
1.7853719 -0.26309961 2.2537088 984845
1.807526 -0.26309961 2.2537088 1115920
1.8296801 -0.26309961 2.2537088 1181456
1.8518342 -0.26309961 2.2537088 1050384
1.9842227 -0.27857605 2.3862798 1116431
2.0076799 -0.27857605 2.3862798 985358
2.0311372 -0.27857605 2.3862798 1116431
2.0545943 -0.27857605 2.3862798 1181456
1.766344 -0.23678964 2.028338 1049868
1.7862827 -0.23678964 2.028338 1050638
1.7202107 -0.22551394 1.9317503 919307
1.7391998 -0.22551394 1.9317503 853259
1.758189 -0.22551394 1.9317503 853259
1.622641 -0.20590404 1.763772 984075
1.5087806 -0.18943171 1.6226703 984074
1.5247315 -0.18943171 1.6226703 1115660
1.5406824 -0.18943171 1.6226703 1050122
1.5566334 -0.18943171 1.6226703 853259
1.4560966 -0.17539974 1.5024725 786950
1.5274378 -0.18214588 1.5602599 4730664
1.5427752 -0.18214588 1.5602599 9790537
1.5581126 -0.18214588 1.5602599 10185547
1.4610606 -0.16913545 1.4488127 10447183
1.3769491 -0.15785976 1.3522252 10381648
1.3902415 -0.15785976 1.3522252 10317394
1.3582587 -0.15276751 1.3086051 10381901
1.3711224 -0.15276751 1.3086051 10251087
1.383986 -0.15276751 1.3086051 10118989
1.4434112 -0.15785976 1.3522252 10250318
1.4567037 -0.15785976 1.3522252 10381646
1.4699961 -0.15785976 1.3522252 10185294
1.4832885 -0.15785976 1.3522252 9988430
1.496581 -0.15785976 1.3522252 10251088
1.8118482 -0.18943171 1.6226703 10513490
2.53861 -0.26309961 2.2537088 10184269
2.1949403 -0.22551394 1.9317503 9856848
2.2139297 -0.22551394 1.9317503 9856848
1.8756518 -0.18943171 1.6226703 10184782
1.8916028 -0.18943171 1.6226703 9922895
1.6444428 -0.1633032 1.3988537 10250575
2.8286831 -0.27857605 2.3862798 9921610
0 0 0 9856845
0 0 0 9791565
0 0 0 9791565
0 0 0 9857617
0 0 0 9726545
0 0 0 9661006
0 0 0 9463114
0 0 0 9988945
0 0 0 10054225
0 0 0 10119761
0 0 0 9988688
0 0 0 10119760
0 0 0 10514000
-4.8415465 -0.43370199 4.0566759 11039055
-4.8016691 -0.43370199 4.0566759 11565140
-4.7617917 -0.43370199 4.0566759 11630420
-4.7219143 -0.43370199 4.0566759 11959385
-4.6820374 -0.43370199 4.0566759 11893849
-4.6421599 -0.43370199 4.0566759 11894619
-4.6022825 -0.43370199 4.0566759 11959642
-4.5624051 -0.43370199 4.0566759 11829341
-4.5225282 -0.43370199 4.0566759 12353373
-4.4826508 -0.43370199 4.0566759 12091228
-4.4427733 -0.43370199 4.0566759 12288348
-4.0026326 -0.3942745 3.687887 12090969
-3.9663804 -0.3942745 3.687887 12353371
-3.9301283 -0.3942745 3.687887 12157277
-3.8938763 -0.3942745 3.687887 12157534
-3.8576241 -0.3942745 3.687887 12419932
-3.821372 -0.3942745 3.687887 12287830
-3.78512 -0.3942745 3.687887 10512448
-4.123755 -0.43370199 4.0566759 9461565
-4.0838776 -0.43370199 4.0566759 8935995
-4.0440001 -0.43370199 4.0566759 8672569
-4.0041227 -0.43370199 4.0566759 8672826
-3.9642456 -0.43370199 4.0566759 8541496
-4.3604093 -0.4818911 4.5074177 8475961
-4.3161011 -0.4818911 4.5074177 8410168
-4.2717929 -0.4818911 4.5074177 8475961
-4.2274847 -0.4818911 4.5074177 8476476
-4.183177 -0.4818911 4.5074177 8804412
-4.1388688 -0.4818911 4.5074177 9132350
-3.6851046 -0.43370199 4.0566759 9199168
-4.0502524 -0.4818911 4.5074177 10251080
-4.0059443 -0.4818911 4.5074177 11104331
-3.9616363 -0.4818911 4.5074177 11367243
-3.9173281 -0.4818911 4.5074177 10907722
-3.8730199 -0.4818911 4.5074177 10973515
-2.6506467 -0.33361691 3.1205199 11433293
-2.6199718 -0.33361691 3.1205199 11433292
-2.5892968 -0.33361691 3.1205199 11302222
-2.5586221 -0.33361691 3.1205199 11301964
-2.5279472 -0.33361691 3.1205199 11564109
-2.4972725 -0.33361691 3.1205199 11499089
-2.4665976 -0.33361691 3.1205199 12024660
-2.4359226 -0.33361691 3.1205199 11433037
-2.4052479 -0.33361691 3.1205199 11630414
-2.2049606 -0.30978712 2.8976254 11630928
-1.9044172 -0.27106375 2.5354223 11959376
-1.8794938 -0.27106375 2.5354223 12089166
-2.2825484 -0.33361691 3.1205199 12089681
-2.2518735 -0.33361691 3.1205199 11958865
-2.2211988 -0.33361691 3.1205199 11959637
-1.6751064 -0.25511882 2.3862798 12352338
-1.6516492 -0.25511882 2.3862798 12024402
-1.4568033 -0.2282642 2.1350925 12155474
-1.3640246 -0.216851 2.028338 12419157
-1.3440859 -0.216851 2.028338 12616277
-1.2610925 -0.20652474 1.9317503 12484692
-1.1856441 -0.19713725 1.8439435 12484183
-0.58375901 -0.098568626 0.92197174 12877655
-0.574696 -0.098568626 0.92197174 12550744
-0.565633 -0.098568626 0.92197174 12813656
-0.54420173 -0.096378215 0.90148348 12812375
-0.50188136 -0.090354577 0.84514076 12747352
-0.49357358 -0.090354577 0.84514076 12813141
-0.46585521 -0.086740397 0.81133515 12943702
-0.45787975 -0.086740397 0.81133515 13008723
-0.44990426 -0.086740397 0.81133515 12813143
-0.4419288 -0.086740397 0.81133515 13141079
-0.40180868 -0.08031518 0.75123626 13207383
-0.37366483 -0.076088071 0.71169752 13666139
-0.36034691 -0.074776202 0.69942683 12877391
-0.35347152 -0.074776202 0.69942683 4924185
-0.34659612 -0.074776202 0.69942683 3479835
-0.33396277 -0.073508814 0.68757218 3217689
-0.3272039 -0.073508814 0.68757218 2297362
-0.32044503 -0.073508814 0.68757218 2363670
-0.31368616 -0.073508814 0.68757218 3612195
-0.30692729 -0.073508814 0.68757218 3415325
-0.30016842 -0.073508814 0.68757218 2955032
-0.29340959 -0.073508814 0.68757218 3414811
-0.28187317 -0.072283663 0.67611259 3808796
-0.27989185 -0.073508814 0.68757218 3544598
-0.27313298 -0.073508814 0.68757218 3085587
-0.26637411 -0.073508814 0.68757218 2888723
-0.25961524 -0.073508814 0.68757218 3151638
-0.25285637 -0.073508814 0.68757218 3020309
-0.24609752 -0.073508814 0.68757218 2756366
-0.23933865 -0.073508814 0.68757218 2362639
-0.23257978 -0.073508814 0.68757218 2297101
-0.22971436 -0.074776202 0.69942683 2428174
-0.22283897 -0.074776202 0.69942683 2952974
-0.21596357 -0.074776202 0.69942683 3019282
-0.21275641 -0.076088071 0.71169752 3346962
-0.21324256 -0.078854904 0.73757738 3413522
-0.20599215 -0.078854904 0.73757738 3741460
-0.20242214 -0.08031518 0.75123626 4069910
-0.1987174 -0.081830561 0.76541048 4200982
-0.19119337 -0.081830561 0.76541048 4332312
-0.18366936 -0.081830561 0.76541048 4266775
-0.17614534 -0.081830561 0.76541048 4004117
-0.16862132 -0.081830561 0.76541048 3675411
-0.16419533 -0.083404228 0.78012997 3347218
-0.15652663 -0.083404228 0.78012997 3544594
-0.14334466 -0.08031518 0.75123626 2822419
-0.13595997 -0.08031518 0.75123626 1312523
-0.13100122 -0.081830561 0.76541048 1049609
0 0 0 1443082
0 0 0 1443852
0 0 0 1903883
0 0 0 2100999
0 0 0 2560262
0 0 0 3414279
0 0 0 5448979
0 0 0 7552290
0 0 0 10511164
0 0 0 12811855
-0.36522305 -0.61957425 5.7952509 9986101
-0.30825549 -0.61957425 5.7952509 13865053
-0.25128791 -0.61957425 5.7952509 14455903
-0.19432034 -0.61957425 5.7952509 14456932
-0.12018367 -0.54212749 5.0708447 14587490
-0.070337035 -0.54212749 5.0708447 14391398
-0.020490404 -0.54212749 5.0708447 14850918
0.029356226 -0.54212749 5.0708447 15047273
0.079202853 -0.54212749 5.0708447 14850146
0.11471066 -0.4818911 4.5074177 14981986
0.15901878 -0.4818911 4.5074177 14718562
0.22874275 -0.54212749 5.0708447 14653028
0.31838787 -0.61957425 5.7952509 14587489
0.32843602 -0.54212749 5.0708447 7027486
0.37828264 -0.54212749 5.0708447 5057305
0.38055938 -0.4818911 4.5074177 5778725
0.4779759 -0.54212749 5.0708447 6107424
0.52782255 -0.54212749 5.0708447 6304292
0.57766914 -0.54212749 5.0708447 6041118
0.62751579 -0.54212749 5.0708447 5384221
0.67736244 -0.54212749 5.0708447 4793629
0.72720903 -0.54212749 5.0708447 5778977
0.77705568 -0.54212749 5.0708447 4990233
0.82690233 -0.54212749 5.0708447 5385504
1.0019988 -0.61957425 5.7952509 5714719
1.0589664 -0.61957425 5.7952509 2886407
1.1159339 -0.61957425 5.7952509 1444107
1.1729015 -0.61957425 5.7952509 1575438
1.2298691 -0.61957425 5.7952509 1509900
1.2868366 -0.61957425 5.7952509 1509903
1.1758287 -0.54212749 5.0708447 7689032
1.2256753 -0.54212749 5.0708447 9659206
1.275522 -0.54212749 5.0708447 10250570
1.3253686 -0.54212749 5.0708447 10841671
1.5716746 -0.61957425 5.7952509 12221523
1.6286421 -0.61957425 5.7952509 12550487
1.9665446 -0.72283661 6.761126 12812890
2.0330069 -0.72283661 6.761126 13076060
2.0994689 -0.72283661 6.761126 13076572
1.6244484 -0.54212749 5.0708447 13404507
1.6742951 -0.54212749 5.0708447 13601889
2.7586267 -0.86740398 8.1133518 13733729
2.3653176 -0.72283661 6.761126 13536866
2.9181361 -0.86740398 8.1133518 13733471
2.4982421 -0.72283661 6.761126 13799520
1.1837097 -0.33361691 3.1205199 13535837
1.1276428 -0.30978712 2.8976254 14127459
1.0790514 -0.28913465 2.7044504 13865060
1.1846102 -0.30978712 2.8976254 13930852
1.2130941 -0.30978712 2.8976254 13799518
1.2415779 -0.30978712 2.8976254 13864802
1.2700616 -0.30978712 2.8976254 13865313
1.2985455 -0.30978712 2.8976254 13865313
1.3270292 -0.30978712 2.8976254 13602657
1.355513 -0.30978712 2.8976254 13799520
1.3839968 -0.30978712 2.8976254 13865057
1.3183153 -0.28913465 2.7044504 13798755
1.3449001 -0.28913465 2.7044504 13601889
1.371485 -0.28913465 2.7044504 13667166
1.3980699 -0.28913465 2.7044504 13733471
1.5264157 -0.30978712 2.8976254 13667680
1.5548996 -0.30978712 2.8976254 13470560
1.5833833 -0.30978712 2.8976254 13471330
1.6118671 -0.30978712 2.8976254 13338717
1.5309942 -0.28913465 2.7044504 13601889
1.4602304 -0.27106375 2.5354223 13142367
1.3977917 -0.25511882 2.3862798 12945503
1.3422908 -0.24094555 2.2537088 12616793
1.2926319 -0.2282642 2.1350925 13010009
1.31362 -0.2282642 2.1350925 11629900
1.334608 -0.2282642 2.1350925 1181453
1.3555961 -0.2282642 2.1350925 1246477
1.3765841 -0.2282642 2.1350925 1247502
1.3975722 -0.2282642 2.1350925 1378063
1.4185603 -0.2282642 2.1350925 1050126
1.4395483 -0.2282642 2.1350925 1181455
1.5416772 -0.24094555 2.2537088 1050125
1.6558213 -0.25511882 2.3862798 985103
1.6792786 -0.25511882 2.3862798 1050382
1.6081395 -0.24094555 2.2537088 1050125
1.6302935 -0.24094555 2.2537088 1115661
1.7496502 -0.25511882 2.3862798 1050636
1.7731075 -0.25511882 2.3862798 984845
1.7965648 -0.25511882 2.3862798 1115661
1.7189097 -0.24094555 2.2537088 1180941
1.6494288 -0.2282642 2.1350925 919054
1.6704168 -0.2282642 2.1350925 1247247
1.7853719 -0.24094555 2.2537088 1115918
1.807526 -0.24094555 2.2537088 1050127
1.8296801 -0.24094555 2.2537088 984846
1.8518342 -0.24094555 2.2537088 985100
1.8739882 -0.24094555 2.2537088 1181710
2.0076799 -0.25511882 2.3862798 918797
2.0311372 -0.25511882 2.3862798 984848
2.0545943 -0.25511882 2.3862798 918282
1.6822323 -0.20652474 1.9317503 984075
1.7862827 -0.216851 2.028338 1050125
1.7202107 -0.20652474 1.9317503 853259
1.7391998 -0.20652474 1.9317503 853259
1.6782713 -0.19713725 1.8439435 918284
1.622641 -0.18856607 1.763772 984077
1.5087806 -0.17348079 1.6226703 1049868
1.5247315 -0.17348079 1.6226703 918536
1.4814255 -0.16680846 1.5602599 984075
1.496763 -0.16680846 1.5602599 786696
1.4560966 -0.16063036 1.5024725 787208
1.5274378 -0.16680846 1.5602599 4992550
1.4856354 -0.16063036 1.5024725 9856071
1.5581126 -0.16680846 1.5602599 10381389
1.4610606 -0.15489356 1.4488127 10054225
1.4753026 -0.15489356 1.4488127 10317653
1.3453951 -0.13990386 1.3086051 10315855
1.3582587 -0.13990386 1.3086051 10054222
1.3711224 -0.13990386 1.3086051 9791823
1.383986 -0.13990386 1.3086051 10184267
1.3968496 -0.13990386 1.3086051 10054220
1.4097133 -0.13990386 1.3086051 10184521
1.4225769 -0.13990386 1.3086051 9987658
1.4354405 -0.13990386 1.3086051 9857357
1.496581 -0.14456733 1.3522252 9988686
1.5098734 -0.14456733 1.3522252 10053965
2.53861 -0.24094555 2.2537088 10119758
1.5894396 -0.1495524 1.3988537 9923152
1.6031904 -0.1495524 1.3988537 9923152
1.6169412 -0.1495524 1.3988537 9987919
1.630692 -0.1495524 1.3988537 9988432
1.5383497 -0.13990386 1.3086051 9725262
1.6581936 -0.1495524 1.3988537 9856848
0 0 0 9856848
0 0 0 10053968
0 0 0 10054223
0 0 0 9988689
0 0 0 9856848
0 0 0 9725514
0 0 0 9660235
0 0 0 9659721
0 0 0 9922637
0 0 0 9856846
0 0 0 9988432
0 0 0 10118987
0 0 0 10644813
-4.8415465 -0.3938247 4.0566759 11301203
-4.8016691 -0.3938247 4.0566759 11368281
-4.7617917 -0.3938247 4.0566759 11565144
-4.7219143 -0.3938247 4.0566759 11894363
-4.6820374 -0.3938247 4.0566759 11566939
-4.6421599 -0.3938247 4.0566759 11763291
-4.6022825 -0.3938247 4.0566759 11828567
-4.5624051 -0.3938247 4.0566759 11763031
-4.5225282 -0.3938247 4.0566759 12090968
-4.4826508 -0.3938247 4.0566759 12353369
-4.4427733 -0.3938247 4.0566759 12221785
-4.4028959 -0.3938247 4.0566759 11763289
-3.9663804 -0.35802242 3.687887 12157021
-3.9301283 -0.35802242 3.687887 12222813
-3.8938763 -0.35802242 3.687887 12091994
-3.8576241 -0.35802242 3.687887 12026457
-3.821372 -0.35802242 3.687887 11960149
-3.78512 -0.35802242 3.687887 10710600
-4.123755 -0.3938247 4.0566759 9395517
-4.0838776 -0.3938247 4.0566759 8804155
-3.6763637 -0.35802242 3.687887 8410426
-4.0041227 -0.3938247 4.0566759 8344633
-3.9642456 -0.3938247 4.0566759 8410683
-4.3604093 -0.437583 4.5074177 8278328
-4.3161011 -0.437583 4.5074177 8343864
-4.2717929 -0.437583 4.5074177 8344378
-4.2274847 -0.437583 4.5074177 8344633
-4.183177 -0.437583 4.5074177 8803900
-4.1388688 -0.437583 4.5074177 8738619
-3.6851046 -0.3938247 4.0566759 8804926
-4.0502524 -0.437583 4.5074177 9133634
-4.0059443 -0.437583 4.5074177 10446407
-3.9616363 -0.437583 4.5074177 10841162
-3.9173281 -0.437583 4.5074177 10775109
-3.8730199 -0.437583 4.5074177 11103558
-2.8715336 -0.32818723 3.380563 11498316
-2.4328308 -0.28130332 2.8976254 11367757
-2.8050716 -0.32818723 3.380563 11367243
-2.5586221 -0.30294207 3.1205199 11235657
-2.5279472 -0.30294207 3.1205199 11498829
-2.4972725 -0.30294207 3.1205199 11563595
-2.4665976 -0.30294207 3.1205199 11498830
-2.4359226 -0.30294207 3.1205199 11236428
-2.4052479 -0.30294207 3.1205199 11301964
-2.374573 -0.30294207 3.1205199 11695693
-2.3438981 -0.30294207 3.1205199 11761485
-2.3132234 -0.30294207 3.1205199 11499343
-2.2825484 -0.30294207 3.1205199 11433293
-2.2518735 -0.30294207 3.1205199 11893074
-2.0625415 -0.28130332 2.8976254 11828051
-1.8984538 -0.26254976 2.7044504 12023888
-1.6516492 -0.23166157 2.3862798 12090706
-1.6281919 -0.23166157 2.3862798 12025176
-1.4358153 -0.20727615 2.1350925 12287321
-1.3440859 -0.19691235 2.028338 12352852
-1.3241472 -0.19691235 2.028338 12287830
-1.2421033 -0.18753555 1.9317503 12418899
-1.2231141 -0.18753555 1.9317503 12287572
-0.56192499 -0.087516591 0.90148348 12353622
-0.55306339 -0.087516591 0.90148348 12484694
-0.54420173 -0.087516591 0.90148348 12288341
-0.53534013 -0.087516591 0.90148348 12485209
-0.46453986 -0.077220522 0.79542661 12616277
-0.45672077 -0.077220522 0.79542661 12812373
-0.44890171 -0.077220522 0.79542661 12943959
-0.43260029 -0.075735517 0.78012997 13010522
-0.40919337 -0.072930492 0.75123626 13076313
-0.38066086 -0.06909205 0.71169752 13272921
-0.37366483 -0.06909205 0.71169752 13141854
-0.35423937 -0.066749945 0.68757218 13207126
-0.35347152 -0.067900807 0.69942683 13404763
-0.34659612 -0.067900807 0.69942683 13207389
-0.33396277 -0.066749945 0.68757218 10708548
-0.3272039 -0.066749945 0.68757218 2824215
-0.32044503 -0.066749945 0.68757218 2759454
-0.31368616 -0.066749945 0.68757218 2759455
-0.30692729 -0.066749945 0.68757218 2364697
-0.30016842 -0.066749945 0.68757218 2232597
-0.28851938 -0.065637439 0.67611259 2955035
-0.28187317 -0.065637439 0.67611259 3086874
-0.27989185 -0.066749945 0.68757218 3348247
-0.27313298 -0.066749945 0.68757218 2953747
-0.26637411 -0.066749945 0.68757218 3020052
-0.25961524 -0.066749945 0.68757218 3216661
-0.25285637 -0.066749945 0.68757218 2494737
-0.24609752 -0.066749945 0.68757218 2428174
-0.23933865 -0.066749945 0.68757218 2099467
-0.23257978 -0.066749945 0.68757218 2231311
-0.22971436 -0.067900807 0.69942683 2428944
-0.22283897 -0.067900807 0.69942683 2756628
-0.21975242 -0.06909205 0.71169752 3084560
-0.21655561 -0.070325829 0.72440636 3413527
-0.21324256 -0.071604483 0.73757738 3282453
-0.20599215 -0.071604483 0.73757738 3479059
-0.20624141 -0.07430654 0.76541048 3610643
-0.1987174 -0.07430654 0.76541048 3741461
-0.19119337 -0.07430654 0.76541048 3872275
-0.18366936 -0.07430654 0.76541048 3610131
-0.17288339 -0.072930492 0.75123626 3807252
-0.16549872 -0.072930492 0.75123626 3610131
-0.15811403 -0.072930492 0.75123626 3413268
-0.15072934 -0.072930492 0.75123626 3609620
-0.14334466 -0.072930492 0.75123626 3150868
-0.13595997 -0.072930492 0.75123626 1902091
-0.12857528 -0.072930492 0.75123626 852743
-0.12347721 -0.07430654 0.76541048 918282
0 0 0 1246731
0 0 0 1509646
0 0 0 1312013
0 0 0 1444110
0 0 0 1773072
0 0 0 2166288
0 0 0 2034704
0 0 0 2035216
0 0 0 2035728
0 0 0 2101522
0 0 0 3019787
0 0 0 8342568
0 0 0 13930847
0 0 0 14391398
-0.070337035 -0.49228084 5.0708447 14784871
-0.020490404 -0.49228084 5.0708447 14915940
0.029356226 -0.49228084 5.0708447 14522979
0.07040254 -0.437583 4.5074177 14654050
0.11471066 -0.437583 4.5074177 14391396
0.15901878 -0.437583 4.5074177 14719073
0.22874275 -0.49228084 5.0708447 14522212
0 0 0 14587235
0.37535542 -0.56260663 5.7952509 7618855
0.37828264 -0.49228084 5.0708447 5910045
0.42812929 -0.49228084 5.0708447 5713954
0.4779759 -0.49228084 5.0708447 6106913
0.52782255 -0.49228084 5.0708447 6304290
0.57766914 -0.49228084 5.0708447 6173219
0.62751579 -0.49228084 5.0708447 5451297
0.67736244 -0.49228084 5.0708447 4924440
0.72720903 -0.49228084 5.0708447 5646623
0.77705568 -0.49228084 5.0708447 5187097
0.82690233 -0.49228084 5.0708447 5450525
0.87674892 -0.49228084 5.0708447 5714208
0.92659557 -0.49228084 5.0708447 2755333
0.97644222 -0.49228084 5.0708447 1509643
1.1729015 -0.56260663 5.7952509 1575438
1.2298691 -0.56260663 5.7952509 1509645
1.2868366 -0.56260663 5.7952509 1443850
1.1758287 -0.49228084 5.0708447 7163717
1.2256753 -0.49228084 5.0708447 9396550
1.275522 -0.49228084 5.0708447 9855557
1.3253686 -0.49228084 5.0708447 10448975
1.3752153 -0.49228084 5.0708447 11236688
1.9000825 -0.65637445 6.761126 12418903
1.9665446 -0.65637445 6.761126 12419415
2.0330069 -0.65637445 6.761126 12945498
2.0994689 -0.65637445 6.761126 12944731
1.6244484 -0.49228084 5.0708447 13404509
1.6742951 -0.49228084 5.0708447 13536351
1.7241417 -0.49228084 5.0708447 13930082
1.7739882 -0.49228084 5.0708447 13799266
2.4317799 -0.65637445 6.761126 13602404
2.4982421 -0.65637445 6.761126 13929827
3.0776453 -0.78764939 8.1133518 13667934
1.3155832 -0.32818723 3.380563 13930849
1.3488142 -0.32818723 3.380563 14062182
1.2757342 -0.30294207 3.1205199 13930849
1.3064091 -0.30294207 3.1205199 13602659
1.158806 -0.26254976 2.7044504 13996642
1.2700616 -0.28130332 2.8976254 14062435
1.2985455 -0.28130332 2.8976254 13864545
1.3270292 -0.28130332 2.8976254 13667680
1.355513 -0.28130332 2.8976254 13601884
1.3839968 -0.28130332 2.8976254 13799267
1.4124806 -0.28130332 2.8976254 14323813
1.4409643 -0.28130332 2.8976254 13471328
1.4694482 -0.28130332 2.8976254 13602401
1.497932 -0.28130332 2.8976254 13405021
1.5264157 -0.28130332 2.8976254 13601887
1.6745073 -0.30294207 3.1205199 13404767
1.7051822 -0.30294207 3.1205199 13536607
1.6118671 -0.28130332 2.8976254 13338203
1.4353071 -0.24614042 2.5354223 13272924
1.4602304 -0.24614042 2.5354223 13010524
1.3201367 -0.2187915 2.2537088 12813914
1.3422908 -0.2187915 2.2537088 12879449
1.2926319 -0.20727615 2.1350925 12747865
1.31362 -0.20727615 2.1350925 12024656
1.334608 -0.20727615 2.1350925 1247248
1.3555961 -0.20727615 2.1350925 1115661
1.3765841 -0.20727615 2.1350925 1116432
1.3975722 -0.20727615 2.1350925 1247249
1.4185603 -0.20727615 2.1350925 918797
1.4395483 -0.20727615 2.1350925 1049868
1.4605364 -0.20727615 2.1350925 1115916
1.4815243 -0.20727615 2.1350925 984588
1.6792786 -0.23166157 2.3862798 984332
1.6081395 -0.2187915 2.2537088 984588
1.7261931 -0.23166157 2.3862798 984845
1.6524476 -0.2187915 2.2537088 1049869
1.5864646 -0.20727615 2.1350925 787723
1.6074528 -0.20727615 2.1350925 985358
1.6284407 -0.20727615 2.1350925 918796
1.6494288 -0.20727615 2.1350925 1181454
1.6704168 -0.20727615 2.1350925 1116431
1.6914049 -0.20727615 2.1350925 1312527
1.807526 -0.2187915 2.2537088 984589
1.8296801 -0.2187915 2.2537088 984845
1.8518342 -0.2187915 2.2537088 919052
1.8739882 -0.2187915 2.2537088 853259
1.8961422 -0.2187915 2.2537088 984845
1.6442538 -0.18753555 1.9317503 984075
1.6632431 -0.18753555 1.9317503 984589
1.6057671 -0.17901121 1.8439435 853516
1.7012215 -0.18753555 1.9317503 853003
1.7202107 -0.18753555 1.9317503 918794
1.6601453 -0.17901121 1.8439435 1050122
1.6782713 -0.17901121 1.8439435 1050122
1.622641 -0.17122811 1.763772 853259
1.5087806 -0.15752988 1.6226703 1246474
1.4660881 -0.15147103 1.5602599 1049868
1.4814255 -0.15147103 1.5602599 1049352
1.4413272 -0.14586098 1.5024725 984586
1.4560966 -0.14586098 1.5024725 852999
1.470866 -0.14586098 1.5024725 5189412
1.4856354 -0.14586098 1.5024725 9724226
1.5581126 -0.15147103 1.5602599 10118731
1.4610606 -0.14065166 1.4488127 10118991
1.4753026 -0.14065166 1.4488127 9988944
1.3453951 -0.12704022 1.3086051 9725519
1.3582587 -0.12704022 1.3086051 10053713
1.3711224 -0.12704022 1.3086051 9922638
1.4794333 -0.13580161 1.3988537 10120529
1.3968496 -0.12704022 1.3086051 9923667
1.4097133 -0.12704022 1.3086051 9725515
1.4225769 -0.12704022 1.3086051 10118989
1.4354405 -0.12704022 1.3086051 10118989
1.4483042 -0.12704022 1.3086051 10119502
1.4611679 -0.12704022 1.3086051 10119759
1.427968 -0.12307021 1.2677112 9922382
1.4404297 -0.12307021 1.2677112 9856848
1.4528913 -0.12307021 1.2677112 9922128
1.6169412 -0.13580161 1.3988537 10119507
1.630692 -0.13580161 1.3988537 9857102
1.5383497 -0.12704022 1.3086051 9790542
1.5512134 -0.12704022 1.3086051 9987921
0 0 0 10183760
0 0 0 9856333
0 0 0 9791053
0 0 0 9922640
0 0 0 9922639
0 0 0 9856845
0 0 0 9528910
0 0 0 9857620
0 0 0 9922899
0 0 0 9922642
0 0 0 9791571
0 0 0 10118986
0 0 0 10119499
-4.8415465 -0.35394737 4.0566759 11236178
-4.8016691 -0.35394737 4.0566759 11434585
-4.7617917 -0.35394737 4.0566759 11434329
-4.7219143 -0.35394737 4.0566759 11368020
-4.6820374 -0.35394737 4.0566759 11237972
-4.6421599 -0.35394737 4.0566759 11368788
-4.6022825 -0.35394737 4.0566759 11696470
-4.5624051 -0.35394737 4.0566759 11828056
-4.5225282 -0.35394737 4.0566759 11631447
-4.0751367 -0.32177034 3.687887 12155992
-4.4427733 -0.35394737 4.0566759 12287578
-4.0026326 -0.32177034 3.687887 12024922
-3.9663804 -0.32177034 3.687887 12091229
-3.9301283 -0.32177034 3.687887 12025177
-3.5693865 -0.29495612 3.380563 12288347
-3.5361555 -0.29495612 3.380563 12223067
-3.5029244 -0.29495612 3.380563 12091480
-3.4696932 -0.29495612 3.380563 10907720
-3.7488678 -0.32177034 3.687887 9264701
-4.0838776 -0.35394737 4.0566759 8607033
-3.6763637 -0.32177034 3.687887 8278326
-4.0041227 -0.35394737 4.0566759 8410426
-3.9642456 -0.35394737 4.0566759 8344890
-3.9243684 -0.35394737 4.0566759 8147255
-4.3161011 -0.39327487 4.5074177 8080693
-4.2717929 -0.39327487 4.5074177 7949878
-4.2274847 -0.39327487 4.5074177 8081464
-4.183177 -0.39327487 4.5074177 8410170
-4.1388688 -0.39327487 4.5074177 8279615
-4.0945606 -0.39327487 4.5074177 8542017
-4.0502524 -0.39327487 4.5074177 9001791
-4.5066872 -0.44243422 5.0708447 9593666
-3.9616363 -0.39327487 4.5074177 9855806
-3.9173281 -0.39327487 4.5074177 6435099
-3.8730199 -0.39327487 4.5074177 3940120
-3.8287117 -0.39327487 4.5074177 10775628
-3.7844038 -0.39327487 4.5074177 10646090
-3.7400956 -0.39327487 4.5074177 10841416
-3.0238259 -0.32177034 3.687887 11104588
-2.7386093 -0.29495612 3.380563 11104331
-2.4972725 -0.27226722 3.1205199 11235917
-2.4665976 -0.27226722 3.1205199 11367500
-2.4359226 -0.27226722 3.1205199 11367500
-2.4052479 -0.27226722 3.1205199 11105355
-2.374573 -0.27226722 3.1205199 11367503
-2.3438981 -0.27226722 3.1205199 11630415
-2.3132234 -0.27226722 3.1205199 11694925
-2.2825484 -0.27226722 3.1205199 11893072
-2.2518735 -0.27226722 3.1205199 11500116
-2.0625415 -0.25281954 2.8976254 11499602
-1.8984538 -0.23596489 2.7044504 11762256
-1.6516492 -0.20820433 2.3862798 11959122
-1.5377369 -0.19663744 2.2537088 11893331
-1.4358153 -0.18628809 2.1350925 11893587
-1.3440859 -0.17697369 2.028338 12155474
-1.3241472 -0.17697369 2.028338 12286545
-1.3042086 -0.17697369 2.028338 12090194
0 0 0 12484439
0 0 0 12222289
0 0 0 12484691
-0.54420173 -0.078654967 0.90148348 12287568
-0.53534013 -0.078654967 0.90148348 12419668
-0.4556064 -0.068066806 0.78012997 12747351
-0.4479377 -0.068066806 0.78012997 12813143
-0.44026899 -0.068066806 0.78012997 12615510
-0.43260029 -0.068066806 0.78012997 13010009
-0.40919337 -0.065545812 0.75123626 13207126
-0.38066086 -0.06209603 0.71169752 13142105
-0.37366483 -0.06209603 0.71169752 13142363
-0.34833536 -0.058991224 0.67611259 13469274
-0.34748051 -0.05999108 0.68757218 13076311
-0.34659612 -0.061025407 0.69942683 13273690
-0.33972073 -0.061025407 0.69942683 13075542
-0.33284533 -0.061025407 0.69942683 4464920
-0.32044503 -0.05999108 0.68757218 3479579
-0.31368616 -0.05999108 0.68757218 2953492
-0.30692729 -0.05999108 0.68757218 2494227
-0.30016842 -0.05999108 0.68757218 1968911
-0.29340959 -0.05999108 0.68757218 2759710
-0.28187317 -0.058991224 0.67611259 2757909
-0.27989185 -0.05999108 0.68757218 2954773
-0.27313298 -0.05999108 0.68757218 2757396
-0.26637411 -0.05999108 0.68757218 2822673
-0.25961524 -0.05999108 0.68757218 2626321
-0.25285637 -0.05999108 0.68757218 2493713
-0.24609752 -0.05999108 0.68757218 2231309
-0.23933865 -0.05999108 0.68757218 2165518
-0.23257978 -0.05999108 0.68757218 1837838
-0.22582091 -0.05999108 0.68757218 2427920
-0.22283897 -0.061025407 0.69942683 2362127
-0.21975242 -0.06209603 0.71169752 3019281
-0.21655561 -0.063204885 0.72440636 3216146
-0.21324256 -0.064354062 0.73757738 3480089
-0.20980683 -0.065545812 0.75123626 3610904
-0.20624141 -0.066782519 0.76541048 3609621
-0.1987174 -0.066782519 0.76541048 3610132
-0.19119337 -0.066782519 0.76541048 3807253
-0.18026808 -0.065545812 0.75123626 3741459
-0.16974005 -0.064354062 0.73757738 3741460
-0.15958804 -0.063204885 0.72440636 3806742
-0.15246709 -0.063204885 0.72440636 3807766
-0.14534613 -0.063204885 0.72440636 3676950
-0.14073838 -0.064354062 0.73757738 3742234
-0.13110425 -0.063204885 0.72440636 2033162
-0.1239833 -0.063204885 0.72440636 852489
-0.12119059 -0.065545812 0.75123626 853003
0 0 0 1246731
0 0 0 1378059
0 0 0 1444110
0 0 0 1378833
0 0 0 1837840
0 0 0 1837327
0 0 0 2035217
-0.10819702 -0.11417657 1.3086051 1575438
-0.10554766 -0.12640977 1.4488127 1642256
-0.10226246 -0.14157894 1.6226703 1772818
-0.12692873 -0.20820433 2.3862798 1903887
0 0 0 1772301
0 0 0 2691602
0 0 0 8342312
-0.070337035 -0.44243422 5.0708447 14390624
-0.018213693 -0.39327487 4.5074177 14456418
0.026094424 -0.39327487 4.5074177 14588005
0.07040254 -0.39327487 4.5074177 14391907
0.11471066 -0.39327487 4.5074177 14653282
0.15901878 -0.39327487 4.5074177 14261089
0.26142028 -0.50563908 5.7952509 14588005
0 0 0 14324837
0.43791467 -0.58991224 6.761126 7487787
0.43232301 -0.50563908 5.7952509 5713438
0.42812929 -0.44243422 5.0708447 5779747
0.4779759 -0.44243422 5.0708447 6172190
0.52782255 -0.44243422 5.0708447 6107424
0.57766914 -0.44243422 5.0708447 6040604
0.62751579 -0.44243422 5.0708447 5582629
0.67736244 -0.44243422 5.0708447 4858647
0.72720903 -0.44243422 5.0708447 5450014
0.77705568 -0.44243422 5.0708447 5252635
0.82690233 -0.44243422 5.0708447 5450781
0.87674892 -0.44243422 5.0708447 5844252
1.0589664 -0.50563908 5.7952509 2952715
1.1159339 -0.50563908 5.7952509 1444107
1.1729015 -0.50563908 5.7952509 1378059
1.2298691 -0.50563908 5.7952509 1443852
1.2868366 -0.50563908 5.7952509 1313294
1.3438042 -0.50563908 5.7952509 7032646
1.2256753 -0.44243422 5.0708447 9198657
1.275522 -0.44243422 5.0708447 10052937
1.3253686 -0.44243422 5.0708447 10579022
1.3752153 -0.44243422 5.0708447 11170125
1.9000825 -0.58991224 6.761126 12418134
1.9665446 -0.58991224 6.761126 12616026
2.0330069 -0.58991224 6.761126 12944477
2.0994689 -0.58991224 6.761126 12944990
1.6244484 -0.44243422 5.0708447 13011039
1.6742951 -0.44243422 5.0708447 13338716
1.7241417 -0.44243422 5.0708447 13338461
1.7739882 -0.44243422 5.0708447 13471586
2.0843828 -0.50563908 5.7952509 13471587
2.4982421 -0.58991224 6.761126 13864802
3.0776453 -0.70789474 8.1133518 13602657
3.1573999 -0.70789474 8.1133518 13733473
1.3488142 -0.29495612 3.380563 13733475
1.2757342 -0.27226722 3.1205199 13602405
1.2130941 -0.25281954 2.8976254 13471586
1.158806 -0.23596489 2.7044504 13536866
1.1853908 -0.23596489 2.7044504 13668193
1.2119757 -0.23596489 2.7044504 13536607
1.3270292 -0.25281954 2.8976254 13799263
1.355513 -0.25281954 2.8976254 13799261
1.3839968 -0.25281954 2.8976254 13471842
1.4124806 -0.25281954 2.8976254 13799009
1.3449001 -0.23596489 2.7044504 13273953
1.4694482 -0.25281954 2.8976254 13338717
1.497932 -0.25281954 2.8976254 13469792
1.5264157 -0.25281954 2.8976254 13273439
1.2093664 -0.19663744 2.2537088 13207130
1.3039628 -0.20820433 2.3862798 13142621
1.32742 -0.20820433 2.3862798 13272668
1.3508773 -0.20820433 2.3862798 13207390
1.2296677 -0.18628809 2.1350925 13206875
1.2506558 -0.18628809 2.1350925 12879196
1.2716439 -0.18628809 2.1350925 12683101
1.2926319 -0.18628809 2.1350925 12551515
1.31362 -0.18628809 2.1350925 12155474
1.334608 -0.18628809 2.1350925 1838358
1.430907 -0.19663744 2.2537088 1181454
1.5385351 -0.20820433 2.3862798 1181454
1.5619924 -0.20820433 2.3862798 919567
1.4185603 -0.18628809 2.1350925 1049870
1.3675709 -0.17697369 2.028338 787981
1.3875096 -0.17697369 2.028338 1115661
1.4815243 -0.18628809 2.1350925 1115661
1.6792786 -0.20820433 2.3862798 853260
1.6081395 -0.19663744 2.2537088 852489
1.7261931 -0.20820433 2.3862798 656137
1.4872029 -0.17697369 2.028338 984845
1.5071415 -0.17697369 2.028338 918536
1.5270802 -0.17697369 2.028338 919052
1.6284407 -0.18628809 2.1350925 984588
1.6494288 -0.18628809 2.1350925 984075
1.7632179 -0.19663744 2.2537088 1115663
1.7853719 -0.19663744 2.2537088 853004
1.807526 -0.19663744 2.2537088 787981
1.8296801 -0.19663744 2.2537088 1049868
1.8518342 -0.19663744 2.2537088 919310
1.8739882 -0.19663744 2.2537088 984075
1.8961422 -0.19663744 2.2537088 1115661
1.6442538 -0.16854636 1.9317503 918282
1.6632431 -0.16854636 1.9317503 918282
1.6057671 -0.16088517 1.8439435 1115661
1.5532892 -0.15389016 1.763772 787465
1.5706271 -0.15389016 1.763772 656393
1.5217998 -0.14747806 1.6902815 590600
1.4768788 -0.14157894 1.6226703 983815
1.4928297 -0.14157894 1.6226703 853002
1.5087806 -0.14157894 1.6226703 918282
1.4660881 -0.13613361 1.5602599 852746
1.4814255 -0.13613361 1.5602599 1115660
1.496763 -0.13613361 1.5602599 787465
1.4560966 -0.13109162 1.5024725 787209
1.5274378 -0.13613361 1.5602599 4597787
1.5427752 -0.13613361 1.5602599 9658172
1.5581126 -0.13613361 1.5602599 10054218
1.4106793 -0.12205081 1.3988537 10184780
1.4244301 -0.12205081 1.3988537 10053194
1.3902415 -0.11798245 1.3522252 10053966
1.3582587 -0.11417657 1.3086051 10184782
1.3711224 -0.11417657 1.3086051 9660235
1.383986 -0.11417657 1.3086051 9792082
1.3968496 -0.11417657 1.3086051 9921612
1.4097133 -0.11417657 1.3086051 9922895
1.4225769 -0.11417657 1.3086051 10118991
1.4354405 -0.11417657 1.3086051 9659726
1.4030447 -0.11060856 1.2677112 9791055
1.3726121 -0.10725677 1.2292956 9856589
1.3846962 -0.10725677 1.2292956 9922381
1.3967803 -0.10725677 1.2292956 9856589
1.4088643 -0.10725677 1.2292956 9856332
1.4209483 -0.10725677 1.2292956 10186065
1.5254861 -0.11417657 1.3086051 9988686
1.4902763 -0.11060856 1.2677112 10118987
1.5512134 -0.11417657 1.3086051 9660235
1.7316567 -0.12640977 1.4488127 9790794
0 0 0 9659209
0 0 0 9856588
0 0 0 9988173
0 0 0 9988175
0 0 0 9528910
0 0 0 9660750
0 0 0 9922380
0 0 0 9790794
0 0 0 9725259
0 0 0 9528397
0 0 0 9724483
0 0 0 9791305
-5.3794961 -0.34896675 4.5074177 10908756
-5.3351879 -0.34896675 4.5074177 11302742
-4.7617917 -0.31407008 4.0566759 11237205
-4.2926493 -0.28551823 3.687887 11303256
-4.6820374 -0.31407008 4.0566759 11500376
-4.6421599 -0.31407008 4.0566759 11631449
-4.6022825 -0.31407008 4.0566759 11697242
-4.5624051 -0.31407008 4.0566759 11697242
-4.1113887 -0.28551823 3.687887 11828056
-4.0751367 -0.28551823 3.687887 11762520
-4.0388846 -0.28551823 3.687887 11763034
-4.0026326 -0.28551823 3.687887 12157535
-3.9663804 -0.28551823 3.687887 11959643
