# .PCD v0.7 - Point Cloud Data file format
VERSION 0.7
FIELDS x y z rgb
SIZE 4 4 4 4
TYPE F F F U
COUNT 1 1 1 1
WIDTH 1300
HEIGHT 1
VIEWPOINT 0 0 0 1 0 0 0
POINTS 1300
DATA ascii
-0.1252213 0.04984105 0.62410396 524550
-0.11728198 0.049085878 0.61464781 393220
-0.11295135 0.04984105 0.62410396 524550
-0.10681639 0.04984105 0.62410396 720905
-0.10068142 0.04984105 0.62410396 852489
-0.099121273 0.05225271 0.65430254 786696
-0.094208948 0.053109314 0.66502881 721159
-0.099036537 0.059993856 0.75123626 721673
-0.091651849 0.059993856 0.75123626 590089
-0.077125877 0.054909632 0.68757218 458761
-0.070367016 0.054909632 0.68757218 655368
-0.064704835 0.055856347 0.69942683 524294
-0.058843996 0.056836285 0.71169752 655626
-0.075777814 0.083068416 1.0401733 786696
-0.06555286 0.083068416 1.0401733 786698
-0.041495934 0.062301312 0.78012997 655881
-0.033827219 0.062301312 0.78012997 787213
-0.026158508 0.062301312 0.78012997 655625
-0.018489795 0.062301312 0.78012997 721160
-0.010821083 0.062301312 0.78012997 984073
-0.0033453722 0.066115677 0.82789302 852745
0.0047928533 0.066115677 0.82789302 1246730
0.012185055 0.062301312 0.78012997 1444110
0.021069305 0.066115677 0.82789302 1312267
0.031803753 0.071992621 0.90148348 1444109
0 0 0 1509902
0 0 0 1509645
0 0 0 1641229
0 0 0 1706254
0 0 0 1509646
0 0 0 1312270
0 0 0 1246731
0 0 0 1115914
0 0 0 787466
0 0 0 655623
0.44751328 0.24920525 3.1205199 852489
0.47818813 0.24920525 3.1205199 983304
0.50886297 0.24920525 3.1205199 786697
0.5844993 0.26997232 3.380563 655625
0.67388767 0.29451528 3.687887 786954
0.7811538 0.32396683 4.0566759 589832
0.91225678 0.35996315 4.5074177 721416
0.9565649 0.35996315 4.5074177 720904
0.90078574 0.32396683 4.0566759 786695
0.94066304 0.32396683 4.0566759 4335905
1.0894892 0.35996315 4.5074177 4728347
1.4577394 0.46280971 5.7952509 4267803
1.3253686 0.40495852 5.0708447 4662556
1.3752153 0.40495852 5.0708447 4728349
1.2667217 0.35996315 4.5074177 4662298
1.3110299 0.35996315 4.5074177 4399899
1.1089128 0.29451528 3.687887 4136729
0.89977241 0.23140486 2.8976254 5913130
0.99966061 0.24920525 3.1205199 9199176
1.0303354 0.24920525 3.1205199 10251598
1.0610102 0.24920525 3.1205199 10579536
1.1826588 0.26997232 3.380563 11040085
1.3264254 0.29451528 3.687887 11302487
1.2491211 0.26997232 3.380563 11564883
1.2823521 0.26997232 3.380563 11695956
1.2143846 0.24920525 3.1205199 10709852
1.1561265 0.23140486 2.8976254 1181710
1.2757342 0.24920525 3.1205199 1050124
0 0 0 787979
0 0 0 655880
1.0459331 0.19056872 2.3862798 786696
1.0693904 0.19056872 2.3862798 852489
0.74313641 0.12958673 1.6226703 917512
0.75908732 0.12958673 1.6226703 590087
0.77503824 0.12958673 1.6226703 590087
0.85977083 0.14085513 1.763772 524809
0.96064293 0.1542699 1.9317503 590087
0.97963214 0.1542699 1.9317503 655366
1.0485525 0.16198342 2.028338 524551
1.0684911 0.16198342 2.028338 524294
1.1457155 0.17050885 2.1350925 720903
1.1667036 0.17050885 2.1350925 720903
1.1876916 0.17050885 2.1350925 852489
1.2086797 0.17050885 2.1350925 786953
1.2979827 0.17998157 2.2537088 721160
1.2506558 0.17050885 2.1350925 917770
1.2716439 0.17050885 2.1350925 917768
1.2926319 0.17050885 2.1350925 590087
1.31362 0.17050885 2.1350925 590345
1.334608 0.17050885 2.1350925 852487
1.3555961 0.17050885 2.1350925 786952
1.3765841 0.17050885 2.1350925 721675
1.3975722 0.17050885 2.1350925 656395
1.3476323 0.16198342 2.028338 984075
1.3675709 0.16198342 2.028338 918282
1.4605364 0.17050885 2.1350925 918284
1.4815243 0.17050885 2.1350925 852491
1.4273869 0.16198342 2.028338 721163
1.4473255 0.16198342 2.028338 983559
1.3973943 0.1542699 1.9317503 918538
1.4163835 0.1542699 1.9317503 2560525
1.4353727 0.1542699 1.9317503 6965815
1.4543619 0.1542699 1.9317503 7162687
1.5470188 0.16198342 2.028338 7360069
1.5669575 0.16198342 2.028338 7885899
1.5868961 0.16198342 2.028338 8016971
1.5303187 0.1542699 1.9317503 7425350
1.5493079 0.1542699 1.9317503 6966083
1.4319234 0.14085513 1.763772 6900289
1.4492614 0.14085513 1.763772 6966851
1.4665993 0.14085513 1.763772 3019798
1.4839373 0.14085513 1.763772 2427918
1.5012753 0.14085513 1.763772 1180938
1.5876411 0.14725764 1.8439435 458762
1.6057671 0.14725764 1.8439435 459016
1.7012215 0.1542699 1.9317503 786953
1.6420193 0.14725764 1.8439435 590087
1.9222735 0.17050885 2.1350925 524807
2.0512207 0.17998157 2.2537088 524294
2.0733747 0.17998157 2.2537088 590087
2.0955288 0.17998157 2.2537088 590087
2.1176829 0.17998157 2.2537088 655881
1.8341458 0.1542699 1.9317503 721417
1.9457918 0.16198342 2.028338 720905
1.9657305 0.16198342 2.028338 721675
1.9856691 0.16198342 2.028338 524296
2.0056078 0.16198342 2.028338 720905
2.0255466 0.16198342 2.028338 590344
2.045485 0.16198342 2.028338 590344
2.1741302 0.17050885 2.1350925 721673
2.4533675 0.19056872 2.3862798 786696
2.4768248 0.19056872 2.3862798 852489
2.5002818 0.19056872 2.3862798 786696
2.5237391 0.19056872 2.3862798 786696
2.5471964 0.19056872 2.3862798 655880
2.5706537 0.19056872 2.3862798 787466
2.7562428 0.20247926 2.5354223 786696
0 0 0 721675
0 0 0 590602
0 0 0 721675
0 0 0 852490
11.523438 0.80991703 10.141689 852489
9.2985048 0.64793366 8.1133518 852489
9.3782597 0.64793366 8.1133518 852489
9.4580145 0.64793366 8.1133518 852489
9.5377693 0.64793366 8.1133518 984075
16.029205 1.0798893 13.522252 852489
24.243195 1.6198341 20.283379 852489
0 0 0 918282
0 0 0 721417
0 0 0 786954
0 0 0 786696
0 0 0 786696
0 0 0 852489
0 0 0 720903
0 0 0 721161
0 0 0 918025
0 0 0 1575439
0 0 0 1050639
0 0 0 1313302
-6.0519328 0.45480514 5.0708447 3023138
-6.0020862 0.45480514 5.0708447 9595480
-5.9522395 0.45480514 5.0708447 10645332
-5.9023929 0.45480514 5.0708447 10776660
-5.8525462 0.45480514 5.0708447 10776401
-5.8026996 0.45480514 5.0708447 10711378
-5.7528529 0.45480514 5.0708447 10973778
-5.0693393 0.40427125 4.5074177 10973780
-5.0250311 0.40427125 4.5074177 10973778
-4.9807229 0.40427125 4.5074177 11236437
-4.9364147 0.40427125 4.5074177 11105105
-4.8921065 0.40427125 4.5074177 10908499
-4.8477983 0.40427125 4.5074177 10843477
-7.205235 0.60640687 6.761126 10646355
-7.138773 0.60640687 6.761126 11106135
-3.8576241 0.33076736 3.687887 11039570
-3.821372 0.33076736 3.687887 11105360
-4.1636324 0.36384413 4.0566759 10381639
-4.5819497 0.40427125 4.5074177 7488810
-4.5376415 0.40427125 4.5074177 5846565
-3.6763637 0.33076736 3.687887 1902596
-3.6401114 0.33076736 3.687887 1181451
-3.9642456 0.36384413 4.0566759 1181193
-4.3604093 0.40427125 4.5074177 2560785
-4.3161011 0.40427125 4.5074177 3217429
-4.8057671 0.45480514 5.0708447 3217429
-4.7559204 0.45480514 5.0708447 3085843
-4.7060738 0.45480514 5.0708447 3151636
-4.6562271 0.45480514 5.0708447 3348245
-4.6063805 0.45480514 5.0708447 3479318
-4.5565338 0.45480514 5.0708447 3479572
-4.5066872 0.45480514 5.0708447 3742744
-4.4568405 0.45480514 5.0708447 3414292
-4.4069939 0.45480514 5.0708447 3545624
-3.8730199 0.40427125 4.5074177 3283222
-3.8287117 0.40427125 4.5074177 3480085
-3.7844038 0.40427125 4.5074177 3215887
-3.7400956 0.40427125 4.5074177 1049350
-3.3262088 0.36384413 4.0566759 1312523
-3.2863314 0.36384413 4.0566759 1640201
-3.2464542 0.36384413 4.0566759 655366
-3.5628631 0.40427125 4.5074177 720903
-3.1666996 0.36384413 4.0566759 917512
-3.1268222 0.36384413 4.0566759 852743
-3.4299388 0.40427125 4.5074177 852743
-3.3856306 0.40427125 4.5074177 852489
-3.0071902 0.36384413 4.0566759 721673
-2.9673131 0.36384413 4.0566759 656393
-2.9274356 0.36384413 4.0566759 787210
-3.2083981 0.40427125 4.5074177 918282
-3.1640902 0.40427125 4.5074177 1114891
-3.119782 0.40427125 4.5074177 721416
-3.0754738 0.40427125 4.5074177 655880
-3.0311658 0.40427125 4.5074177 524808
-2.9868577 0.40427125 4.5074177 721675
-2.9425495 0.40427125 4.5074177 589830
-2.8982413 0.40427125 4.5074177 918024
-2.8539333 0.40427125 4.5074177 1180682
-3.1608281 0.45480514 5.0708447 1049098
-3.1109815 0.45480514 5.0708447 852233
-3.0611348 0.45480514 5.0708447 918025
-3.0112882 0.45480514 5.0708447 852487
-2.9614415 0.45480514 5.0708447 918536
-2.9115949 0.45480514 5.0708447 918282
-2.8617485 0.45480514 5.0708447 918282
-2.8119018 0.45480514 5.0708447 655880
-2.7620552 0.45480514 5.0708447 852489
-2.7122085 0.45480514 5.0708447 917769
-2.6623619 0.45480514 5.0708447 655880
-2.9857316 0.5197773 5.7952509 786698
0 0 0 721161
0 0 0 655882
-2.8148289 0.5197773 5.7952509 1246473
-2.4131286 0.45480514 5.0708447 3150357
-2.363282 0.45480514 5.0708447 7291698
-0.39377624 0.077413641 0.86312246 9394748
-0.39366761 0.079096548 0.88188601 9593150
-0.39355415 0.080854245 0.90148348 9855811
-0.38469252 0.080854245 0.90148348 9592897
-0.36766067 0.079096548 0.88188601 7423029
-0.34403369 0.075800858 0.84514076 852746
-0.33572593 0.075800858 0.84514076 1049869
-0.32741815 0.075800858 0.84514076 786954
-0.31259793 0.074253902 0.82789302 787724
-0.29252011 0.071341984 0.79542661 918537
-0.28470105 0.071341984 0.79542661 524552
-0.26643357 0.068649828 0.76541048 1246989
-0.25890955 0.068649828 0.76541048 1313037
-0.24673025 0.067378543 0.75123626 983817
-0.23934558 0.067378543 0.75123626 721675
-0.22367656 0.064972162 0.72440636 458759
-0.20908818 0.062731743 0.69942683 655628
-0.20221278 0.062731743 0.69942683 721675
-0.18882613 0.060640685 0.67611259 590089
-0.18217991 0.060640685 0.67611259 590088
-0.1755337 0.060640685 0.67611259 590602
-0.16611885 0.059646577 0.66502881 590346
-0.1545155 0.057753034 0.64391679 655369
-0.14362621 0.055976018 0.62410396 720905
-0.13749124 0.055976018 0.62410396 787981
-0.13135627 0.055976018 0.62410396 918282
-0.12717788 0.056850642 0.63385558 524296
-0.11908633 0.055976018 0.62410396 393220
-0.11471622 0.056850642 0.63385558 590089
-0.10848539 0.056850642 0.63385558 720905
-0.10225456 0.056850642 0.63385558 655880
0 0 0 655880
0 0 0 590345
0 0 0 655880
-0.088378564 0.064972162 0.72440636 590089
-0.075840443 0.060640685 0.67611259 720905
-0.070367016 0.061668497 0.68757218 590602
-0.065840013 0.063832305 0.71169752 786952
-0.058843996 0.063832305 0.71169752 721674
-0.051847976 0.063832305 0.71169752 786696
-0.048237007 0.068649828 0.76541048 786696
-0.037855938 0.063832305 0.71169752 721416
-0.033188969 0.068649828 0.76541048 852231
-0.026158508 0.069970027 0.78012997 852233
-0.018489795 0.069970027 0.78012997 787209
-0.010821083 0.069970027 0.78012997 984072
-0.0033453722 0.074253902 0.82789302 1378060
0.0051054307 0.079096548 0.88188601 1049098
0.013481337 0.077413641 0.86312246 984329
0.022942131 0.080854245 0.90148348 1378059
0.031803753 0.080854245 0.90148348 1574668
0.040665377 0.080854245 0.90148348 1444110
0 0 0 1640461
0 0 0 1706254
0 0 0 1705739
0 0 0 1509645
0 0 0 1115914
0 0 0 1246474
0 0 0 1180938
0 0 0 1049351
0.33868122 0.22740257 2.5354223 1115145
0.36360452 0.22740257 2.5354223 918537
0.4440318 0.25988865 2.8976254 984072
0.47251561 0.25988865 2.8976254 983562
0.53953785 0.27988011 3.1205199 787212
0.67388767 0.33076736 3.687887 590088
0.86794865 0.40427125 4.5074177 721159
0.91225678 0.40427125 4.5074177 787211
0.86090839 0.36384413 4.0566759 786951
0.90078574 0.36384413 4.0566759 590089
1.0451812 0.40427125 4.5074177 3810594
1.9610807 0.72768825 8.1133518 5253918
2.0408354 0.72768825 8.1133518 5186329
1.514707 0.5197773 5.7952509 4662045
1.3752153 0.45480514 5.0708447 4596765
1.2667217 0.40427125 4.5074177 4727581
1.3110299 0.40427125 4.5074177 4398873
1.0165035 0.30320343 3.380563 4268568
0.89977241 0.25988865 2.8976254 6109737
0.92825621 0.25988865 2.8976254 13341542
0.95674002 0.25988865 2.8976254 13866601
1.0610102 0.27988011 3.1205199 13406057
1.0916852 0.27988011 3.1205199 11762521
1.12236 0.27988011 3.1205199 11038540
1.1530348 0.27988011 3.1205199 9659977
1.1837097 0.27988011 3.1205199 9857099
1.0524665 0.24256274 2.7044504 9593426
1.0790514 0.24256274 2.7044504 1640718
1.1056362 0.24256274 2.7044504 853002
0 0 0 787466
1.158806 0.24256274 2.7044504 721673
1.0459331 0.21402594 2.3862798 1114888
0.72718549 0.14553764 1.6226703 721159
0.68808925 0.13475709 1.5024725 786696
0.75908732 0.14553764 1.6226703 590087
0.77503824 0.14553764 1.6226703 852745
0.85977083 0.1581931 1.763772 983307
0.91697735 0.16538368 1.8439435 917766
0.97963214 0.17325909 1.9317503 918282
1.0485525 0.18192206 2.028338 1049870
1.0684911 0.18192206 2.028338 655882
1.0884298 0.18192206 2.028338 852744
1.1667036 0.19149691 2.1350925 918024
1.1876916 0.19149691 2.1350925 984329
1.2086797 0.19149691 2.1350925 1838609
1.2979827 0.20213562 2.2537088 1246476
1.3201367 0.20213562 2.2537088 983560
1.2716439 0.19149691 2.1350925 720903
1.2926319 0.19149691 2.1350925 393479
1.1885133 0.17325909 1.9317503 327685
1.2075025 0.17325909 1.9317503 1049094
1.2264916 0.17325909 1.9317503 852743
1.2454808 0.17325909 1.9317503 852489
1.26447 0.17325909 1.9317503 1049356
1.2834592 0.17325909 1.9317503 852491
1.3024484 0.17325909 1.9317503 787468
1.4605364 0.19149691 2.1350925 918538
1.4815243 0.19149691 2.1350925 787468
1.4273869 0.18192206 2.028338 721933
1.4473255 0.18192206 2.028338 852489
1.3973943 0.17325909 1.9317503 655882
1.4163835 0.17325909 1.9317503 2888723
1.4353727 0.17325909 1.9317503 4797478
1.4543619 0.17325909 1.9317503 5388589
1.4733511 0.17325909 1.9317503 6242359
1.4923403 0.17325909 1.9317503 6834237
1.5113295 0.17325909 1.9317503 7754567
1.5303187 0.17325909 1.9317503 7687493
1.5493079 0.17325909 1.9317503 6639692
1.4970108 0.16538368 1.8439435 6768450
1.4492614 0.1581931 1.763772 6704965
1.4665993 0.1581931 1.763772 3217948
1.4839373 0.1581931 1.763772 2626323
1.5012753 0.1581931 1.763772 1115144
1.5186132 0.1581931 1.763772 524296
1.6057671 0.16538368 1.8439435 524551
1.6238931 0.16538368 1.8439435 524551
1.6420193 0.16538368 1.8439435 720903
1.9222735 0.19149691 2.1350925 786696
2.0512207 0.20213562 2.2537088 590087
2.0733747 0.20213562 2.2537088 720905
2.0955288 0.20213562 2.2537088 721418
1.9059145 0.18192206 2.028338 590345
1.8341458 0.17325909 1.9317503 590346
1.853135 0.17325909 1.9317503 655624
1.6381086 0.15160172 1.6902815 590088
1.6547242 0.15160172 1.6902815 524295
1.9101025 0.17325909 1.9317503 852489
2.0255466 0.18192206 2.028338 720903
2.045485 0.18192206 2.028338 590341
1.9670701 0.17325909 1.9317503 721673
2.0853624 0.18192206 2.028338 786696
2.4768248 0.21402594 2.3862798 852489
2.5002818 0.21402594 2.3862798 655882
2.5237391 0.21402594 2.3862798 655880
2.5471964 0.21402594 2.3862798 656393
2.5706537 0.21402594 2.3862798 918282
2.4499936 0.20213562 2.2537088 524296
2.7811661 0.22740257 2.5354223 919053
0 0 0 655880
0 0 0 721673
11.423744 0.90961027 10.141689 787209
9.21875 0.72768825 8.1133518 853001
3.5763481 0.27988011 3.1205199 786952
3.607023 0.27988011 3.1205199 983818
3.377862 0.25988865 2.8976254 786696
3.4063458 0.25988865 2.8976254 721673
3.6990473 0.27988011 3.1205199 786696
0 0 0 656134
0 0 0 655880
0 0 0 721159
0 0 0 721160
0 0 0 655882
0 0 0 852489
0 0 0 852743
0 0 0 787466
0 0 0 852746
0 0 0 918281
0 0 0 984329
0 0 0 787468
0 0 0 1116694
-6.0519328 0.50465178 5.0708447 3022882
-6.0020862 0.50465178 5.0708447 9595223
-5.9522395 0.50465178 5.0708447 10711382
-5.9023929 0.50465178 5.0708447 10842451
-5.8525462 0.50465178 5.0708447 10645842
-5.8026996 0.50465178 5.0708447 10579792
-5.7528529 0.50465178 5.0708447 10841682
-5.0693393 0.44857937 4.5074177 10973780
-5.0250311 0.44857937 4.5074177 10777430
-4.9807229 0.44857937 4.5074177 10843480
-4.9364147 0.44857937 4.5074177 11171158
-4.8921065 0.44857937 4.5074177 11039319
-7.2716975 0.67286903 6.761126 10908501
-7.205235 0.67286903 6.761126 11170390
-4.2832642 0.40372145 4.0566759 11170646
-3.5361555 0.33643451 3.380563 10974294
-3.821372 0.36701947 3.687887 10908241
-3.78512 0.36701947 3.687887 10250567
-4.5819497 0.44857937 4.5074177 7489580
-4.5376415 0.44857937 4.5074177 5846822
-3.6763637 0.36701947 3.687887 1968389
-3.6401114 0.36701947 3.687887 1181450
-3.9642456 0.40372145 4.0566759 1182220
-4.3604093 0.44857937 4.5074177 3086870
-4.3161011 0.44857937 4.5074177 3611926
-4.2717929 0.44857937 4.5074177 3611671
-4.7559204 0.50465178 5.0708447 3743002
-4.7060738 0.50465178 5.0708447 3677464
-4.6562271 0.50465178 5.0708447 3480085
-4.6063805 0.50465178 5.0708447 3415062
-4.5565338 0.50465178 5.0708447 3349272
-4.5066872 0.50465178 5.0708447 3414295
-4.4568405 0.50465178 5.0708447 3611158
-4.4069939 0.50465178 5.0708447 3480085
-3.8730199 0.44857937 4.5074177 3217686
-3.8287117 0.44857937 4.5074177 3151890
-3.7844038 0.44857937 4.5074177 2821901
-3.7400956 0.44857937 4.5074177 983045
-3.6957874 0.44857937 4.5074177 1049355
-3.6514795 0.44857937 4.5074177 1180163
-3.2464542 0.40372145 4.0566759 786950
-3.5628631 0.44857937 4.5074177 918281
-3.1666996 0.40372145 4.0566759 786953
-3.1268222 0.40372145 4.0566759 787465
-3.0869448 0.40372145 4.0566759 787721
-3.3856306 0.44857937 4.5074177 918535
-3.0071902 0.40372145 4.0566759 1180937
-2.9673131 0.40372145 4.0566759 853259
-2.9274356 0.40372145 4.0566759 984586
-2.8875585 0.40372145 4.0566759 984329
-2.847681 0.40372145 4.0566759 787466
-2.8078039 0.40372145 4.0566759 853001
-2.7679265 0.40372145 4.0566759 852489
-2.7280493 0.40372145 4.0566759 590602
-2.9868577 0.44857937 4.5074177 590087
-2.9425495 0.44857937 4.5074177 656134
-2.8982413 0.44857937 4.5074177 655880
-2.8539333 0.44857937 4.5074177 983302
-2.8096251 0.44857937 4.5074177 983559
-3.1109815 0.50465178 5.0708447 721673
-2.721009 0.44857937 4.5074177 786696
-3.0112882 0.50465178 5.0708447 918023
-2.9614415 0.50465178 5.0708447 1115403
-2.9115949 0.50465178 5.0708447 786953
-2.8617485 0.50465178 5.0708447 721416
-2.8119018 0.50465178 5.0708447 918536
-2.7620552 0.50465178 5.0708447 918536
-2.7122085 0.50465178 5.0708447 786697
-2.6623619 0.50465178 5.0708447 655880
-2.6125152 0.50465178 5.0708447 852743
-2.9287641 0.57674485 5.7952509 918281
-2.5128219 0.50465178 5.0708447 656134
-2.4629753 0.50465178 5.0708447 1509646
-3.2175047 0.67286903 6.761126 3941148
-3.7812514 0.8074429 8.1133518 7029298
-3.0845804 0.67286903 6.761126 8278584
-0.40241578 0.089715868 0.90148348 9198141
-0.39355415 0.089715868 0.90148348 9264702
-0.38469252 0.089715868 0.90148348 9462081
-0.37583092 0.089715868 0.90148348 8146998
-0.36696929 0.089715868 0.90148348 853000
-0.34286904 0.085898168 0.86312246 983817
-0.32741815 0.084108628 0.84514076 590087
-0.31259793 0.082392126 0.82789302 852489
-0.29837051 0.080744281 0.81133515 984331
-0.28470105 0.079161063 0.79542661 787465
-0.2715573 0.077638738 0.78012997 721418
-0.25890955 0.076173849 0.76541048 721417
-0.24673025 0.074763231 0.75123626 590347
-0.23499382 0.073403895 0.73757738 655625
-0.22367656 0.072093107 0.72440636 590089
-0.20908818 0.069607139 0.69942683 655882
-0.20221278 0.069607139 0.69942683 787466
-0.19876437 0.070828319 0.71169752 590089
-0.18526773 0.068427362 0.68757218 720906
-0.1755337 0.067286901 0.67611259 720905
-0.16611885 0.066183843 0.66502881 590345
-0.1545155 0.064082764 0.64391679 655624
-0.14362621 0.062110987 0.62410396 590091
-0.13749124 0.062110987 0.62410396 721675
-0.13135627 0.062110987 0.62410396 983305
-0.12717788 0.063081473 0.63385558 393222
-0.12094705 0.063081473 0.63385558 393222
-0.11471622 0.063081473 0.63385558 459016
-0.10848539 0.063081473 0.63385558 655880
0 0 0 459014
0 0 0 524807
0 0 0 655880
-0.095499516 0.072093107 0.72440636 786696
-0.088378564 0.072093107 0.72440636 524809
-0.081257619 0.072093107 0.72440636 655882
-0.074136674 0.072093107 0.72440636 590087
-0.065840013 0.070828319 0.71169752 524296
-0.056849282 0.068427362 0.68757218 590089
-0.051847976 0.070828319 0.71169752 655880
-0.044078644 0.069607139 0.69942683 786440
-0.037203249 0.069607139 0.69942683 655881
-0.030327851 0.069607139 0.69942683 655882
-0.025189674 0.074763231 0.75123626 721415
-0.018140931 0.076173849 0.76541048 852489
-0.010821083 0.077638738 0.78012997 918282
-0.0032784648 0.080744281 0.81133515 1246731
0.0051054307 0.087765522 0.88188601 918536
0.01377441 0.087765522 0.88188601 1115915
0.022942131 0.089715868 0.90148348 1246731
0.031803753 0.089715868 0.90148348 1312267
0.040665377 0.089715868 0.90148348 1312266
0 0 0 1443082
0 0 0 1378059
0 0 0 1509645
0 0 0 1378059
0 0 0 1180938
0 0 0 1180681
0 0 0 1114887
0 0 0 918538
0.33868122 0.25232589 2.5354223 918282
0.36360452 0.25232589 2.5354223 918282
0.38852784 0.25232589 2.5354223 918792
0.47251561 0.28837243 2.8976254 853000
0.5844993 0.33643451 3.380563 918281
0.67388767 0.36701947 3.687887 852489
0.97644222 0.50465178 5.0708447 786696
1.0262889 0.50465178 5.0708447 786951
0.9565649 0.44857937 4.5074177 787207
1.000873 0.44857937 4.5074177 656394
1.8813261 0.8074429 8.1133518 3021852
2.4513507 1.0093036 10.141689 5384991
2.551044 1.0093036 10.141689 5121049
0 0 0 5581853
1.5716746 0.57674485 5.7952509 6831150
1.2667217 0.44857937 4.5074177 7290411
0.90763605 0.31055495 3.1205199 7488301
0.93831086 0.31055495 3.1205199 8079665
0.8397876 0.2691476 2.7044504 8604723
0.86637247 0.2691476 2.7044504 7684909
0.89295733 0.2691476 2.7044504 6699301
0.98522377 0.28837243 2.8976254 6567714
1.0137075 0.28837243 2.8976254 7159591
0.97271192 0.2691476 2.7044504 8146992
0.99929678 0.2691476 2.7044504 6568745
1.0258816 0.2691476 2.7044504 8934195
0.98668742 0.25232589 2.5354223 8147002
1.0116107 0.25232589 2.5354223 2560015
1.0365341 0.25232589 2.5354223 918025
0 0 0 590087
0.69528365 0.16148856 1.6226703 720903
0.59269542 0.1345738 1.3522252 786696
0.62688398 0.13921428 1.3988537 1049865
0.64063483 0.13921428 1.3988537 1509643
0.72989166 0.15527748 1.5602599 1379086
0.77503824 0.16148856 1.6226703 1378830
0.85977083 0.17553104 1.763772 1379087
0.91697735 0.18350974 1.8439435 1378317
1.1429043 0.22428969 2.2537088 1115916
1.1650583 0.22428969 2.2537088 1247246
1.0684911 0.20186073 2.028338 1180939
1.0365998 0.19224828 1.9317503 984073
1.0555888 0.19224828 1.9317503 1247247
1.1876916 0.21248496 2.1350925 1247501
1.2758286 0.22428969 2.2537088 2758167
1.2979827 0.22428969 2.2537088 2035990
1.3201367 0.22428969 2.2537088 1116173
1.1505349 0.19224828 1.9317503 852743
0.98240024 0.16148856 1.6226703 458762
0.99835116 0.16148856 1.6226703 524296
1.0565646 0.16821726 1.6902815 787466
1.0731802 0.16821726 1.6902815 786696
1.2454808 0.19224828 1.9317503 722186
1.26447 0.19224828 1.9317503 1115661
1.2834592 0.19224828 1.9317503 853007
1.3024484 0.19224828 1.9317503 983823
1.3875096 0.20186073 2.028338 787468
1.4074482 0.20186073 2.028338 852746
1.4273869 0.20186073 2.028338 787210
1.3784052 0.19224828 1.9317503 590344
1.3973943 0.19224828 1.9317503 721674
1.4163835 0.19224828 1.9317503 3152149
1.4353727 0.19224828 1.9317503 6441013
1.4543619 0.19224828 1.9317503 6439222
1.5470188 0.20186073 2.028338 7030590
1.4923403 0.19224828 1.9317503 6767417
1.5113295 0.19224828 1.9317503 6901056
1.4607588 0.18350974 1.8439435 6704198
1.4788848 0.18350974 1.8439435 6506050
1.4970108 0.18350974 1.8439435 7425860
1.4492614 0.17553104 1.763772 7491395
1.4665993 0.17553104 1.763772 3546141
1.4839373 0.17553104 1.763772 2364950
1.5012753 0.17553104 1.763772 1049094
1.5186132 0.17553104 1.763772 655367
1.5359511 0.17553104 1.763772 458759
1.5532892 0.17553104 1.763772 590088
1.6420193 0.18350974 1.8439435 655366
1.6601453 0.18350974 1.8439435 590344
1.758189 0.19224828 1.9317503 655881
1.622641 0.17553104 1.763772 720905
1.6399789 0.17553104 1.763772 786698
1.6573169 0.17553104 1.763772 786954
1.6746548 0.17553104 1.763772 655882
1.6214931 0.16821726 1.6902815 1576211
1.6381086 0.16821726 1.6902815 2759967
1.6547242 0.16821726 1.6902815 3154466
1.6713398 0.16821726 1.6902815 2694169
1.6879553 0.16821726 1.6902815 2365202
1.7786826 0.17553104 1.763772 2232848
1.8776579 0.18350974 1.8439435 2298639
1.8957839 0.18350974 1.8439435 1641483
2.0050485 0.19224828 1.9317503 1049609
2.5002818 0.23748319 2.3862798 852746
2.5237391 0.23748319 2.3862798 787208
2.5471964 0.23748319 2.3862798 721673
2.5706537 0.23748319 2.3862798 655882
2.594111 0.23748319 2.3862798 590600
2.617568 0.23748319 2.3862798 787466
2.2448716 0.20186073 2.028338 918282
2.2648103 0.20186073 2.028338 787209
2.4049988 0.21248496 2.1350925 786952
2.5607641 0.22428969 2.2537088 918282
2.5829182 0.22428969 2.2537088 786696
2.7583115 0.23748319 2.3862798 786696
2.7817688 0.23748319 2.3862798 721673
2.8052261 0.23748319 2.3862798 655882
2.8286831 0.23748319 2.3862798 721673
3.4633133 0.28837243 2.8976254 787466
0 0 0 786698
0 0 0 786952
0 0 0 786951
0 0 0 918282
0 0 0 853002
0 0 0 984329
0 0 0 721673
0 0 0 786954
0 0 0 918541
0 0 0 1248019
0 0 0 918797
0 0 0 1116692
-6.9164944 0.63371247 5.7952509 3023655
-6.8595266 0.63371247 5.7952509 9989468
-7.9363189 0.73933119 6.761126 10513746
-5.9023929 0.55449843 5.0708447 10710606
-5.8525462 0.55449843 5.0708447 10842193
-5.8026996 0.55449843 5.0708447 10711124
-5.7528529 0.55449843 5.0708447 10777171
-5.0693393 0.4928875 4.5074177 10842964
-5.0250311 0.4928875 4.5074177 10908503
-4.9807229 0.4928875 4.5074177 10515282
-4.9364147 0.4928875 4.5074177 10580821
-6.2898512 0.63371247 5.7952509 10908755
-6.2328835 0.63371247 5.7952509 11040341
-4.3231416 0.44359875 4.0566759 10843218
-3.8938763 0.40327156 3.687887 11039572
-3.8576241 0.40327156 3.687887 11039572
-3.821372 0.40327156 3.687887 11039312
-3.78512 0.40327156 3.687887 10644553
-4.123755 0.44359875 4.0566759 7358507
-4.0838776 0.44359875 4.0566759 5518112
-3.6763637 0.40327156 3.687887 1968902
-3.6401114 0.40327156 3.687887 1180937
-3.9642456 0.44359875 4.0566759 1115658
-4.3604093 0.4928875 4.5074177 3216917
-4.3161011 0.4928875 4.5074177 3085073
-4.2717929 0.4928875 4.5074177 3348245
-4.7559204 0.55449843 5.0708447 3347732
-4.7060738 0.55449843 5.0708447 3347732
-4.6562271 0.55449843 5.0708447 3282452
-4.6063805 0.55449843 5.0708447 3282965
-4.5565338 0.55449843 5.0708447 3217429
-4.5066872 0.55449843 5.0708447 3414034
-4.4568405 0.55449843 5.0708447 3413779
-4.4069939 0.55449843 5.0708447 3414036
-4.3571472 0.55449843 5.0708447 3348502
-4.3073006 0.55449843 5.0708447 3282452
-3.7844038 0.4928875 4.5074177 2822672
-3.7400956 0.4928875 4.5074177 1180424
-3.6957874 0.4928875 4.5074177 786696
-3.6514795 0.4928875 4.5074177 852743
-3.6071713 0.4928875 4.5074177 918536
-3.5628631 0.4928875 4.5074177 1049352
-3.1666996 0.44359875 4.0566759 1181708
-3.1268222 0.44359875 4.0566759 1115915
-3.0869448 0.44359875 4.0566759 1115915
-3.0470676 0.44359875 4.0566759 1049354
-3.0071902 0.44359875 4.0566759 852745
-2.9673131 0.44359875 4.0566759 655880
-2.9274356 0.44359875 4.0566759 852746
-2.8875585 0.44359875 4.0566759 786696
-2.847681 0.44359875 4.0566759 984075
-2.8078039 0.44359875 4.0566759 984329
-2.7679265 0.44359875 4.0566759 1050122
-2.7280493 0.44359875 4.0566759 852743
-2.6881719 0.44359875 4.0566759 983559
-2.9425495 0.4928875 4.5074177 721673
-2.8982413 0.4928875 4.5074177 656134
-2.8539333 0.4928875 4.5074177 1180680
-2.8096251 0.4928875 4.5074177 1246731
-2.765317 0.4928875 4.5074177 655880
-2.721009 0.4928875 4.5074177 918279
-3.0112882 0.55449843 5.0708447 1115145
-2.9614415 0.55449843 5.0708447 1049611
-2.9115949 0.55449843 5.0708447 1115918
-2.8617485 0.55449843 5.0708447 1444109
-2.8119018 0.55449843 5.0708447 1115401
-2.7620552 0.55449843 5.0708447 1115661
-2.7122085 0.55449843 5.0708447 1180937
-2.6623619 0.55449843 5.0708447 1312523
-2.6125152 0.55449843 5.0708447 1049352
-2.9287641 0.63371247 5.7952509 1246730
-2.5128219 0.55449843 5.0708447 1050122
-2.4629753 0.55449843 5.0708447 1247247
-2.7578614 0.63371247 5.7952509 2692375
-3.1510427 0.73933119 6.761126 5127223
0 0 0 7949619
0 0 0 8343605
-0.39355415 0.098577492 0.90148348 8607803
-0.39343554 0.10081789 0.92197174 9461311
-0.38437253 0.10081789 0.92197174 8343346
-0.36696929 0.098577492 0.90148348 918279
-0.35032272 0.096434504 0.88188601 918796
-0.3343845 0.094382703 0.86312246 721157
-0.31259793 0.090530351 0.82789302 656651
-0.30445972 0.090530351 0.82789302 1049868
-0.29632148 0.090530351 0.82789302 852489
-0.2715573 0.085307449 0.78012997 787466
-0.25890955 0.08369787 0.76541048 656135
-0.25138554 0.08369787 0.76541048 721160
-0.23499382 0.080654308 0.73757738 590602
-0.2277434 0.080654308 0.73757738 524298
-0.21655561 0.079214059 0.72440636 786698
-0.20221278 0.076482534 0.69942683 787468
-0.19876437 0.077824339 0.71169752 590089
-0.18526773 0.07518623 0.68757218 524296
-0.1726561 0.072721101 0.66502881 589830
-0.16611885 0.072721101 0.66502881 721160
-0.15700768 0.071548179 0.65430254 786697
-0.14362621 0.068245955 0.62410396 590087
-0.13749124 0.068245955 0.62410396 524809
-0.13135627 0.068245955 0.62410396 590089
-0.12717788 0.069312304 0.63385558 459015
-0.12094705 0.069312304 0.63385558 458759
-0.11471622 0.069312304 0.63385558 589829
-0.10848539 0.069312304 0.63385558 393479
-0.10225456 0.069312304 0.63385558 590087
0 0 0 655366
-0.095779091 0.073933117 0.67611259 852489
-0.089132875 0.073933117 0.67611259 590087
-0.082486659 0.073933117 0.67611259 720903
-0.081257619 0.079214059 0.72440636 786696
-0.074136674 0.079214059 0.72440636 590600
-0.067015722 0.079214059 0.72440636 590087
-0.056849282 0.07518623 0.68757218 524294
-0.049255572 0.073933117 0.67611259 655367
-0.042609356 0.073933117 0.67611259 589832
-0.037855938 0.077824339 0.71169752 590088
-0.033188969 0.08369787 0.76541048 786951
-0.025189674 0.082147911 0.75123626 852489
-0.017804988 0.082147911 0.75123626 786440
-0.010616911 0.08369787 0.76541048 918023
-0.0032784648 0.088719748 0.81133515 786696
0.0052188844 0.098577492 0.90148348 1181454
0.014735416 0.1031625 0.94341296 1180938
0.024009207 0.1031625 0.94341296 1180681
0.031803753 0.098577492 0.90148348 2099727
0.040665377 0.098577492 0.90148348 1246474
0.049527001 0.098577492 0.90148348 1443082
0.065687202 0.11089969 1.014169 1443850
0 0 0 2755858
0.10378891 0.13442385 1.2292956 2821392
0 0 0 2952208
0.15639186 0.16429582 1.5024725 2690065
0 0 0 2689552
0.25100634 0.22179937 2.028338 2493710
0 0 0 1837326
0.32320404 0.24644375 2.2537088 1904660
0.4440318 0.31685624 2.8976254 1642258
0.47251561 0.31685624 2.8976254 1248271
0.5844993 0.36966559 3.380563 786950
0 0 0 917512
0 0 0 917512
0 0 0 917768
0 0 0 851975
0 0 0 983816
0 0 0 2232854
0 0 0 7290921
0 0 0 7225130
0 0 0 7553838
0 0 0 7685421
0.81432104 0.31685624 2.8976254 8080178
0.73745424 0.27724922 2.5354223 8276529
0.76237756 0.27724922 2.5354223 8736562
0.8397876 0.29573247 2.7044504 8671028
0.86637247 0.29573247 2.7044504 8934200
0.89295733 0.29573247 2.7044504 9131064
0.91954219 0.29573247 2.7044504 9065530
0.94612706 0.29573247 2.7044504 9196603
0.97271192 0.29573247 2.7044504 8868923
0.93684077 0.27724922 2.5354223 7949367
0.9617641 0.27724922 2.5354223 9261625
0.98668742 0.27724922 2.5354223 8014130
1.0116107 0.27724922 2.5354223 1705222
0.97556144 0.26094043 2.3862798 984075
0.7076382 0.1848328 1.6902815 655882
0.57940298 0.14786623 1.3522252 720903
0.59269542 0.14786623 1.3522252 852745
0.60598785 0.14786623 1.3522252 786950
0.64063483 0.15296507 1.3988537 852743
0.65438563 0.15296507 1.3988537 918536
0.77503824 0.1774395 1.6226703 853001
0.82394701 0.1848328 1.6902815 983818
0.91697735 0.20163578 1.8439435 918279
0.93510342 0.20163578 1.8439435 984071
1.3106905 0.27724922 2.5354223 1049352
1.5264157 0.31685624 2.8976254 984330
1.3605372 0.27724922 2.5354223 786696
1.1667036 0.23347302 2.1350925 852748
1.1876916 0.23347302 2.1350925 720905
1.2758286 0.24644375 2.2537088 786695
1.2979827 0.24644375 2.2537088 852491
1.1315457 0.21123749 1.9317503 1049609
0.96644932 0.1774395 1.6226703 852743
0.9446156 0.1706149 1.5602599 786696
0.95995307 0.1706149 1.5602599 917512
0.97529048 0.1706149 1.5602599 1641232
1.0302529 0.1774395 1.6226703 3088157
1.0897957 0.1848328 1.6902815 3219230
1.2069941 0.20163578 1.8439435 3284253
1.2251202 0.20163578 1.8439435 3021337
1.3024484 0.21123749 1.9317503 2167317
1.3214376 0.21123749 1.9317503 1115405
1.3404268 0.21123749 1.9317503 918283
1.359416 0.21123749 1.9317503 853003
1.3784052 0.21123749 1.9317503 853002
1.3973943 0.21123749 1.9317503 787466
1.4163835 0.21123749 1.9317503 2692369
1.4353727 0.21123749 1.9317503 6506034
1.4543619 0.21123749 1.9317503 6045751
1.5470188 0.22179937 2.028338 6177594
1.4923403 0.21123749 1.9317503 7623239
1.5113295 0.21123749 1.9317503 7491655
1.4607588 0.20163578 1.8439435 7557448
1.4788848 0.20163578 1.8439435 7360069
1.4970108 0.20163578 1.8439435 6768704
1.4492614 0.19286901 1.763772 6572864
1.4665993 0.19286901 1.763772 3479832
1.4839373 0.19286901 1.763772 3020566
1.5012753 0.19286901 1.763772 1312266
1.5186132 0.19286901 1.763772 852232
1.5359511 0.19286901 1.763772 524295
1.5532892 0.19286901 1.763772 721160
1.6420193 0.20163578 1.8439435 589830
1.587965 0.19286901 1.763772 590087
1.5384154 0.1848328 1.6902815 655882
1.5550309 0.1848328 1.6902815 721673
1.6399789 0.19286901 1.763772 983559
1.6573169 0.19286901 1.763772 590087
1.6048776 0.1848328 1.6902815 786696
1.6214931 0.1848328 1.6902815 2166545
1.6381086 0.1848328 1.6902815 4860961
1.5274378 0.1706149 1.5602599 6833203
1.6713398 0.1848328 1.6902815 7029812
1.6879553 0.1848328 1.6902815 7424055
1.7045708 0.1848328 1.6902815 7752504
1.7960205 0.19286901 1.763772 7687228
1.8957839 0.20163578 1.8439435 6898487
1.9139099 0.20163578 1.8439435 6112827
1.932036 0.20163578 1.8439435 1707028
2.0430269 0.21123749 1.9317503 919052
2.2790704 0.23347302 2.1350925 787466
2.5706537 0.26094043 2.3862798 787466
2.594111 0.26094043 2.3862798 786698
2.1189837 0.21123749 1.9317503 918282
2.1379728 0.21123749 1.9317503 721416
2.2648103 0.22179937 2.028338 852745
2.284749 0.22179937 2.028338 852489
2.4259868 0.23347302 2.1350925 852489
2.446975 0.23347302 2.1350925 852489
2.467963 0.23347302 2.1350925 852489
2.488951 0.23347302 2.1350925 786953
2.5099392 0.23347302 2.1350925 721673
2.8286831 0.26094043 2.3862798 786696
2.8521404 0.26094043 2.3862798 655880
3.7603972 0.3412298 3.1205199 918539
0 0 0 918282
0 0 0 918282
0 0 0 852489
0 0 0 721673
0 0 0 918282
0 0 0 852489
0 0 0 786696
0 0 0 984073
0 0 0 3220514
0 0 0 787468
0 0 0 1313558
-8.0692434 0.80579334 6.761126 3089451
-8.0027809 0.80579334 6.761126 9922905
-5.9522395 0.60434502 5.0708447 10383443
-5.9023929 0.60434502 5.0708447 10514256
-5.8525462 0.60434502 5.0708447 10514000
-5.8026996 0.60434502 5.0708447 10710866
-5.1136475 0.53719562 4.5074177 10842450
-5.0693393 0.53719562 4.5074177 10842961
-5.0250311 0.53719562 4.5074177 10842962
-4.9807229 0.53719562 4.5074177 10645583
-4.9364147 0.53719562 4.5074177 11104851
-4.8921065 0.53719562 4.5074177 10974548
-4.8477983 0.53719562 4.5074177 11302484
-4.3231416 0.48347604 4.0566759 11105879
-3.8938763 0.43952367 3.687887 11104853
-3.8576241 0.43952367 3.687887 11039315
-3.821372 0.43952367 3.687887 11039826
-4.1636324 0.48347604 4.0566759 10776653
-4.123755 0.48347604 4.0566759 6964006
-4.0838776 0.48347604 4.0566759 5649700
-3.6763637 0.43952367 3.687887 1509125
-3.6401114 0.43952367 3.687887 984074
-3.6038594 0.43952367 3.687887 1247244
-3.9243684 0.48347604 4.0566759 3086103
-4.3161011 0.53719562 4.5074177 3479574
-4.2717929 0.53719562 4.5074177 3479570
-4.7559204 0.60434502 5.0708447 3217686
-4.7060738 0.60434502 5.0708447 3217688
-4.6562271 0.60434502 5.0708447 3283222
-4.6063805 0.60434502 5.0708447 3479575
-4.5565338 0.60434502 5.0708447 3349014
-4.5066872 0.60434502 5.0708447 3283476
-4.4568405 0.60434502 5.0708447 3545623
-4.4069939 0.60434502 5.0708447 3151636
-3.8730199 0.53719562 4.5074177 3282709
-3.8287117 0.53719562 4.5074177 3347986
-3.7844038 0.53719562 4.5074177 2757648
-3.7400956 0.53719562 4.5074177 1049095
-3.6957874 0.53719562 4.5074177 721417
-3.6514795 0.53719562 4.5074177 985358
-3.6071713 0.53719562 4.5074177 984845
-3.2065768 0.48347604 4.0566759 1049868
-3.1666996 0.48347604 4.0566759 1049868
-3.1268222 0.48347604 4.0566759 786696
-3.0869448 0.48347604 4.0566759 852489
-3.0470676 0.48347604 4.0566759 655879
-3.0071902 0.48347604 4.0566759 655880
-2.9673131 0.48347604 4.0566759 721673
-2.9274356 0.48347604 4.0566759 1049353
-2.6250529 0.43952367 3.687887 984073
-2.847681 0.48347604 4.0566759 1181194
-2.8078039 0.48347604 4.0566759 1246731
-2.7679265 0.48347604 4.0566759 1312523
-2.7280493 0.48347604 4.0566759 1246729
-2.6881719 0.48347604 4.0566759 1050122
-2.9425495 0.53719562 4.5074177 1246991
-2.8982413 0.53719562 4.5074177 1246477
-3.2106748 0.60434502 5.0708447 1443339
-3.1608281 0.60434502 5.0708447 1115915
-2.765317 0.53719562 4.5074177 917766
-2.721009 0.53719562 4.5074177 1378317
-2.6767008 0.53719562 4.5074177 1378059
-2.9614415 0.60434502 5.0708447 1048841
-2.9115949 0.60434502 5.0708447 851975
-2.8617485 0.60434502 5.0708447 1378572
-2.8119018 0.60434502 5.0708447 1575438
-2.7620552 0.60434502 5.0708447 1378573
-2.7122085 0.60434502 5.0708447 1443852
-2.6623619 0.60434502 5.0708447 1575437
-2.6125152 0.60434502 5.0708447 1444109
-2.5626686 0.60434502 5.0708447 1378829
-2.5128219 0.60434502 5.0708447 1115915
-2.4629753 0.60434502 5.0708447 983305
-2.7578614 0.69068003 5.7952509 3152921
-3.1510427 0.80579334 6.761126 3676179
-3.0845804 0.80579334 6.761126 3741454
-2.5869586 0.69068003 5.7952509 3610640
-0.40249857 0.10988092 0.92197174 3676432
-0.39343554 0.10988092 0.92197174 3479570
-0.37583092 0.10743912 0.90148348 3347214
-0.36696929 0.10743912 0.90148348 1246986
-0.35032272 0.10510349 0.88188601 852745
-0.32741815 0.10072417 0.84514076 655880
-0.31259793 0.098668583 0.82789302 852745
-0.29837051 0.096695207 0.81133515 984586
-0.29039505 0.096695207 0.81133515 787211
-0.27688196 0.094799221 0.79542661 787210
-0.2638886 0.09297616 0.78012997 721162
-0.25138554 0.091221891 0.76541048 786443
-0.24386151 0.091221891 0.76541048 655883
-0.23196089 0.089532599 0.75123626 655882
-0.22049299 0.087904729 0.73757738 590602
-0.20943466 0.086335003 0.72440636 590089
-0.19876437 0.08482036 0.71169752 786953
-0.18526773 0.081945091 0.68757218 524552
-0.1726561 0.079258367 0.66502881 721162
-0.15833202 0.075543128 0.63385558 720904
-0.15210119 0.075543128 0.63385558 786698
-0.14362621 0.074380927 0.62410396 721416
-0.13749124 0.074380927 0.62410396 590089
-0.13135627 0.074380927 0.62410396 721673
-0.12717788 0.075543128 0.63385558 524552
-0.12094705 0.075543128 0.63385558 327685
-0.11471622 0.075543128 0.63385558 589835
-0.10848539 0.075543128 0.63385558 786696
-0.10387765 0.076742224 0.64391679 655880
-0.097547919 0.076742224 0.64391679 655882
-0.095779091 0.080579333 0.67611259 524296
-0.089132875 0.080579333 0.67611259 655880
-0.088378564 0.086335003 0.72440636 655366
-0.085857108 0.091221891 0.76541048 524294
0 0 0 459016
0 0 0 655366
-0.056849282 0.081945091 0.68757218 589830
-0.050090417 0.081945091 0.68757218 721162
-0.042609356 0.080579333 0.67611259 721417
-0.037855938 0.08482036 0.71169752 655623
-0.030859921 0.08482036 0.71169752 786696
-0.023863902 0.08482036 0.71169752 786697
-0.016024489 0.080579333 0.67611259 721416
-0.0098718647 0.08482036 0.71169752 852232
-0.00315237 0.09297616 0.78012997 984075
0.0052188844 0.10743912 0.90148348 1312524
0.015086258 0.11511334 0.96587515 918536
0.024580855 0.11511334 0.96587515 786950
0.031803753 0.10743912 0.90148348 1574668
0.040665377 0.10743912 0.90148348 1114887
0.049527001 0.10743912 0.90148348 1509646
0.058388624 0.10743912 0.90148348 1049098
0.075656533 0.12086901 1.014169 2427920
0.092568487 0.13066919 1.0963988 2427920
0.11587294 0.14650787 1.2292956 2167055
0.15639186 0.1790652 1.5024725 2101260
0 0 0 2232594
0 0 0 1905426
0 0 0 1838608
0 0 0 2166544
0 0 0 2297615
0.41345116 0.30217251 2.5354223 2100238
0.5844993 0.40289667 3.380563 1639690
0.61773038 0.40289667 3.380563 917767
0 0 0 917512
0 0 0 786696
0 0 0 786950
0 0 0 983305
0 0 0 1641231
0 0 0 6438440
0 0 0 7226155
0 0 0 7817006
0 0 0 8210222
0 0 0 8210993
0.73745424 0.30217251 2.5354223 8342579
0.76237756 0.30217251 2.5354223 8539186
0.78730088 0.30217251 2.5354223 8604722
0.86637247 0.32231733 2.7044504 8736822
0.89295733 0.32231733 2.7044504 8933942
0.91954219 0.32231733 2.7044504 9064502
0.88699412 0.30217251 2.5354223 8802102
0.91191745 0.30217251 2.5354223 8670514
0.93684077 0.30217251 2.5354223 8670771
0.9617641 0.30217251 2.5354223 8342578
0.98668742 0.30217251 2.5354223 7028782
1.0116107 0.30217251 2.5354223 1114890
1.0365341 0.30217251 2.5354223 917766
0.7076382 0.20144834 1.6902815 917512
0.5993824 0.16671586 1.3988537 852489
0.59269542 0.16115867 1.3522252 721160
0.62688398 0.16671586 1.3988537 721673
0.64063483 0.16671586 1.3988537 1049352
0.65438563 0.16671586 1.3988537 656395
0.69199842 0.17267001 1.4488127 786951
0.76056653 0.18595232 1.5602599 1049609
0.80694008 0.19339041 1.6226703 983560
0.822891 0.19339041 1.6226703 917766
0.95322943 0.21976183 1.8439435 852491
1.6438324 0.37190464 3.1205199 852489
1.6745073 0.37190464 3.1205199 720904
1.7051822 0.37190464 3.1205199 524294
1.074578 0.23022668 1.9317503 524294
1.0935673 0.23022668 1.9317503 852232
1.1125565 0.23022668 1.9317503 786696
0.9504984 0.19339041 1.6226703 918280
0.92927819 0.18595232 1.5602599 721159
0.9446156 0.18595232 1.5602599 590087
0.92439926 0.1790652 1.5024725 721161
0.97529048 0.18595232 1.5602599 3742235
0.99062788 0.18595232 1.5602599 4268057
1.046204 0.19339041 1.6226703 4399645
1.1064112 0.20144834 1.6902815 4070936
1.1230268 0.20144834 1.6902815 3743002
1.1891921 0.21020697 1.763772 2167055
1.2613722 0.21976183 1.8439435 2691863
1.3404268 0.23022668 1.9317503 2560793
1.359416 0.23022668 1.9317503 2890010
1.3784052 0.23022668 1.9317503 3217431
1.3973943 0.23022668 1.9317503 3151640
1.3520025 0.21976183 1.8439435 3281683
1.3701285 0.21976183 1.8439435 3874328
1.3882545 0.21976183 1.8439435 4136730
1.4063807 0.21976183 1.8439435 4267293
1.4245067 0.21976183 1.8439435 4595998
1.4426327 0.21976183 1.8439435 4597534
1.4607588 0.21976183 1.8439435 4926501
1.4145855 0.21020697 1.763772 4926502
1.4319234 0.21020697 1.763772 5059114
1.3888755 0.20144834 1.6902815 4600112
1.4665993 0.21020697 1.763772 3348249
1.4839373 0.21020697 1.763772 2822675
1.5012753 0.21020697 1.763772 1311494
1.5186132 0.21020697 1.763772 852489
1.5359511 0.21020697 1.763772 984075
1.5532892 0.21020697 1.763772 1115661
1.5706271 0.21020697 1.763772 1115403
1.587965 0.21020697 1.763772 984075
1.5384154 0.20144834 1.6902815 787466
1.622641 0.21020697 1.763772 918795
1.6399789 0.21020697 1.763772 787210
1.6573169 0.21020697 1.763772 983817
1.6048776 0.20144834 1.6902815 918280
1.5566334 0.19339041 1.6226703 1837837
1.5725844 0.19339041 1.6226703 4794913
1.5274378 0.18595232 1.5602599 6636083
1.6044862 0.19339041 1.6226703 7030838
1.6204371 0.19339041 1.6226703 6438191
1.6363881 0.19339041 1.6226703 6635822
1.652339 0.19339041 1.6226703 5913908
1.7378019 0.20144834 1.6902815 5586231
1.9139099 0.21976183 1.8439435 5714219
1.932036 0.21976183 1.8439435 1905428
1.9501621 0.21976183 1.8439435 984592
2.062016 0.23022668 1.9317503 787466
2.5706537 0.28439766 2.3862798 721675
2.594111 0.28439766 2.3862798 721675
2.2249329 0.24173802 2.028338 655882
2.2448716 0.24173802 2.028338 721675
2.2648103 0.24173802 2.028338 918540
2.284749 0.24173802 2.028338 1049098
2.3046875 0.24173802 2.028338 1049355
2.446975 0.25446108 2.1350925 918282
2.605072 0.26859781 2.2537088 918282
2.7817688 0.28439766 2.3862798 984075
2.8052261 0.28439766 2.3862798 1115145
2.8286831 0.28439766 2.3862798 852489
2.8521404 0.28439766 2.3862798 786696
3.4917972 0.34534001 2.8976254 721418
3.7910719 0.37190464 3.1205199 655881
12.420677 1.20869 10.141689 721674
0 0 0 787211
0 0 0 721674
0 0 0 787724
0 0 0 656395
0 0 0 787467
0 0 0 918025
0 0 0 2693915
0 0 0 1049098
0 0 0 1247249
-9.6830931 1.0467067 8.1133518 2957356
-9.6033382 1.0467067 8.1133518 9857120
-7.9363189 0.87225556 6.761126 10514771
-7.8698568 0.87225556 6.761126 10448976
-7.8033948 0.87225556 6.761126 10514512
-5.1579552 0.58150375 4.5074177 10513742
-5.1136475 0.58150375 4.5074177 11039573
-5.0693393 0.58150375 4.5074177 10972497
-5.0250311 0.58150375 4.5074177 10711376
-4.9807229 0.58150375 4.5074177 10777169
-4.9364147 0.58150375 4.5074177 10580051
-4.4028959 0.52335334 4.0566759 10907987
-4.3630185 0.52335334 4.0566759 11236692
-4.3231416 0.52335334 4.0566759 10842705
-3.5693865 0.43612778 3.380563 11171157
-3.2641437 0.40257949 3.1205199 10842446
-3.821372 0.47577575 3.687887 11235919
-3.78512 0.47577575 3.687887 10578757
-4.123755 0.52335334 4.0566759 7225897
-4.0838776 0.52335334 4.0566759 5453861
-3.6763637 0.47577575 3.687887 1246725
-3.6401114 0.47577575 3.687887 1050122
-3.6038594 0.47577575 3.687887 1313293
-3.9243684 0.52335334 4.0566759 3020054
-4.3161011 0.58150375 4.5074177 3282452
-4.2717929 0.58150375 4.5074177 3676436
-4.7559204 0.65419167 5.0708447 3349526
-4.7060738 0.65419167 5.0708447 3546136
-4.1388688 0.58150375 4.5074177 3611670
-4.6063805 0.65419167 5.0708447 3676949
-4.5565338 0.65419167 5.0708447 3676692
-4.5066872 0.65419167 5.0708447 3742228
-4.4568405 0.65419167 5.0708447 3545365
-4.4069939 0.65419167 5.0708447 3349269
-3.8730199 0.58150375 4.5074177 3348499
-3.4458406 0.52335334 4.0566759 3282706
-3.4059634 0.52335334 4.0566759 2560528
-3.7400956 0.58150375 4.5074177 983816
-3.6957874 0.58150375 4.5074177 656391
-3.6514795 0.58150375 4.5074177 787208
-3.2464542 0.52335334 4.0566759 721416
-3.2065768 0.52335334 4.0566759 852487
-3.1666996 0.52335334 4.0566759 852743
-3.1268222 0.52335334 4.0566759 852489
-3.0869448 0.52335334 4.0566759 1114891
-2.7700613 0.47577575 3.687887 984329
-2.7338092 0.47577575 3.687887 918536
-2.6975572 0.47577575 3.687887 1180941
-2.661305 0.47577575 3.687887 1115148
-2.6250529 0.47577575 3.687887 1049868
-2.847681 0.52335334 4.0566759 1246988
-2.8078039 0.52335334 4.0566759 1115915
-3.0754738 0.58150375 4.5074177 1312266
-3.0311658 0.58150375 4.5074177 983816
-2.9868577 0.58150375 4.5074177 918283
-2.9425495 0.58150375 4.5074177 984075
-2.8982413 0.58150375 4.5074177 1509903
-3.2106748 0.65419167 5.0708447 1772817
-3.1608281 0.65419167 5.0708447 2035217
-2.765317 0.58150375 4.5074177 1180936
-2.721009 0.58150375 4.5074177 393220
-2.6767008 0.58150375 4.5074177 524292
-2.9614415 0.65419167 5.0708447 459011
-2.9115949 0.65419167 5.0708447 655624
-2.8617485 0.65419167 5.0708447 852489
-2.8119018 0.65419167 5.0708447 1378316
-2.7620552 0.65419167 5.0708447 1049351
-2.7122085 0.65419167 5.0708447 983816
-2.6623619 0.65419167 5.0708447 852744
-2.6125152 0.65419167 5.0708447 721157
-2.5626686 0.65419167 5.0708447 589830
-2.8717964 0.74764758 5.7952509 983559
-2.4629753 0.65419167 5.0708447 851973
-2.1450033 0.58150375 4.5074177 1312267
-2.1006951 0.58150375 4.5074177 1574409
-2.6439261 0.74764758 5.7952509 2034702
-2.2635887 0.65419167 5.0708447 3151636
-0.44274846 0.13083833 1.014169 3414292
-0.39343554 0.11894394 0.92197174 3347732
-0.37583092 0.11630074 0.90148348 2954257
-0.35899168 0.11377246 0.88188601 2626069
-0.33572593 0.10903195 0.84514076 721674
-0.32741815 0.10903195 0.84514076 655882
-0.31259793 0.10680681 0.82789302 721417
-0.29837051 0.10467067 0.81133515 984588
-0.28470105 0.1026183 0.79542661 853002
-0.27688196 0.1026183 0.79542661 786953
-0.2638886 0.10064487 0.78012997 787467
-0.25621989 0.10064487 0.78012997 852489
-0.24386151 0.098745905 0.76541048 655882
-0.2363375 0.098745905 0.76541048 786697
-0.22457621 0.096917287 0.75123626 655880
-0.20943466 0.093455948 0.72440636 655880
-0.19533738 0.090233333 0.69942683 524809
-0.18526773 0.08870396 0.68757218 852489
-0.1726561 0.085795626 0.66502881 590088
-0.15833202 0.081773959 0.63385558 524553
-0.15210119 0.081773959 0.63385558 524809
-0.14362621 0.080515899 0.62410396 786953
-0.13749124 0.080515899 0.62410396 721675
-0.13135627 0.080515899 0.62410396 852489
-0.12717788 0.081773959 0.63385558 459014
-0.12094705 0.081773959 0.63385558 393222
-0.11653712 0.083071962 0.64391679 524296
-0.11020738 0.083071962 0.64391679 524552
-0.10387765 0.083071962 0.64391679 524555
-0.097547919 0.083071962 0.64391679 852491
0 0 0 589831
0 0 0 655882
0 0 0 327686
0 0 0 524552
0 0 0 458758
0 0 0 655369
-0.14583077 0.22754492 1.763772 393222
-0.10554766 0.1869119 1.4488127 720903
-0.048237007 0.098745905 0.76541048 721158
-0.04071299 0.098745905 0.76541048 786695
-0.033188969 0.098745905 0.76541048 721415
-0.023863902 0.091816381 0.71169752 721413
-0.016024489 0.087225549 0.67611259 852489
-0.0093782712 0.087225549 0.67611259 984074
