# .PCD v0.7 - Point Cloud Data file format
VERSION 0.7
FIELDS x y z rgb
SIZE 4 4 4 4
TYPE F F F U
COUNT 1 1 1 1
WIDTH 1336
HEIGHT 1
VIEWPOINT 0 0 0 1 0 0 0
POINTS 1336
DATA ascii
1.6044862 0.16148856 1.6226703 3613984
1.6204371 0.16148856 1.6226703 3547421
1.6363881 0.16148856 1.6226703 3284503
1.7211864 0.16821726 1.6902815 3678492
1.7378019 0.16821726 1.6902815 2561043
1.7544174 0.16821726 1.6902815 1312523
1.932036 0.18350974 1.8439435 918284
2.1451783 0.20186073 2.028338 917768
2.5471964 0.23748319 2.3862798 852489
0 0 0 655881
0 0 0 590343
22.249329 2.0186071 20.283379 459268
14.96581 1.3457381 13.522252 721673
15.098734 1.3457381 13.522252 721673
15.231659 1.3457381 13.522252 721414
9.21875 0.8074429 8.1133518 721157
5.8115654 0.50465178 5.0708447 655621
5.861412 0.50465178 5.0708447 787466
0 0 0 590854
11.922211 1.0093036 10.141689 655880
8.0146027 0.67286903 6.761126 655880
8.0810642 0.67286903 6.761126 787466
9.7770329 0.8074429 8.1133518 786696
12.320984 1.0093036 10.141689 721416
24.841354 2.0186071 20.283379 655880
0 0 0 656394
0 0 0 918025
0 0 0 918536
0 0 0 918025
0 0 0 852232
0 0 0 918282
0 0 0 1642005
0 0 0 918282
0 0 0 1248020
-8.0692434 0.73933119 6.761126 2957348
-8.0027809 0.73933119 6.761126 9988952
-7.9363189 0.73933119 6.761126 10383187
-6.7455916 0.63371247 5.7952509 10514255
-5.8525462 0.55449843 5.0708447 10710607
-5.1579552 0.4928875 4.5074177 10711124
-4.1838932 0.40327156 3.687887 10644815
-4.1476407 0.40327156 3.687887 10711376
-4.1113887 0.40327156 3.687887 10712146
-4.4826508 0.44359875 4.0566759 10842192
-4.4427733 0.44359875 4.0566759 10776401
-4.4028959 0.44359875 4.0566759 10842964
-3.9663804 0.40327156 3.687887 11039827
-3.9301283 0.40327156 3.687887 10842705
-3.5693865 0.36966559 3.380563 10843219
-3.5361555 0.36966559 3.380563 10974291
-3.5029244 0.36966559 3.380563 10908240
-3.4696932 0.36966559 3.380563 10578504
-4.5819497 0.4928875 4.5074177 7489578
-4.5376415 0.4928875 4.5074177 5714980
-3.6763637 0.40327156 3.687887 1968647
-3.6401114 0.40327156 3.687887 1180680
-3.9642456 0.44359875 4.0566759 1115145
-4.3604093 0.4928875 4.5074177 3019538
-4.3161011 0.4928875 4.5074177 3085073
-4.8057671 0.55449843 5.0708447 3348245
-4.7559204 0.55449843 5.0708447 3085073
-4.7060738 0.55449843 5.0708447 3151638
-4.6562271 0.55449843 5.0708447 3085843
-4.6063805 0.55449843 5.0708447 3414035
-4.5565338 0.55449843 5.0708447 3544851
-4.5066872 0.55449843 5.0708447 3414034
-3.9616363 0.4928875 4.5074177 3414034
-3.9173281 0.4928875 4.5074177 3413779
-3.8730199 0.4928875 4.5074177 3348499
-4.3073006 0.55449843 5.0708447 3020304
-3.7844038 0.4928875 4.5074177 2822672
-3.7400956 0.4928875 4.5074177 1179912
-3.6957874 0.4928875 4.5074177 786697
-3.2863314 0.44359875 4.0566759 852489
-2.9513218 0.40327156 3.687887 917766
-2.9150696 0.40327156 3.687887 1049096
-2.8788176 0.40327156 3.687887 984075
-2.8425655 0.40327156 3.687887 1049352
-2.8063133 0.40327156 3.687887 1114891
-3.0470676 0.44359875 4.0566759 1049354
-3.0071902 0.44359875 4.0566759 852745
-2.9673131 0.44359875 4.0566759 655622
-2.661305 0.40327156 3.687887 918024
-2.6250529 0.40327156 3.687887 852489
-2.5888009 0.40327156 3.687887 1246475
-2.8078039 0.44359875 4.0566759 918536
-2.7679265 0.44359875 4.0566759 1115915
-3.0311658 0.4928875 4.5074177 917766
-2.9868577 0.4928875 4.5074177 786696
-2.9425495 0.4928875 4.5074177 656394
-2.8982413 0.4928875 4.5074177 852489
-3.2106748 0.55449843 5.0708447 1180681
-3.1608281 0.55449843 5.0708447 983302
-3.1109815 0.55449843 5.0708447 590087
-3.0611348 0.55449843 5.0708447 852489
-3.0112882 0.55449843 5.0708447 852743
-3.3845046 0.63371247 5.7952509 918282
-3.3275371 0.63371247 5.7952509 853516
-3.2705696 0.63371247 5.7952509 1444110
-3.2136018 0.63371247 5.7952509 1312267
-3.1566343 0.63371247 5.7952509 1312524
-2.7122085 0.55449843 5.0708447 1312265
-3.0426991 0.63371247 5.7952509 1312266
-2.6125152 0.55449843 5.0708447 852743
-2.9287641 0.63371247 5.7952509 1049608
-2.5128219 0.55449843 5.0708447 1246731
-2.4629753 0.55449843 5.0708447 1247501
-2.4131286 0.55449843 5.0708447 2627612
-2.7008936 0.63371247 5.7952509 5126453
-2.6439261 0.63371247 5.7952509 7752499
-2.2635887 0.55449843 5.0708447 8342836
-2.2137423 0.55449843 5.0708447 8868919
-0.72129852 0.1848328 1.6902815 9460026
-0.40267596 0.10561875 0.96587515 8607031
-0.36696929 0.098577492 0.90148348 7293235
-0.35032272 0.096434504 0.88188601 6831906
-0.34165373 0.096434504 0.88188601 1770753
-0.32589996 0.094382703 0.86312246 524809
-0.31080261 0.092416398 0.84514076 917769
-0.30249485 0.092416398 0.84514076 590088
-0.28818327 0.090530351 0.82789302 786954
-0.27444413 0.088719748 0.81133515 590087
-0.26124379 0.086980142 0.79542661 851976
-0.24386151 0.08369787 0.76541048 721161
-0.2363375 0.08369787 0.76541048 590087
-0.22881347 0.08369787 0.76541048 720905
-0.21719152 0.082147911 0.75123626 590087
-0.20599215 0.080654308 0.73757738 524555
-0.19519277 0.079214059 0.72440636 458759
-0.18807182 0.079214059 0.72440636 524296
-0.18095088 0.079214059 0.72440636 524295
-0.17078029 0.077824339 0.71169752 327686
-0.16378428 0.077824339 0.71169752 393220
-0.154085 0.076482534 0.69942683 393220
-0.1472096 0.076482534 0.69942683 262149
-0.1403342 0.076482534 0.69942683 590089
-0.12484857 0.071548179 0.65430254 590089
-0.11841674 0.071548179 0.65430254 655366
-0.11020738 0.070412494 0.64391679 590089
-0.10387765 0.070412494 0.64391679 262149
-0.097547919 0.070412494 0.64391679 327685
-0.091218188 0.070412494 0.64391679 590089
-0.082276508 0.068245955 0.62410396 590600
-0.079825804 0.071548179 0.65430254 524296
-0.074597158 0.072721101 0.66502881 524294
0 0 0 590089
0 0 0 459016
0 0 0 524806
0 0 0 524549
0 0 0 655623
0 0 0 720904
0 0 0 720903
0 0 0 590089
0 0 0 786951
-0.010048147 0.079214059 0.72440636 983815
-0.0026439233 0.071548179 0.65430254 786696
0.0041937465 0.079214059 0.72440636 786696
0.011314694 0.079214059 0.72440636 852489
0.01843564 0.079214059 0.72440636 1246474
0.02920753 0.090530351 0.82789302 1246730
0.037345756 0.090530351 0.82789302 1246474
0.047419466 0.094382703 0.86312246 1246730
0.058388624 0.098577492 0.90148348 1180680
0.067250244 0.098577492 0.90148348 2099727
0.079651959 0.1031625 0.94341296 2690319
0.093263589 0.10819481 0.98943311 3083024
0.11412379 0.11989155 1.0963988 3017231
0.13203867 0.1267425 1.1590502 2820622
0 0 0 2754830
0 0 0 2558481
0 0 0 2755856
0 0 0 2690062
0 0 0 2362125
0.3339996 0.21123749 1.9317503 852489
0.49418429 0.29573247 2.7044504 655625
0 0 0 721160
0 0 0 655366
0 0 0 655366
0 0 0 721675
0 0 0 4468778
0 0 0 7159337
0 0 0 7094571
0 0 0 7553321
0 0 0 7816236
1.0364087 0.40327156 3.687887 7685935
0.84280485 0.31685624 2.8976254 8145457
0.76237756 0.27724922 2.5354223 8474164
0.78730088 0.27724922 2.5354223 8867894
0.86637247 0.29573247 2.7044504 9065015
0.89295733 0.29573247 2.7044504 9065270
0.91954219 0.29573247 2.7044504 8934712
0.88699412 0.27724922 2.5354223 9131064
0.97271192 0.29573247 2.7044504 8803898
0.93684077 0.27724922 2.5354223 8211509
0.9617641 0.27724922 2.5354223 8671543
0.98668742 0.27724922 2.5354223 8145716
1.0116107 0.27724922 2.5354223 1508358
1.2757342 0.3412298 3.1205199 983559
0.89385885 0.23347302 2.1350925 655880
0.62078893 0.15842812 1.4488127 590087
0.61313319 0.15296507 1.3988537 656135
0.62688398 0.15296507 1.3988537 721416
0.64063483 0.15296507 1.3988537 786950
0.65438563 0.15296507 1.3988537 786950
0.69199842 0.15842812 1.4488127 786694
0.89885128 0.20163578 1.8439435 721416
0.96064293 0.21123749 1.9317503 852745
0.97963214 0.21123749 1.9317503 721414
1.1037394 0.23347302 2.1350925 852233
1.2570482 0.26094043 2.3862798 786953
1.3605372 0.27724922 2.5354223 721159
1.3039628 0.26094043 2.3862798 786953
1.32742 0.26094043 2.3862798 655366
1.3508773 0.26094043 2.3862798 786696
1.2979827 0.24644375 2.2537088 720903
1.0331504 0.19286901 1.763772 917767
0.92927819 0.1706149 1.5602599 786950
0.9446156 0.1706149 1.5602599 590089
0.92439926 0.16429582 1.5024725 590089
0.97529048 0.1706149 1.5602599 1837838
1.0302529 0.1774395 1.6226703 3219226
1.046204 0.1774395 1.6226703 3350296
1.1064112 0.1848328 1.6902815 3218458
1.171854 0.19286901 1.763772 3350302
1.1891921 0.19286901 1.763772 2166803
1.2613722 0.20163578 1.8439435 1115149
1.3404268 0.21123749 1.9317503 983818
1.359416 0.21123749 1.9317503 918282
1.3157504 0.20163578 1.8439435 787210
1.3338765 0.20163578 1.8439435 984074
1.3520025 0.20163578 1.8439435 2691856
1.3105577 0.19286901 1.763772 6046253
1.3278956 0.19286901 1.763772 6175793
1.4063807 0.20163578 1.8439435 6044723
1.4923403 0.21123749 1.9317503 7491394
1.4426327 0.20163578 1.8439435 7556933
1.4607588 0.20163578 1.8439435 7491141
1.4145855 0.19286901 1.763772 7556421
1.4319234 0.19286901 1.763772 6964800
1.3888755 0.1848328 1.6902815 6310464
1.4665993 0.19286901 1.763772 3479576
1.551389 0.20163578 1.8439435 2626579
1.5695151 0.20163578 1.8439435 1246473
1.5876411 0.20163578 1.8439435 786441
1.6057671 0.20163578 1.8439435 524552
1.7862827 0.22179937 2.028338 590088
1.6420193 0.20163578 1.8439435 458757
1.6601453 0.20163578 1.8439435 590087
1.605303 0.19286901 1.763772 655366
1.622641 0.19286901 1.763772 720903
1.6399789 0.19286901 1.763772 786696
1.5247315 0.1774395 1.6226703 590087
1.5406824 0.1774395 1.6226703 655622
1.5566334 0.1774395 1.6226703 1838095
1.5121003 0.1706149 1.5602599 4795428
1.5885353 0.1774395 1.6226703 6702130
1.6044862 0.1774395 1.6226703 6898737
1.6204371 0.1774395 1.6226703 7621432
1.6363881 0.1774395 1.6226703 7818810
1.652339 0.1774395 1.6226703 7293496
1.7378019 0.1848328 1.6902815 6767155
1.7544174 0.1848328 1.6902815 6047289
1.7710329 0.1848328 1.6902815 1772821
1.9501621 0.20163578 1.8439435 853774
2.5471964 0.26094043 2.3862798 787466
0 0 0 655880
0 0 0 918536
0 0 0 786950
14.96581 1.4786624 13.522252 786952
11.324051 1.1089969 10.141689 786951
11.423744 1.1089969 10.141689 852743
5.7617188 0.55449843 5.0708447 786694
2.9057827 0.27724922 2.5354223 786695
1.8756518 0.1774395 1.6226703 852488
1.8916028 0.1774395 1.6226703 787463
1.987035 0.1848328 1.6902815 852489
2.0036507 0.1848328 1.6902815 786696
4.848639 0.44359875 4.0566759 721673
12.221291 1.1089969 10.141689 787466
0 0 0 853001
0 0 0 721158
0 0 0 721673
0 0 0 786696
0 0 0 655880
0 0 0 721673
0 0 0 721160
0 0 0 1049609
0 0 0 3352099
0 0 0 1049868
0 0 0 1312788
-8.0692434 0.80579334 6.761126 3154474
-8.0027809 0.80579334 6.761126 10053462
-6.8025594 0.69068003 5.7952509 10579795
-5.9023929 0.60434502 5.0708447 10579792
-5.8525462 0.60434502 5.0708447 10514256
-4.6421599 0.48347604 4.0566759 10448720
-4.6022825 0.48347604 4.0566759 10711378
-4.1476407 0.43952367 3.687887 10646098
-4.1113887 0.43952367 3.687887 10842964
-4.4826508 0.48347604 4.0566759 10712146
-4.4427733 0.48347604 4.0566759 10646353
-4.0026326 0.43952367 3.687887 10908757
-3.9663804 0.43952367 3.687887 10908757
-3.6026175 0.40289667 3.380563 11104081
-3.5693865 0.40289667 3.380563 10908498
-3.5361555 0.40289667 3.380563 11105105
-3.5029244 0.40289667 3.380563 10711373
-3.4696932 0.40289667 3.380563 10513225
-4.123755 0.48347604 4.0566759 7423531
-4.0838776 0.48347604 4.0566759 5649443
-3.6763637 0.43952367 3.687887 1575174
-3.6401114 0.43952367 3.687887 1180937
-3.9642456 0.48347604 4.0566759 1115657
-4.3604093 0.53719562 4.5074177 2888465
-4.3161011 0.53719562 4.5074177 3151120
-4.8057671 0.60434502 5.0708447 3543823
-4.7559204 0.60434502 5.0708447 3348497
-4.7060738 0.60434502 5.0708447 3414292
-4.6562271 0.60434502 5.0708447 3283222
-4.6063805 0.60434502 5.0708447 3217427
-4.5565338 0.60434502 5.0708447 3151636
-4.0059443 0.53719562 4.5074177 3282964
-3.9616363 0.53719562 4.5074177 3282706
-3.9173281 0.53719562 4.5074177 3151890
-3.8730199 0.53719562 4.5074177 3020820
-3.8287117 0.53719562 4.5074177 2955283
-3.7844038 0.53719562 4.5074177 2625807
-3.7400956 0.53719562 4.5074177 917509
-3.6957874 0.53719562 4.5074177 656136
-3.2863314 0.48347604 4.0566759 1180684
-3.2464542 0.48347604 4.0566759 984075
-2.9150696 0.43952367 3.687887 721674
-2.8788176 0.43952367 3.687887 852489
-2.8425655 0.43952367 3.687887 590087
-2.8063133 0.43952367 3.687887 721418
-2.7700613 0.43952367 3.687887 721157
-2.5059917 0.40289667 3.380563 786696
-2.4727607 0.40289667 3.380563 787466
-2.4395297 0.40289667 3.380563 1049608
-2.6250529 0.43952367 3.687887 983815
-2.5888009 0.43952367 3.687887 1114888
-2.8078039 0.48347604 4.0566759 1246731
-2.7679265 0.48347604 4.0566759 1181194
-2.7280493 0.48347604 4.0566759 918278
-2.9868577 0.53719562 4.5074177 1050122
-2.9425495 0.53719562 4.5074177 1181197
-2.8982413 0.53719562 4.5074177 1508876
-3.2106748 0.60434502 5.0708447 1508875
-3.1608281 0.60434502 5.0708447 1247247
-3.1109815 0.60434502 5.0708447 918025
-3.0611348 0.60434502 5.0708447 1443852
-3.0112882 0.60434502 5.0708447 1378059
-3.3845046 0.69068003 5.7952509 1049352
-3.3275371 0.69068003 5.7952509 851974
-3.2705696 0.69068003 5.7952509 1378316
-2.8119018 0.60434502 5.0708447 1509645
-3.1566343 0.69068003 5.7952509 1509645
-2.7122085 0.60434502 5.0708447 1443850
-3.0426991 0.69068003 5.7952509 1443850
-2.9857316 0.69068003 5.7952509 1444109
-2.9287641 0.69068003 5.7952509 1246730
-2.8717964 0.69068003 5.7952509 1115144
-2.4629753 0.60434502 5.0708447 852743
-2.4131286 0.60434502 5.0708447 2889495
-2.363282 0.60434502 5.0708447 3544847
-2.3134353 0.60434502 5.0708447 3413261
-2.2635887 0.60434502 5.0708447 3348497
-2.2137423 0.60434502 5.0708447 3348240
-0.52458072 0.14650787 1.2292956 3413779
-0.40267596 0.11511334 0.96587515 3150866
-0.3753095 0.10988092 0.92197174 2887694
-0.35810766 0.10743912 0.90148348 3150093
-0.34165373 0.10510349 0.88188601 2822405
-0.33298475 0.10510349 0.88188601 786696
-0.31080261 0.10072417 0.84514076 852489
-0.29632148 0.098668583 0.82789302 655880
-0.28818327 0.098668583 0.82789302 721674
-0.28004503 0.098668583 0.82789302 655624
-0.26124379 0.094799221 0.79542661 721163
-0.24386151 0.091221891 0.76541048 655880
-0.2363375 0.091221891 0.76541048 721161
-0.22881347 0.091221891 0.76541048 655881
-0.21719152 0.089532599 0.75123626 655366
-0.20231372 0.086335003 0.72440636 393222
-0.19519277 0.086335003 0.72440636 459016
-0.18807182 0.086335003 0.72440636 655881
-0.18095088 0.086335003 0.72440636 720902
-0.17382993 0.086335003 0.72440636 720903
-0.16670898 0.086335003 0.72440636 720905
-0.15678826 0.08482036 0.71169752 589831
-0.1472096 0.08335793 0.69942683 524296
-0.14279622 0.08482036 0.71169752 786696
-0.13345881 0.08335793 0.69942683 851977
-0.12880418 0.08482036 0.71169752 524809
-0.11198492 0.077980004 0.65430254 590087
-0.10387765 0.076742224 0.64391679 262149
-0.097547919 0.076742224 0.64391679 458759
-0.088411473 0.074380927 0.62410396 590089
-0.082276508 0.074380927 0.62410396 786696
-0.076141536 0.074380927 0.62410396 720899
-0.074597158 0.079258367 0.66502881 327685
-0.14827335 0.17267001 1.4488127 525061
0 0 0 393220
0 0 0 524548
0 0 0 589830
0 0 0 458761
0 0 0 786696
0 0 0 721161
0 0 0 590087
0 0 0 851976
-0.0098718647 0.08482036 0.71169752 655624
-0.0028758463 0.08482036 0.71169752 852489
0.0041937465 0.086335003 0.72440636 983559
0.011314694 0.086335003 0.72440636 983559
0.01843564 0.086335003 0.72440636 786950
0.02862338 0.096695207 0.81133515 1115145
0.037345756 0.098668583 0.82789302 918536
0.047419466 0.10286724 0.86312246 1114887
0.058388624 0.10743912 0.90148348 983559
0.067250244 0.10743912 0.90148348 1311496
0.076111868 0.10743912 0.90148348 1574668
0.091043025 0.11511334 0.96587515 1575436
0.10298976 0.11792098 0.98943311 1903116
0.12490144 0.13066919 1.0963988 2035215
0.14343219 0.13813601 1.1590502 2166542
0.16934061 0.15108626 1.2677112 2165516
0.18766685 0.15596001 1.3086051 2166027
0 0 0 2232335
0 0 0 1969166
0.21254519 0.14650787 1.2292956 1772555
0.23164889 0.15108626 1.2677112 786696
0 0 0 917766
0 0 0 786952
0 0 0 786950
0 0 0 852489
0 0 0 3811368
0 0 0 7028776
0 0 0 7290921
0 0 0 7685679
0 0 0 7882285
0.81432104 0.34534001 2.8976254 8079408
0.73745424 0.30217251 2.5354223 8079920
0.76237756 0.30217251 2.5354223 8736310
0.78730088 0.30217251 2.5354223 8604978
0.81222421 0.30217251 2.5354223 8868149
0.83714753 0.30217251 2.5354223 8868148
0.86207086 0.30217251 2.5354223 8802355
0.88699412 0.30217251 2.5354223 8604721
0.91191745 0.30217251 2.5354223 8670258
0.99929678 0.32231733 2.7044504 8538672
0.9617641 0.30217251 2.5354223 8276015
0.98668742 0.30217251 2.5354223 6830889
1.2450594 0.37190464 3.1205199 1180680
0 0 0 720901
0 0 0 786696
0.5993824 0.16671586 1.3988537 786950
0.61313319 0.16671586 1.3988537 655367
0.62688398 0.16671586 1.3988537 720903
0.64063483 0.16671586 1.3988537 852489
0.65438563 0.16671586 1.3988537 720903
0.66813642 0.16671586 1.3988537 786696
0.79098916 0.19339041 1.6226703 983305
0.91697735 0.21976183 1.8439435 917767
0.93510342 0.21976183 1.8439435 786952
1.0485525 0.24173802 2.028338 721418
1.2570482 0.28439766 2.3862798 655623
1.2805055 0.28439766 2.3862798 590088
1.3039628 0.28439766 2.3862798 590087
1.32742 0.28439766 2.3862798 655366
1.2758286 0.26859781 2.2537088 852231
0.89860338 0.18595232 1.5602599 786950
0.91394079 0.18595232 1.5602599 852743
0.92927819 0.18595232 1.5602599 786696
0.9446156 0.18595232 1.5602599 524294
0.89138496 0.17267001 1.4488127 721161
0.93916857 0.1790652 1.5024725 3414809
0.95393795 0.1790652 1.5024725 4137754
1.0059654 0.18595232 1.5602599 4137241
1.0621549 0.19339041 1.6226703 3677210
1.1230268 0.20144834 1.6902815 3350043
1.1396424 0.20144834 1.6902815 1838608
1.20653 0.21020697 1.763772 2626068
1.2794983 0.21976183 1.8439435 2495510
1.2976243 0.21976183 1.8439435 2757655
1.3157504 0.21976183 1.8439435 3217688
1.2758818 0.21020697 1.763772 3020309
1.2932198 0.21020697 1.763772 3282452
1.3105577 0.21020697 1.763772 4070939
1.3882545 0.21976183 1.8439435 4005916
1.4063807 0.21976183 1.8439435 4070939
1.3625716 0.21020697 1.763772 4202523
1.3799095 0.21020697 1.763772 4269085
1.3972476 0.21020697 1.763772 4596509
1.4145855 0.21020697 1.763772 4597537
1.4319234 0.21020697 1.763772 4729895
1.3888755 0.20144834 1.6902815 4663594
1.4665993 0.21020697 1.763772 3282458
1.4839373 0.21020697 1.763772 2626067
1.5012753 0.21020697 1.763772 1378059
1.5186132 0.21020697 1.763772 1050122
1.5359511 0.21020697 1.763772 918536
1.6238931 0.21976183 1.8439435 1115915
1.6420193 0.21976183 1.8439435 1115915
1.6601453 0.21976183 1.8439435 918536
1.6782713 0.21976183 1.8439435 918536
1.622641 0.21020697 1.763772 852487
1.5716465 0.20144834 1.6902815 984330
1.588262 0.20144834 1.6902815 787208
1.6048776 0.20144834 1.6902815 787208
1.5566334 0.19339041 1.6226703 1837838
1.5725844 0.19339041 1.6226703 4663586
1.5274378 0.18595232 1.5602599 6372910
1.6044862 0.19339041 1.6226703 6899512
1.6204371 0.19339041 1.6226703 5978414
1.5734501 0.18595232 1.5602599 5912875
1.5887874 0.18595232 1.5602599 5651249
1.6682899 0.19339041 1.6226703 5716534
1.7544174 0.20144834 1.6902815 5977391
1.7710329 0.20144834 1.6902815 2561559
1.9501621 0.21976183 1.8439435 919313
2.062016 0.23022668 1.9317503 786953
2.7313194 0.30217251 2.5354223 721416
0 0 0 721416
2.7811661 0.30217251 2.5354223 655880
2.0407922 0.21976183 1.8439435 721417
2.0589182 0.21976183 1.8439435 787208
9.1389961 0.96695209 8.1133518 852743
9.21875 0.96695209 8.1133518 852743
2.9057827 0.30217251 2.5354223 786950
1.8756518 0.19339041 1.6226703 721927
1.8916028 0.19339041 1.6226703 1049352
1.9075537 0.19339041 1.6226703 918282
1.9235046 0.19339041 1.6226703 655882
1.9394555 0.19339041 1.6226703 590600
0 0 0 590344
0 0 0 721416
0 0 0 786695
0 0 0 787464
0 0 0 590344
0 0 0 852489
0 0 0 721416
0 0 0 787466
0 0 0 787209
0 0 0 2496536
0 0 0 983818
0 0 0 1378321
-8.0692434 0.87225556 6.761126 3088426
-8.0027809 0.87225556 6.761126 9791069
-6.8025594 0.74764758 5.7952509 10317651
-5.2465715 0.58150375 4.5074177 10448463
-5.2022634 0.58150375 4.5074177 10513485
-4.6421599 0.52335334 4.0566759 10907729
-4.6022825 0.52335334 4.0566759 10513997
-4.5624051 0.52335334 4.0566759 10710608
-4.5225282 0.52335334 4.0566759 10580308
-4.4826508 0.52335334 4.0566759 10711124
-4.4427733 0.52335334 4.0566759 10645842
-4.0026326 0.47577575 3.687887 10907987
-3.9663804 0.47577575 3.687887 10907987
-3.9301283 0.47577575 3.687887 11039314
-3.5693865 0.43612778 3.380563 11170383
-3.5361555 0.43612778 3.380563 10973519
-3.5029244 0.43612778 3.380563 10973519
-3.4696932 0.43612778 3.380563 10580042
-4.123755 0.52335334 4.0566759 6766887
-4.0838776 0.52335334 4.0566759 5650214
-3.6763637 0.47577575 3.687887 1180932
-3.6401114 0.47577575 3.687887 984075
-3.9642456 0.52335334 4.0566759 1115915
-3.9243684 0.52335334 4.0566759 2823702
-4.3161011 0.58150375 4.5074177 3348499
-4.8057671 0.65419167 5.0708447 3741458
-5.4353375 0.74764758 5.7952509 3479826
-5.3783698 0.74764758 5.7952509 3546135
-4.6562271 0.65419167 5.0708447 3545877
-4.6063805 0.65419167 5.0708447 3676692
-4.0502524 0.58150375 4.5074177 3480342
-4.0059443 0.58150375 4.5074177 3545364
-3.9616363 0.58150375 4.5074177 3480085
-4.4069939 0.65419167 5.0708447 3217940
-3.8730199 0.58150375 4.5074177 3151888
-4.3073006 0.65419167 5.0708447 3282452
-3.7844038 0.58150375 4.5074177 2297101
-3.7400956 0.58150375 4.5074177 983560
-3.6957874 0.58150375 4.5074177 787209
-3.2863314 0.52335334 4.0566759 852231
-3.2464542 0.52335334 4.0566759 721159
-2.9150696 0.47577575 3.687887 721158
-2.8788176 0.47577575 3.687887 786696
-2.8425655 0.47577575 3.687887 786696
-2.572454 0.43612778 3.380563 917769
-2.7700613 0.47577575 3.687887 1115146
-2.5059917 0.43612778 3.380563 918536
-2.4727607 0.43612778 3.380563 984075
-2.661305 0.47577575 3.687887 1114888
-2.6250529 0.47577575 3.687887 1115145
-2.5888009 0.47577575 3.687887 1180938
-2.8078039 0.52335334 4.0566759 1246731
-2.7679265 0.52335334 4.0566759 1180680
-3.0311658 0.58150375 4.5074177 1049609
-2.9868577 0.58150375 4.5074177 918282
-2.9425495 0.58150375 4.5074177 984333
-3.2605214 0.65419167 5.0708447 1444110
-3.2106748 0.65419167 5.0708447 1706766
-3.1608281 0.65419167 5.0708447 1903631
-2.765317 0.58150375 4.5074177 1246729
-2.721009 0.58150375 4.5074177 393220
-3.0112882 0.65419167 5.0708447 524295
-3.3845046 0.74764758 5.7952509 458757
-3.3275371 0.74764758 5.7952509 590086
-3.2705696 0.74764758 5.7952509 787466
-3.2136018 0.74764758 5.7952509 1378316
-3.1566343 0.74764758 5.7952509 1049353
-3.0996668 0.74764758 5.7952509 983816
-3.0426991 0.74764758 5.7952509 918280
-2.9857316 0.74764758 5.7952509 786695
-2.9287641 0.74764758 5.7952509 852232
-2.8717964 0.74764758 5.7952509 720903
-2.4629753 0.65419167 5.0708447 655366
-2.4131286 0.65419167 5.0708447 1378059
-2.363282 0.65419167 5.0708447 1377289
-2.3134353 0.65419167 5.0708447 1837836
-2.2635887 0.65419167 5.0708447 3151636
-2.2137423 0.65419167 5.0708447 3544852
-0.50915188 0.15392745 1.1931399 3478802
-0.40267596 0.12460794 0.96587515 2954259
-0.39318138 0.12460794 0.96587515 2953487
-0.36624646 0.11894394 0.92197174 2954258
-0.34165373 0.11377246 0.88188601 2822931
-0.33298475 0.11377246 0.88188601 786696
-0.31741545 0.11135177 0.86312246 721673
-0.29632148 0.10680681 0.82789302 721160
-0.28241959 0.10467067 0.81133515 787209
-0.27444413 0.10467067 0.81133515 524293
-0.26124379 0.1026183 0.79542661 655367
-0.24855117 0.10064487 0.78012997 721418
-0.2363375 0.098745905 0.76541048 721160
-0.22881347 0.098745905 0.76541048 721160
-0.21324256 0.09515515 0.73757738 458757
-0.20231372 0.093455948 0.72440636 524296
-0.19176835 0.091816381 0.71169752 524552
-0.18477233 0.091816381 0.71169752 590089
-0.18095088 0.093455948 0.72440636 393222
-0.17382993 0.093455948 0.72440636 458759
-0.16670898 0.093455948 0.72440636 590088
-0.154085 0.090233333 0.69942683 786696
-0.1472096 0.090233333 0.69942683 590089
-0.1403342 0.090233333 0.69942683 590343
-0.13345881 0.090233333 0.69942683 590088
-0.12035801 0.085795626 0.66502881 524296
-0.11198492 0.08441183 0.65430254 590089
-0.10387765 0.083071962 0.64391679 393222
-0.094546445 0.080515899 0.62410396 393222
-0.088411473 0.080515899 0.62410396 852489
-0.082276508 0.080515899 0.62410396 720905
-0.077331245 0.081773959 0.63385558 459016
-0.16251524 0.1869119 1.4488127 458755
-0.14316046 0.18046667 1.3988537 721157
0 0 0 327687
0 0 0 459016
0 0 0 655368
0 0 0 786697
0 0 0 655367
0 0 0 656135
0 0 0 851974
0 0 0 786694
-0.010048147 0.093455948 0.72440636 983559
-0.0028758463 0.091816381 0.71169752 720903
0.0041937465 0.093455948 0.72440636 721157
0.011314694 0.093455948 0.72440636 786698
0.01843564 0.093455948 0.72440636 852743
0.025556589 0.093455948 0.72440636 852743
0.037345756 0.10680681 0.82789302 852489
0.047419466 0.11135177 0.86312246 1114888
0.057119306 0.11377246 0.88188601 917512
0.064388536 0.11135177 0.86312246 786696
0.076111868 0.11630074 0.90148348 656134
0.084973492 0.11630074 0.90148348 655368
0.10053762 0.12460794 0.96587515 786696
0.12837093 0.14537594 1.1268544 655880
0.15212503 0.15859191 1.2292956 721157
0.17480321 0.16882366 1.3086051 983302
0.18766685 0.16882366 1.3086051 786693
0.2005305 0.16882366 1.3086051 852743
0.19456525 0.15392745 1.1931399 852489
0.20629387 0.15392745 1.1931399 1049352
0.22462922 0.15859191 1.2292956 983305
0 0 0 721159
0 0 0 917766
0 0 0 786950
0 0 0 1049353
0 0 0 2101782
0 0 0 4071707
0 0 0 4728601
0 0 0 4727577
0 0 0 5646619
0.60002607 0.27544913 2.1350925 6434336
0.62101412 0.27544913 2.1350925 7025954
0.76237756 0.32709584 2.5354223 7091744
0.78730088 0.32709584 2.5354223 7485988
0.81222421 0.32709584 2.5354223 8340779
0.78790355 0.30785489 2.3862798 8603951
0.86207086 0.32709584 2.5354223 8670771
0.88699412 0.32709584 2.5354223 8932658
0.91191745 0.32709584 2.5354223 8539955
0.93684077 0.32709584 2.5354223 8735281
0.9617641 0.32709584 2.5354223 8539185
0.92864698 0.30785489 2.3862798 3281420
1.2450594 0.40257949 3.1205199 1049355
0 0 0 655880
0 0 0 786950
0.62078893 0.1869119 1.4488127 852743
0.61313319 0.18046667 1.3988537 918025
0.62688398 0.18046667 1.3988537 852489
0.64063483 0.18046667 1.3988537 917512
0.65438563 0.18046667 1.3988537 1114118
0.66813642 0.18046667 1.3988537 983303
0.7062403 0.1869119 1.4488127 917512
0.77590394 0.20128974 1.5602599 786696
0.822891 0.20934133 1.6226703 655880
0.87379366 0.21806389 1.6902815 655882
1.0176105 0.24921587 1.9317503 786950
1.1457155 0.27544913 2.1350925 852488
1.3039628 0.30785489 2.3862798 721673
1.1876916 0.27544913 2.1350925 917766
0.91859657 0.20934133 1.6226703 1575438
0.89860338 0.20128974 1.5602599 1509902
0.91394079 0.20128974 1.5602599 1640716
0.89486051 0.19383457 1.5024725 1311497
0.90962988 0.19383457 1.5024725 524293
0.92439926 0.19383457 1.5024725 917769
0.97529048 0.20128974 1.5602599 3743256
0.99062788 0.20128974 1.5602599 4268313
1.0059654 0.20128974 1.5602599 4071193
1.0621549 0.20934133 1.6226703 4005917
1.0781058 0.20934133 1.6226703 3874330
1.1396424 0.21806389 1.6902815 3349274
1.1562579 0.21806389 1.6902815 2626837
1.2238679 0.22754492 1.763772 1838610
1.2412059 0.22754492 1.763772 1903631
1.2061045 0.21806389 1.6902815 1509900
1.22272 0.21806389 1.6902815 1378314
1.2393357 0.21806389 1.6902815 1509645
1.3105577 0.22754492 1.763772 2297105
1.3278956 0.22754492 1.763772 3348758
1.3452337 0.22754492 1.763772 3611158
1.3625716 0.22754492 1.763772 3873559
1.3799095 0.22754492 1.763772 4070681
1.3972476 0.22754492 1.763772 4136218
1.4145855 0.22754492 1.763772 4135960
1.4319234 0.22754492 1.763772 3807767
1.4492614 0.22754492 1.763772 4135962
1.4665993 0.22754492 1.763772 3019281
1.4839373 0.22754492 1.763772 2297360
1.5012753 0.22754492 1.763772 1837325
1.5186132 0.22754492 1.763772 1771530
1.5359511 0.22754492 1.763772 1969168
1.5532892 0.22754492 1.763772 1968910
1.5706271 0.22754492 1.763772 1969422
1.6601453 0.23788787 1.8439435 2494994
1.6782713 0.23788787 1.8439435 2495252
1.622641 0.22754492 1.763772 2430231
1.6399789 0.22754492 1.763772 2429975
1.588262 0.21806389 1.6902815 2429973
1.6048776 0.21806389 1.6902815 2299159
1.5566334 0.20934133 1.6226703 2496024
1.5725844 0.20934133 1.6226703 3611675
1.5885353 0.20934133 1.6226703 5057317
1.6044862 0.20934133 1.6226703 5386537
1.6204371 0.20934133 1.6226703 5518123
1.6363881 0.20934133 1.6226703 6242103
1.652339 0.20934133 1.6226703 5913908
1.6682899 0.20934133 1.6226703 5124650
1.7544174 0.21806389 1.6902815 4926760
1.7710329 0.21806389 1.6902815 2101525
1.9501621 0.23788787 1.8439435 1050382
1.9682881 0.23788787 1.8439435 852746
2.0810053 0.24921587 1.9317503 984075
2.0999944 0.24921587 1.9317503 1049868
2.0226662 0.23788787 1.8439435 1247247
2.0407922 0.23788787 1.8439435 1246990
2.0589182 0.23788787 1.8439435 1049354
2.6879399 0.30785489 2.3862798 984075
3.0729165 0.3489022 2.7044504 786696
3.0995014 0.3489022 2.7044504 917768
3.1260862 0.3489022 2.7044504 852489
4.2990971 0.47577575 3.687887 918025
4.3353491 0.47577575 3.687887 852490
1.9235046 0.20934133 1.6226703 590087
16.162128 1.7445111 13.522252 720903
0 0 0 786696
0 0 0 852489
0 0 0 852489
0 0 0 721159
0 0 0 852743
0 0 0 852489
0 0 0 918282
0 0 0 852745
0 0 0 787466
0 0 0 1509902
0 0 0 1049101
0 0 0 1181202
-8.0692434 0.93871772 6.761126 2826027
-9.6033382 1.1264614 8.1133518 9265754
-9.5235834 1.1264614 8.1133518 9923150
-6.7455916 0.8046152 5.7952509 10448205
-5.2022634 0.62581187 4.5074177 10447692
-4.6421599 0.56323069 4.0566759 10316622
-4.6022825 0.56323069 4.0566759 10317392
-4.5624051 0.56323069 4.0566759 10645585
-4.5225282 0.56323069 4.0566759 10645585
-3.7355418 0.46935886 3.380563 10710354
-3.7023108 0.46935886 3.380563 11039060
-4.0026326 0.51202786 3.687887 10907987
-3.9663804 0.51202786 3.687887 10842194
-3.6026175 0.46935886 3.380563 10777423
-3.5693865 0.46935886 3.380563 10646353
-3.5361555 0.46935886 3.380563 10710606
-3.5029244 0.46935886 3.380563 10907982
-3.4696932 0.46935886 3.380563 10184513
-3.7488678 0.51202786 3.687887 6832421
-3.7126157 0.51202786 3.687887 5518115
-3.6763637 0.51202786 3.687887 1641481
-3.6401114 0.51202786 3.687887 984075
-3.6038594 0.51202786 3.687887 984077
-3.9243684 0.56323069 4.0566759 3020057
-4.3161011 0.62581187 4.5074177 3480085
-4.8057671 0.70403832 5.0708447 3480083
-4.7559204 0.70403832 5.0708447 3414290
-4.7060738 0.70403832 5.0708447 3283476
-4.6562271 0.70403832 5.0708447 3217683
-4.6063805 0.70403832 5.0708447 3217169
-4.0502524 0.62581187 4.5074177 3283220
-4.0059443 0.62581187 4.5074177 3283476
-3.9616363 0.62581187 4.5074177 3217426
-3.9173281 0.62581187 4.5074177 3151890
-3.8730199 0.62581187 4.5074177 3085073
-3.8287117 0.62581187 4.5074177 2822673
-3.7844038 0.62581187 4.5074177 1442566
-3.7400956 0.62581187 4.5074177 852489
-3.6957874 0.62581187 4.5074177 984075
-3.2863314 0.56323069 4.0566759 721673
-3.2464542 0.56323069 4.0566759 787465
-3.2065768 0.56323069 4.0566759 1049352
-3.1666996 0.56323069 4.0566759 918281
-2.8425655 0.51202786 3.687887 984073
-2.572454 0.46935886 3.380563 918279
-2.5392227 0.46935886 3.380563 1114887
-2.5059917 0.46935886 3.380563 852743
-2.6975572 0.51202786 3.687887 984329
-2.661305 0.51202786 3.687887 918535
-2.6250529 0.51202786 3.687887 918536
-2.847681 0.56323069 4.0566759 1049353
-2.8078039 0.56323069 4.0566759 1114887
-2.7679265 0.56323069 4.0566759 1246730
-3.0311658 0.62581187 4.5074177 1115401
-2.9868577 0.62581187 4.5074177 524294
-2.9425495 0.62581187 4.5074177 721160
-3.2605214 0.70403832 5.0708447 1838867
-3.2106748 0.70403832 5.0708447 2035215
-3.1608281 0.70403832 5.0708447 1970194
-3.1109815 0.70403832 5.0708447 2101266
-2.721009 0.62581187 4.5074177 1049095
-3.0112882 0.70403832 5.0708447 983816
-2.9614415 0.70403832 5.0708447 524550
-3.3275371 0.8046152 5.7952509 524808
-3.2705696 0.8046152 5.7952509 720903
-3.2136018 0.8046152 5.7952509 656137
-3.1566343 0.8046152 5.7952509 721157
-3.0996668 0.8046152 5.7952509 655365
-3.0426991 0.8046152 5.7952509 918281
-2.9857316 0.8046152 5.7952509 1114889
-2.9287641 0.8046152 5.7952509 852232
-2.8717964 0.8046152 5.7952509 1049355
-2.4629753 0.70403832 5.0708447 1115146
-2.4131286 0.70403832 5.0708447 1508875
-2.363282 0.70403832 5.0708447 1180681
-2.3134353 0.70403832 5.0708447 1902348
-2.2635887 0.70403832 5.0708447 2757137
-2.2137423 0.70403832 5.0708447 3413522
-2.1638956 0.70403832 5.0708447 3019280
-0.40267596 0.13410252 0.96587515 2428174
-0.39318138 0.13410252 0.96587515 2822673
-0.35810766 0.12516236 0.90148348 3346959
-0.34924603 0.12516236 0.90148348 3347988
-0.33298475 0.12244144 0.88188601 1443080
-0.32431579 0.12244144 0.88188601 852489
-0.29632148 0.11494503 0.82789302 721673
-0.28241959 0.11264613 0.81133515 720901
-0.26906288 0.11043738 0.79542661 655623
-0.25138554 0.10626993 0.76541048 458757
-0.24386151 0.10626993 0.76541048 721161
-0.2363375 0.10626993 0.76541048 655625
-0.22457621 0.10430197 0.75123626 590089
-0.21324256 0.10240557 0.73757738 655367
-0.20231372 0.1005769 0.72440636 524296
-0.19176835 0.098812394 0.71169752 655882
-0.18477233 0.098812394 0.71169752 524294
-0.18095088 0.1005769 0.72440636 458761
-0.17078029 0.098812394 0.71169752 590089
-0.16096039 0.097108729 0.69942683 590088
-0.154085 0.097108729 0.69942683 786953
-0.14230262 0.093871772 0.67611259 655880
-0.1356564 0.093871772 0.67611259 524552
-0.12901019 0.093871772 0.67611259 655367
-0.12236396 0.093871772 0.67611259 720903
-0.11198492 0.090843655 0.65430254 590089
-0.10387765 0.089401692 0.64391679 458759
-0.097547919 0.089401692 0.64391679 327685
-0.091218188 0.089401692 0.64391679 458757
0 0 0 655882
0 0 0 327686
0 0 0 590088
0 0 0 459015
0 0 0 655366
0 0 0 589832
0 0 0 589829
-0.085218713 0.18774354 1.3522252 590085
-0.074406497 0.19421746 1.3988537 524294
-0.060655702 0.19421746 1.3988537 786439
-0.050379347 0.20860395 1.5024725 655880
-0.035609975 0.20860395 1.5024725 786695
-0.013397531 0.13410252 0.96587515 983305
-0.0029272006 0.1005769 0.72440636 852489
0.0041937465 0.1005769 0.72440636 720905
0.011314694 0.1005769 0.72440636 786696
0.01843564 0.1005769 0.72440636 917766
0.027003186 0.10626993 0.76541048 786696
0.039781347 0.12244144 0.88188601 1049098
0.047419466 0.1198363 0.86312246 590087
0.054739334 0.11733972 0.84514076 852229
0.063047104 0.11733972 0.84514076 655366
0.071354873 0.11733972 0.84514076 786698
0.081357598 0.1198363 0.86312246 720903
0.091795221 0.12244144 0.88188601 524296
0.11003222 0.13410252 0.96587515 786696
0.14343219 0.16092305 1.1590502 983305
0.1548257 0.16092305 1.1590502 852743
0.16621922 0.16092305 1.1590502 917512
0.18837713 0.17067595 1.2292956 918025
0.20046116 0.17067595 1.2292956 1049353
0.21254519 0.17067595 1.2292956 1114887
0.30886519 0.23467943 1.6902815 1049352
0 0 0 852230
0 0 0 918282
0 0 0 1838611
0 0 0 5908768
0 0 0 10567724
0 0 0 11878181
0 0 0 12274218
0 0 0 12600876
0 0 0 12536107
0.60002607 0.29643717 2.1350925 12339243
0.56186992 0.26820505 1.9317503 12404524
0.64200217 0.29643717 2.1350925 12405295
0.74098909 0.33131215 2.3862798 12405805
0.76444632 0.33131215 2.3862798 12339759
0.78790355 0.33131215 2.3862798 12274993
0.81136078 0.33131215 2.3862798 12275248
0.83481801 0.33131215 2.3862798 11946800
0.85827523 0.33131215 2.3862798 12274479
0.88173252 0.33131215 2.3862798 12143406
0.90518975 0.33131215 2.3862798 11552812
0.60719228 0.21662718 1.5602599 10898226
0.62252969 0.21662718 1.5602599 10700337
0.57188082 0.19421746 1.3988537 10438196
0.60654706 0.2011538 1.4488127 9454131
0.5993824 0.19421746 1.3988537 6893604
0.61313319 0.19421746 1.3988537 6630689
0.62688398 0.19421746 1.3988537 5974559
0.64063483 0.19421746 1.3988537 4858137
0.65438563 0.19421746 1.3988537 4203035
0.66813642 0.19421746 1.3988537 3020050
0.7062403 0.2011538 1.4488127 2888207
0.72048217 0.2011538 1.4488127 2494480
0.79124135 0.21662718 1.5602599 2429204
0.83884192 0.22529225 1.6226703 2428690
1.0176105 0.26820505 1.9317503 1115144
1.2805055 0.33131215 2.3862798 2100753
1.3039628 0.33131215 2.3862798 1838608
0.90264559 0.22529225 1.6226703 1115145
0.82017547 0.2011538 1.4488127 1772815
0.83441734 0.2011538 1.4488127 1706252
0.88009113 0.20860395 1.5024725 1312780
0.89486051 0.20860395 1.5024725 524293
0.9446156 0.21662718 1.5602599 655623
0.95995307 0.21662718 1.5602599 984075
0.97529048 0.21662718 1.5602599 4071447
0.99062788 0.21662718 1.5602599 4333592
1.046204 0.22529225 1.6226703 4333592
1.1064112 0.23467943 1.6902815 4136730
1.1230268 0.23467943 1.6902815 4269085
1.1396424 0.23467943 1.6902815 4137754
1.1100076 0.22529225 1.6226703 4334363
1.1259586 0.22529225 1.6226703 4399902
1.1419095 0.22529225 1.6226703 4268316
1.2061045 0.23467943 1.6902815 3349014
1.22272 0.23467943 1.6902815 1706248
1.1897622 0.22529225 1.6226703 1246215
1.2057132 0.22529225 1.6226703 1508615
1.3882545 0.25601393 1.8439435 3086105
1.4063807 0.25601393 1.8439435 3609875
1.4245067 0.25601393 1.8439435 3544341
1.3799095 0.24488288 1.763772 4201755
1.3972476 0.24488288 1.763772 4464925
1.4145855 0.24488288 1.763772 4268572
1.4319234 0.24488288 1.763772 4072222
1.4492614 0.24488288 1.763772 4071709
1.4665993 0.24488288 1.763772 3808540
1.4839373 0.24488288 1.763772 3283227
1.5012753 0.24488288 1.763772 2494226
1.5186132 0.24488288 1.763772 2232082
1.5359511 0.24488288 1.763772 2232082
1.4885688 0.23467943 1.6902815 2297873
1.5051843 0.23467943 1.6902815 2494996
1.587965 0.24488288 1.763772 2692115
1.605303 0.24488288 1.763772 2757907
1.622641 0.24488288 1.763772 2691862
1.6399789 0.24488288 1.763772 2626323
1.588262 0.23467943 1.6902815 2888725
1.6048776 0.23467943 1.6902815 2955034
1.5566334 0.22529225 1.6226703 3217689
1.5725844 0.22529225 1.6226703 3479830
1.5885353 0.22529225 1.6226703 4006430
1.6044862 0.22529225 1.6226703 3546393
1.6204371 0.22529225 1.6226703 3677208
1.6363881 0.22529225 1.6226703 4333337
1.652339 0.22529225 1.6226703 4136217
1.6682899 0.22529225 1.6226703 4004633
1.7544174 0.23467943 1.6902815 3807769
1.7710329 0.23467943 1.6902815 2494739
1.8653724 0.24488288 1.763772 2232596
1.8827103 0.24488288 1.763772 2691861
1.9000483 0.24488288 1.763772 2560787
1.9173863 0.24488288 1.763772 2626838
1.9347242 0.24488288 1.763772 2561045
2.0407922 0.25601393 1.8439435 2429460
2.0589182 0.25601393 1.8439435 2363924
2.8559361 0.35201916 2.5354223 2495511
0 0 0 2233366
0 0 0 2167573
0 0 0 2495255
11.822517 1.4080766 10.141689 2429462
11.922211 1.4080766 10.141689 2429975
0 0 0 2298391
0 0 0 2298391
0 0 0 2101526
0 0 0 1838867
0 0 0 1707023
0 0 0 1575439
0 0 0 1312523
0 0 0 1246990
0 0 0 787210
0 0 0 919053
0 0 0 853261
0 0 0 1969424
0 0 0 1180940
0 0 0 1050385
-8.0692434 1.0051799 6.761126 2694444
-9.6033382 1.206216 8.1133518 8872281
-11.904479 1.5077698 10.141689 10185034
0 0 0 10316620
-5.2022634 0.67011994 4.5074177 10447952
-4.6421599 0.60310799 4.0566759 10579539
-4.6022825 0.60310799 4.0566759 10513745
-4.5624051 0.60310799 4.0566759 10579793
-4.5225282 0.60310799 4.0566759 10448722
-3.7355418 0.50258994 3.380563 10645331
-3.7023108 0.50258994 3.380563 10776146
-3.6690798 0.50258994 3.380563 10645586
-3.6358488 0.50258994 3.380563 10710608
-3.6026175 0.50258994 3.380563 10842192
-3.5693865 0.50258994 3.380563 10841679
-3.5361555 0.50258994 3.380563 11301460
-3.5029244 0.50258994 3.380563 11105105
-3.4696932 0.50258994 3.380563 10381891
-3.4364622 0.50258994 3.380563 7226409
-3.4032311 0.50258994 3.380563 5386529
-4.0440001 0.60310799 4.0566759 1903881
-3.6401114 0.54827994 3.687887 918536
-3.6038594 0.54827994 3.687887 1313037
-3.5676074 0.54827994 3.687887 2625557
-3.884491 0.60310799 4.0566759 3151637
-4.2717929 0.67011994 4.5074177 3020050
-4.7559204 0.75388491 5.0708447 3150866
-4.7060738 0.75388491 5.0708447 3151122
-4.6562271 0.75388491 5.0708447 3020050
-4.6063805 0.75388491 5.0708447 3086100
-4.0502524 0.67011994 4.5074177 3217686
-4.0059443 0.67011994 4.5074177 3151120
-3.9616363 0.67011994 4.5074177 3019535
-3.9173281 0.67011994 4.5074177 2757390
-3.8730199 0.67011994 4.5074177 2757394
-3.4458406 0.60310799 4.0566759 2362894
-3.7844038 0.67011994 4.5074177 1377802
-4.2076073 0.75388491 5.0708447 1115915
-4.1577606 0.75388491 5.0708447 984329
-4.107914 0.75388491 5.0708447 1114888
-3.6071713 0.67011994 4.5074177 983559
-3.2065768 0.60310799 4.0566759 1180938
-3.1666996 0.60310799 4.0566759 1115144
-3.1268222 0.60310799 4.0566759 852743
-3.0869448 0.60310799 4.0566759 852230
-2.7700613 0.54827994 3.687887 786437
-2.7338092 0.54827994 3.687887 524293
-2.9673131 0.60310799 4.0566759 787209
-2.9274356 0.60310799 4.0566759 787466
-2.8875585 0.60310799 4.0566759 984845
-2.847681 0.60310799 4.0566759 1049608
-3.119782 0.67011994 4.5074177 1049352
-3.0754738 0.67011994 4.5074177 1049352
-3.0311658 0.67011994 4.5074177 1181454
-2.9868577 0.67011994 4.5074177 1050122
-2.9425495 0.67011994 4.5074177 983815
-3.2605214 0.75388491 5.0708447 1838867
-3.2106748 0.75388491 5.0708447 1904658
-3.1608281 0.75388491 5.0708447 1904401
-3.1109815 0.75388491 5.0708447 1970194
-3.0611348 0.75388491 5.0708447 2363925
-3.0112882 0.75388491 5.0708447 2495254
-2.9614415 0.75388491 5.0708447 2232594
-3.3275371 0.86158276 5.7952509 2232592
-3.2705696 0.86158276 5.7952509 2101780
-3.2136018 0.86158276 5.7952509 655879
-3.1566343 0.86158276 5.7952509 918282
-3.0996668 0.86158276 5.7952509 1707281
-3.0426991 0.86158276 5.7952509 1970194
-2.9857316 0.86158276 5.7952509 1574923
-2.9287641 0.86158276 5.7952509 983305
-2.8717964 0.86158276 5.7952509 1114890
-2.4629753 0.75388491 5.0708447 1574925
-2.4131286 0.75388491 5.0708447 1311494
-2.363282 0.75388491 5.0708447 983558
-2.3134353 0.75388491 5.0708447 1706254
-2.2635887 0.75388491 5.0708447 2494485
-2.2137423 0.75388491 5.0708447 2823186
-2.1638956 0.75388491 5.0708447 3808793
-1.8791547 0.67011994 4.5074177 4202007
-0.39318138 0.14359713 0.96587515 4662045
-0.37476385 0.14025766 0.94341296 5122079
-0.34924603 0.13402398 0.90148348 5779748
-0.34038442 0.13402398 0.90148348 5057053
-0.32431579 0.13111041 0.88188601 655368
-0.30249485 0.12564749 0.84514076 983303
-0.26643357 0.11379395 0.76541048 655880
-0.25890955 0.11379395 0.76541048 721415
-0.25138554 0.11379395 0.76541048 655622
-0.24386151 0.11379395 0.76541048 786697
-0.2363375 0.11379395 0.76541048 1181454
-0.22457621 0.11168666 0.75123626 655368
-0.21324256 0.10965598 0.73757738 459016
-0.20599215 0.10965598 0.73757738 459016
-0.19519277 0.10769784 0.72440636 720905
-0.18807182 0.10769784 0.72440636 524809
-0.18095088 0.10769784 0.72440636 524296
-0.17078029 0.10580841 0.71169752 524297
-0.16096039 0.10398412 0.69942683 655882
-0.154085 0.10398412 0.69942683 655882
-0.1472096 0.10398412 0.69942683 590089
-0.1356564 0.10051799 0.67611259 459017
-0.12689526 0.098870158 0.66502881 589832
-0.12035801 0.098870158 0.66502881 393222
-0.11382074 0.098870158 0.66502881 590087
-0.1055531 0.097275473 0.65430254 524292
-0.097547919 0.095731422 0.64391679 458755
-0.092689447 0.097275473 0.65430254 458755
0 0 0 720903
0 0 0 393222
0 0 0 720903
0 0 0 786438
0 0 0 524553
0 0 0 458759
0 0 0 786696
0 0 0 786440
-0.074406497 0.20796825 1.3988537 786696
-0.060655702 0.20796825 1.3988537 720903
-0.046904907 0.20796825 1.3988537 589830
-0.035609975 0.22337332 1.5024725 917770
-0.01940332 0.20796825 1.3988537 786696
-0.003902934 0.14359713 0.96587515 917512
0.0055916621 0.14359713 0.96587515 917512
0.015086258 0.14359713 0.96587515 786696
0.023463544 0.13706999 0.92197174 655366
0.032526568 0.13706999 0.92197174 655366
0.041589592 0.13706999 0.92197174 786950
0 0 0 655366
0.054739334 0.12564749 0.84514076 589829
0.063047104 0.12564749 0.84514076 720903
0.071354873 0.12564749 0.84514076 851975
0.081357598 0.12832083 0.86312246 851975
0.091795221 0.13111041 0.88188601 721157
0 0 0 917512
0 0 0 655880
0 0 0 852489
0.18766685 0.19455095 1.3086051 852743
0 0 0 852489
0 0 0 1115915
0 0 0 2823962
0 0 0 5845289
0 0 0 10502444
0 0 0 12011053
0 0 0 12206633
0 0 0 12272424
0 0 0 12666920
0 0 0 12535334
0 0 0 12993832
0 0 0 12863786
0 0 0 12929583
0 0 0 12994861
0.56186992 0.28719425 1.9317503 13060912
0.58085907 0.28719425 1.9317503 12799022
0.66299021 0.31742522 2.1350925 12930093
0.76444632 0.35476938 2.3862798 12405036
0.78790355 0.35476938 2.3862798 12602413
0.81136078 0.35476938 2.3862798 12470059
0.83481801 0.35476938 2.3862798 12667436
0.85827523 0.35476938 2.3862798 12799535
0.88173252 0.35476938 2.3862798 12144176
0.59185487 0.2319646 1.5602599 12601899
0.60719228 0.2319646 1.5602599 12012592
0.55813003 0.20796825 1.3988537 11618605
0.57188082 0.20796825 1.3988537 11422509
0.58563161 0.20796825 1.3988537 10767150
0.5993824 0.20796825 1.3988537 10897966
0.61313319 0.20796825 1.3988537 11160367
0.62688398 0.20796825 1.3988537 11290924
0.64063483 0.20796825 1.3988537 11028525
0.63257271 0.20103598 1.3522252 11421228
0.66813642 0.20796825 1.3988537 11224875
0.7062403 0.21539569 1.4488127 11422514
0.77590394 0.2319646 1.5602599 11094834
0.76193613 0.22337332 1.5024725 10964025
0.7767055 0.22337332 1.5024725 10373173
0.79147488 0.22337332 1.5024725 9455162
0.80624425 0.22337332 1.5024725 8536370
0.82101363 0.22337332 1.5024725 7484714
0.80593354 0.21539569 1.4488127 6040095
0.79189354 0.20796825 1.3988537 4529428
0.83441734 0.21539569 1.4488127 3215884
0.84865928 0.21539569 1.4488127 2231819
0.96644932 0.24124318 1.6226703 1640970
0.98240024 0.24124318 1.6226703 1049863
0.99835116 0.24124318 1.6226703 2101008
1.1025022 0.26222083 1.763772 4531741
1.2264916 0.28719425 1.9317503 4597531
1.307755 0.30155399 2.028338 4530969
1.1545161 0.26222083 1.763772 4531742
1.0781058 0.24124318 1.6226703 4400671
1.0519776 0.2319646 1.5602599 4597533
1.067315 0.2319646 1.5602599 4465949
1.0826524 0.2319646 1.5602599 4333850
1.0979899 0.2319646 1.5602599 4399389
1.1578604 0.24124318 1.6226703 4267801
1.22272 0.25129497 1.6902815 3874071
1.1897622 0.24124318 1.6226703 4070936
1.2057132 0.24124318 1.6226703 4400156
1.2725667 0.25129497 1.6902815 4729117
1.4063807 0.27413997 1.8439435 4991776
1.4245067 0.27413997 1.8439435 4925470
1.3799095 0.26222083 1.763772 4991008
1.3972476 0.26222083 1.763772 5057314
1.3556443 0.25129497 1.6902815 4860191
1.37226 0.25129497 1.6902815 4597535
1.3888755 0.25129497 1.6902815 4401185
1.4665993 0.26222083 1.763772 3677978
1.4839373 0.26222083 1.763772 2955546
1.5012753 0.26222083 1.763772 2101011
1.5186132 0.26222083 1.763772 1969426
1.5359511 0.26222083 1.763772 2166803
1.4885688 0.25129497 1.6902815 3480601
1.5051843 0.25129497 1.6902815 3414808
1.5217998 0.25129497 1.6902815 3480344
1.5384154 0.25129497 1.6902815 3743260
1.622641 0.26222083 1.763772 3611159
1.5716465 0.25129497 1.6902815 3545881
1.588262 0.25129497 1.6902815 3283223
1.6048776 0.25129497 1.6902815 3151637
1.5566334 0.24124318 1.6226703 3480346
1.6381086 0.25129497 1.6902815 3939866
1.5885353 0.24124318 1.6226703 4597022
1.6044862 0.24124318 1.6226703 4399901
1.6204371 0.24124318 1.6226703 4203036
1.6363881 0.24124318 1.6226703 4006429
1.652339 0.24124318 1.6226703 3940635
1.7378019 0.25129497 1.6902815 4006171
1.7544174 0.25129497 1.6902815 4203037
1.7710329 0.25129497 1.6902815 3545881
1.8653724 0.26222083 1.763772 3151896
1.8827103 0.26222083 1.763772 3086104
1.9000483 0.26222083 1.763772 3020311
1.9173863 0.26222083 1.763772 3085847
2.0226662 0.27413997 1.8439435 3151638
2.2448716 0.30155399 2.028338 3085846
2.6644826 0.35476938 2.3862798 3217433
2.8559361 0.37694246 2.5354223 3086102
0 0 0 3217686
0 0 0 3152150
0 0 0 3283223
0 0 0 3217431
0 0 0 3282967
0 0 0 3217433
0 0 0 3020567
0 0 0 2757909
0 0 0 2757909
0 0 0 2823702
0 0 0 2757909
0 0 0 3021081
0 0 0 2823701
0 0 0 3021079
0 0 0 3020824
0 0 0 2956060
0 0 0 3481372
0 0 0 1575438
0 0 0 1378578
-9.6830931 1.2859706 8.1133518 2562087
-24.008345 3.2149262 20.283379 8019289
0 0 0 10251083
0 0 0 10251598
0 0 0 10644305
-5.1579552 0.71442807 4.5074177 10512975
-4.6022825 0.64298528 4.0566759 10513743
-4.5624051 0.64298528 4.0566759 10382669
-4.5225282 0.64298528 4.0566759 10710606
-4.4826508 0.64298528 4.0566759 10842192
-3.4175179 0.49460405 3.1205199 10645331
-3.1449256 0.45927516 2.8976254 10842192
-3.1164417 0.45927516 2.8976254 10972495
-3.0879579 0.45927516 2.8976254 10841936
-3.8938763 0.58453202 3.687887 10842447
-4.2433867 0.64298528 4.0566759 10973266
-4.2035093 0.64298528 4.0566759 10907728
-3.2027938 0.49460405 3.1205199 10184514
-3.1721191 0.49460405 3.1205199 7357995
-3.4032311 0.53582102 3.380563 5517856
-4.0440001 0.64298528 4.0566759 2494217
-3.6401114 0.58453202 3.687887 1049352
