# .PCD v0.7 - Point Cloud Data file format
VERSION 0.7
FIELDS x y z rgb
SIZE 4 4 4 4
TYPE F F F U
COUNT 1 1 1 1
WIDTH 1319
HEIGHT 1
VIEWPOINT 0 0 0 1 0 0 0
POINTS 1319
DATA ascii
-3.3602147 0.3551119 5.0708447 590087
-3.3103681 0.3551119 5.0708447 786951
-3.2605214 0.3551119 5.0708447 852486
-3.2106748 0.3551119 5.0708447 786950
-3.1608281 0.3551119 5.0708447 852743
-3.5554073 0.40584216 5.7952509 852743
-3.4984398 0.40584216 5.7952509 918024
-3.4414723 0.40584216 5.7952509 655368
0 0 0 721414
0 0 0 655880
-0.4088212 0.050730269 0.72440636 786953
-0.3878485 0.048980948 0.69942683 722440
-0.38765687 0.049840268 0.71169752 655880
-0.38745835 0.050730269 0.72440636 590601
-0.40186593 0.05360179 0.76541048 524550
-0.40192541 0.0546326 0.78012997 590600
-0.38681787 0.05360179 0.76541048 786696
-0.37226993 0.052609168 0.75123626 590087
-0.33396277 0.048150767 0.68757218 1509649
-0.33284533 0.048980948 0.69942683 4665907
-0.32596993 0.048980948 0.69942683 5980473
-0.3246927 0.049840268 0.71169752 8214605
-0.32924926 0.051652636 0.73757738 10053708
-0.33414975 0.05360179 0.76541048 10512712
-0.35328907 0.057977453 0.82789302 10316616
-0.35234147 0.059185311 0.84514076 10578501
-0.28971261 0.049840268 0.71169752 2032901
-0.28776509 0.050730269 0.72440636 786954
-0.29652965 0.05360179 0.76541048 852747
-0.29456344 0.0546326 0.78012997 721674
-0.28148162 0.05360179 0.76541048 720905
-0.27395758 0.05360179 0.76541048 524294
-0.26643357 0.05360179 0.76541048 655370
-0.25890955 0.05360179 0.76541048 852235
-0.24673025 0.052609168 0.75123626 1969940
-0.23499382 0.051652636 0.73757738 1904661
-0.2277434 0.051652636 0.73757738 1970196
-0.21655561 0.050730269 0.72440636 2101526
-0.20576039 0.049840268 0.71169752 786693
-0.19533738 0.048980948 0.69942683 655624
-0.18846199 0.048980948 0.69942683 590087
-0.1755337 0.04734825 0.67611259 721162
-0.16611885 0.046572052 0.66502881 590087
-0.14976117 0.043706078 0.62410396 327686
-0.14145005 0.043043863 0.61464781 590089
-0.13540803 0.043043863 0.61464781 720905
-0.12936601 0.043043863 0.61464781 786698
-0.123324 0.043043863 0.61464781 984075
-0.11728198 0.043043863 0.61464781 918282
-0.11123996 0.043043863 0.61464781 786696
-0.10519795 0.043043863 0.61464781 327684
-0.099155933 0.043043863 0.61464781 327688
-0.094546445 0.043706078 0.62410396 459016
-0.089792907 0.044388987 0.63385558 524550
0 0 0 524807
0 0 0 655880
0 0 0 786698
0 0 0 721675
0 0 0 786696
-0.068451174 0.057977453 0.82789302 786696
-0.059106693 0.0568179 0.81133515 655880
-0.052174725 0.057977453 0.82789302 721160
-0.044953924 0.059185311 0.84514076 720906
-0.036646154 0.059185311 0.84514076 786697
-0.028941326 0.060444575 0.86312246 917769
-0.020456793 0.060444575 0.86312246 786952
0 0 0 852743
0 0 0 1246477
0.0047928533 0.057977453 0.82789302 1180937
0.012931079 0.057977453 0.82789302 1246731
0.021069305 0.057977453 0.82789302 1444109
0.02920753 0.057977453 0.82789302 1575438
0.040665377 0.063130997 0.90148348 1575436
0.054358903 0.069290124 0.98943311 1509645
0 0 0 1772043
0 0 0 1772047
0 0 0 1509645
0 0 0 1508875
0 0 0 1050122
0 0 0 984329
0 0 0 852489
0 0 0 983305
0.64640808 0.31565502 4.5074177 721159
0.69071621 0.31565502 4.5074177 721417
0.73502433 0.31565502 4.5074177 786953
0.77933246 0.31565502 4.5074177 655623
0.82364053 0.31565502 4.5074177 721159
0.7811538 0.28408951 4.0566759 917767
0.82103109 0.28408951 4.0566759 983562
0.86090839 0.28408951 4.0566759 852489
0.90078574 0.28408951 4.0566759 3612704
1.0451812 0.31565502 4.5074177 4858908
1.0894892 0.31565502 4.5074177 3479054
1.1337974 0.31565502 4.5074177 3022105
1.3253686 0.3551119 5.0708447 4794398
1.3752153 0.3551119 5.0708447 4596762
1.0364087 0.25826317 3.687887 4464921
0.98327231 0.23674124 3.380563 4202777
1.0165035 0.23674124 3.380563 4530969
1.399646 0.31565502 4.5074177 7031095
1.4439542 0.31565502 4.5074177 8870210
1.4882623 0.31565502 4.5074177 10316367
1.5325705 0.31565502 4.5074177 10710354
1.4191908 0.28408951 4.0566759 10907987
1.12236 0.2185304 3.1205199 11498581
1.1530348 0.2185304 3.1205199 11958358
1.1837097 0.2185304 3.1205199 12419165
1.2143846 0.2185304 3.1205199 9725528
1.2450594 0.2185304 3.1205199 1312782
1.2757342 0.2185304 3.1205199 1246732
1.3064091 0.2185304 3.1205199 984075
1.2415779 0.20292108 2.8976254 852489
1.2700616 0.20292108 2.8976254 655880
1.3984337 0.2185304 3.1205199 656135
1.4291085 0.2185304 3.1205199 721927
1.4597833 0.2185304 3.1205199 655880
1.0197872 0.1495208 2.1350925 852489
0.98873651 0.14204475 2.028338 852489
1.0617633 0.1495208 2.1350925 918282
1.0827513 0.1495208 2.1350925 984075
1.1037394 0.1495208 2.1350925 983559
1.1247275 0.1495208 2.1350925 917766
1.0884298 0.14204475 2.028338 721673
1.1083684 0.14204475 2.028338 852489
1.1283071 0.14204475 2.028338 721675
1.1482457 0.14204475 2.028338 655881
1.2296677 0.1495208 2.1350925 655366
1.2506558 0.1495208 2.1350925 786696
1.2716439 0.1495208 2.1350925 786695
1.2280003 0.14204475 2.028338 852744
1.1885133 0.13528071 1.9317503 918023
1.2075025 0.13528071 1.9317503 852746
1.2264916 0.13528071 1.9317503 852488
1.307755 0.14204475 2.028338 525065
1.3276936 0.14204475 2.028338 787468
1.3476323 0.14204475 2.028338 787466
1.3024484 0.13528071 1.9317503 721673
1.3214376 0.13528071 1.9317503 722188
1.3404268 0.13528071 1.9317503 655882
1.4273869 0.14204475 2.028338 918283
1.3157504 0.12913159 1.8439435 852489
1.3338765 0.12913159 1.8439435 721673
1.4163835 0.13528071 1.9317503 3676952
1.4353727 0.13528071 1.9317503 5848368
1.4543619 0.13528071 1.9317503 6768446
1.4733511 0.13528071 1.9317503 6702657
1.4923403 0.13528071 1.9317503 6505532
1.5113295 0.13528071 1.9317503 6767933
1.3972476 0.12351717 1.763772 6175797
1.4145855 0.12351717 1.763772 6242360
1.4319234 0.12351717 1.763772 6111544
1.3888755 0.11837062 1.6902815 5387824
1.405491 0.11837062 1.6902815 2757913
1.4839373 0.12351717 1.763772 1969425
1.5695151 0.12913159 1.8439435 786696
1.6632431 0.13528071 1.9317503 786439
1.9626044 0.15782751 2.2537088 458758
1.8802974 0.1495208 2.1350925 524552
2.0069125 0.15782751 2.2537088 524809
2.0290666 0.15782751 2.2537088 524809
2.1718805 0.16711147 2.3862798 656138
1.9642496 0.1495208 2.1350925 655882
1.8859758 0.14204475 2.028338 655882
1.9059145 0.14204475 2.028338 655626
2.0272138 0.1495208 2.1350925 852237
2.0482018 0.1495208 2.1350925 852491
2.312624 0.16711147 2.3862798 590602
2.3360813 0.16711147 2.3862798 655882
1.9101025 0.13528071 1.9317503 786698
1.5581126 0.1092652 1.5602599 786696
1.5734501 0.1092652 1.5602599 786696
1.5887874 0.1092652 1.5602599 655880
1.6041249 0.1092652 1.5602599 720903
1.5594822 0.10521834 1.5024725 851975
1.5742517 0.10521834 1.5024725 786696
1.6501372 0.1092652 1.5602599 786698
1.7320936 0.1136358 1.6226703 721418
1.7480445 0.1136358 1.6226703 786955
2.2049944 0.14204475 2.028338 852489
1.8541107 0.11837062 1.6902815 853001
2.1379728 0.13528071 1.9317503 852489
2.2648103 0.14204475 2.028338 983562
2.8559361 0.17755595 2.5354223 983818
2.8808594 0.17755595 2.5354223 1049352
2.9057827 0.17755595 2.5354223 852744
2.930706 0.17755595 2.5354223 853002
2.9556293 0.17755595 2.5354223 918025
3.179256 0.189393 2.7044504 1048841
3.6990473 0.2185304 3.1205199 1049352
0 0 0 918282
0 0 0 918536
0 0 0 786950
0 0 0 786951
0 0 0 852489
0 0 0 786696
0 0 0 1049098
0 0 0 1049352
0 0 0 1049352
0 0 0 1180933
0 0 0 3220512
0 0 0 1181456
0 0 0 1575962
-9.6830931 0.64793366 8.1133518 6242624
-9.6033382 0.64793366 8.1133518 9923418
-23.808958 1.6198341 20.283379 10316625
-23.609571 1.6198341 20.283379 10515030
-15.60679 1.0798893 13.522252 10777171
-11.605399 0.80991703 10.141689 10646099
-9.204565 0.64793366 8.1133518 10777171
-9.1248102 0.64793366 8.1133518 10908500
-9.0450563 0.64793366 8.1133518 10777170
-8.9653015 0.64793366 8.1133518 10711119
-7.4046216 0.53994465 6.761126 11039829
-5.5036197 0.40495852 5.0708447 10907986
-5.453773 0.40495852 5.0708447 11236435
-4.8034906 0.35996315 4.5074177 11170642
-4.7591825 0.35996315 4.5074177 11040340
-4.2433867 0.32396683 4.0566759 10712145
-3.5029244 0.26997232 3.380563 10777169
-3.78512 0.29451528 3.687887 9659201
-4.123755 0.32396683 4.0566759 7029800
-4.0838776 0.32396683 4.0566759 4663833
-3.6763637 0.29451528 3.687887 1574148
-3.6401114 0.29451528 3.687887 1181451
-3.9642456 0.32396683 4.0566759 1772046
-3.9243684 0.32396683 4.0566759 3151896
-4.3161011 0.35996315 4.5074177 3414293
-4.2717929 0.35996315 4.5074177 3480085
-4.2274847 0.35996315 4.5074177 3414038
-3.7648592 0.32396683 4.0566759 3479318
-3.7249818 0.32396683 4.0566759 3349269
-4.0945606 0.35996315 4.5074177 3349524
-4.0502524 0.35996315 4.5074177 3414804
-3.60535 0.32396683 4.0566759 3545877
-3.5654726 0.32396683 4.0566759 3610900
-3.5255952 0.32396683 4.0566759 3545878
-3.8730199 0.35996315 4.5074177 3544852
-3.8287117 0.35996315 4.5074177 3217427
-3.7844038 0.35996315 4.5074177 2691085
-3.7400956 0.35996315 4.5074177 787719
-3.6957874 0.35996315 4.5074177 2166290
-3.6514795 0.35996315 4.5074177 589826
-3.6071713 0.35996315 4.5074177 524294
-3.5628631 0.35996315 4.5074177 590087
-3.5185549 0.35996315 4.5074177 524292
-3.1268222 0.32396683 4.0566759 524807
-3.4299388 0.35996315 4.5074177 524807
-3.3856306 0.35996315 4.5074177 786696
-3.3413227 0.35996315 4.5074177 787209
-3.2970145 0.35996315 4.5074177 852489
-3.2527063 0.35996315 4.5074177 918538
-3.6094477 0.40495852 5.0708447 1115145
-3.5596011 0.40495852 5.0708447 721672
-3.5097547 0.40495852 5.0708447 720904
-3.459908 0.40495852 5.0708447 720902
-3.4100614 0.40495852 5.0708447 590087
-3.3602147 0.40495852 5.0708447 721158
-2.9425495 0.35996315 4.5074177 786695
-2.8982413 0.35996315 4.5074177 918024
-3.2106748 0.40495852 5.0708447 983559
-3.1608281 0.40495852 5.0708447 1115146
-3.5554073 0.46280971 5.7952509 1048841
-3.4984398 0.46280971 5.7952509 918024
-3.4414723 0.46280971 5.7952509 721157
-3.3845046 0.46280971 5.7952509 852743
0 0 0 786696
-0.4088212 0.057851214 0.72440636 721673
-0.40170023 0.057851214 0.72440636 786950
-0.39457929 0.057851214 0.72440636 983302
-0.39450303 0.058903053 0.73757738 852232
-1.7749078 0.26997232 3.380563 655882
-1.7416768 0.26997232 3.380563 918282
-10.250674 1.6198341 20.283379 655369
0 0 0 590089
0 0 0 1838093
0 0 0 3676437
0 0 0 8081201
0 0 0 9657920
-0.34824443 0.062301312 0.78012997 9920063
-0.35419875 0.064793363 0.81133515 10184517
-0.36064926 0.067493081 0.84514076 10117186
-0.35234147 0.067493081 0.84514076 9921344
-0.35135356 0.068929106 0.86312246 2821640
-0.32887441 0.066115677 0.82789302 590347
-0.32073617 0.066115677 0.82789302 787722
-0.29456344 0.062301312 0.78012997 853004
-0.28689474 0.062301312 0.78012997 786955
-0.27922603 0.062301312 0.78012997 721417
-0.26643357 0.061125811 0.76541048 524296
-0.25890955 0.061125811 0.76541048 590348
-0.24673025 0.059993856 0.75123626 1509649
-0.23934558 0.059993856 0.75123626 1838867
-0.2277434 0.058903053 0.73757738 1773075
-0.22049299 0.058903053 0.73757738 589830
-0.20576039 0.056836285 0.71169752 655881
-0.19533738 0.055856347 0.69942683 655366
-0.18217991 0.053994466 0.67611259 655880
-0.1755337 0.053994466 0.67611259 655882
-0.17777631 0.056836285 0.71169752 721419
-0.15958159 0.053109314 0.66502881 721675
-0.13933885 0.048353255 0.605474 590602
-0.13338701 0.048353255 0.605474 524296
-0.12743518 0.048353255 0.605474 852489
-0.123324 0.049085878 0.61464781 1049870
-0.11728198 0.049085878 0.61464781 656395
-0.11123996 0.049085878 0.61464781 524294
-0.10519795 0.049085878 0.61464781 589831
-0.10068142 0.04984105 0.62410396 524552
-0.097547919 0.051423304 0.64391679 655366
0 0 0 655880
0 0 0 786696
0 0 0 655368
0 0 0 524296
0 0 0 786696
0 0 0 720905
-0.059894778 0.057851214 0.72440636 786439
-0.059106693 0.064793363 0.81133515 721157
-0.053261697 0.067493081 0.84514076 786950
-0.044953924 0.067493081 0.84514076 786950
-0.030327851 0.055856347 0.69942683 852233
-0.023452453 0.055856347 0.69942683 720902
-0.016867884 0.056836285 0.71169752 786950
-0.011253926 0.064793363 0.81133515 786696
-0.0033453722 0.066115677 0.82789302 1180938
0.0047928533 0.066115677 0.82789302 1378316
0.012931079 0.066115677 0.82789302 1180938
0.021069305 0.066115677 0.82789302 1575438
0.031803753 0.071992621 0.90148348 1444110
0.040665377 0.071992621 0.90148348 1706254
0.054358903 0.079016298 0.98943311 1641232
0.07101319 0.087558597 1.0963988 1772045
0 0 0 1837327
0 0 0 1444110
0 0 0 1443852
0 0 0 1246474
0 0 0 1246730
0 0 0 853002
0 0 0 1049096
0 0 0 787209
0.69071621 0.35996315 4.5074177 983559
0.73502433 0.35996315 4.5074177 852746
0.77933246 0.35996315 4.5074177 786950
0.7412765 0.32396683 4.0566759 786696
0.7811538 0.32396683 4.0566759 655623
0.82103109 0.32396683 4.0566759 721673
0.78264397 0.29451528 3.687887 983304
0.81889606 0.29451528 3.687887 1705998
0.94066304 0.32396683 4.0566759 4990750
1.2256753 0.40495852 5.0708447 4727583
1.700696 0.53994465 6.761126 4333337
1.3253686 0.40495852 5.0708447 4728349
1.3752153 0.40495852 5.0708447 4662041
1.2667217 0.35996315 4.5074177 4465177
1.1799269 0.32396683 4.0566759 4661786
1.355338 0.35996315 4.5074177 4267545
1.399646 0.35996315 4.5074177 7095348
1.4439542 0.35996315 4.5074177 9068098
1.0303354 0.24920525 3.1205199 10250828
1.0610102 0.24920525 3.1205199 10711122
1.0916852 0.24920525 3.1205199 11236181
1.12236 0.24920525 3.1205199 11368277
1.1530348 0.24920525 3.1205199 11433811
1.1837097 0.24920525 3.1205199 11695701
1.2143846 0.24920525 3.1205199 8804427
1.2450594 0.24920525 3.1205199 1050382
1.2757342 0.24920525 3.1205199 1181198
1.3064091 0.24920525 3.1205199 853261
0.82771862 0.1542699 1.9317503 786698
1.0459331 0.19056872 2.3862798 786698
1.2985455 0.23140486 2.8976254 721415
1.4291085 0.24920525 3.1205199 786438
0.82509488 0.14085513 1.763772 590087
0.84243286 0.14085513 1.763772 786696
0.94165373 0.1542699 1.9317503 524294
1.0086751 0.16198342 2.028338 720903
0.97963214 0.1542699 1.9317503 655366
0.99862134 0.1542699 1.9317503 590087
1.0684911 0.16198342 2.028338 590087
1.0884298 0.16198342 2.028338 524807
1.1083684 0.16198342 2.028338 590089
1.1283071 0.16198342 2.028338 852491
1.1482457 0.16198342 2.028338 984074
1.2296677 0.17050885 2.1350925 786951
1.188123 0.16198342 2.028338 787211
1.2080617 0.16198342 2.028338 918025
1.1695241 0.1542699 1.9317503 590088
1.1344899 0.14725764 1.8439435 720904
1.2075025 0.1542699 1.9317503 1049098
1.2264916 0.1542699 1.9317503 721160
1.307755 0.16198342 2.028338 590348
1.3276936 0.16198342 2.028338 918284
1.3476323 0.16198342 2.028338 721934
1.3024484 0.1542699 1.9317503 852489
1.3214376 0.1542699 1.9317503 787466
1.4815243 0.17050885 2.1350925 852489
1.4273869 0.16198342 2.028338 786954
1.3784052 0.1542699 1.9317503 655628
1.3338765 0.14725764 1.8439435 1114636
1.4163835 0.1542699 1.9317503 3611928
1.4353727 0.1542699 1.9317503 6833975
1.4543619 0.1542699 1.9317503 7228736
1.4733511 0.1542699 1.9317503 7162944
1.4923403 0.1542699 1.9317503 8081737
1.5113295 0.1542699 1.9317503 7952207
1.4607588 0.14725764 1.8439435 6901317
1.4145855 0.14085513 1.763772 6638402
1.4319234 0.14085513 1.763772 7162947
1.3888755 0.13498616 1.6902815 6635831
1.4665993 0.14085513 1.763772 3085847
1.4839373 0.14085513 1.763772 2560021
1.5695151 0.14725764 1.8439435 721673
1.5876411 0.14725764 1.8439435 524809
1.9626044 0.17998157 2.2537088 589832
1.9847585 0.17998157 2.2537088 655369
2.0069125 0.17998157 2.2537088 524296
1.9222735 0.17050885 2.1350925 590089
1.9432616 0.17050885 2.1350925 590089
1.7771782 0.1542699 1.9317503 590089
1.7961674 0.1542699 1.9317503 590090
1.8151566 0.1542699 1.9317503 590090
2.0272138 0.17050885 2.1350925 721675
2.1619909 0.17998157 2.2537088 787213
2.184145 0.17998157 2.2537088 786698
1.8911134 0.1542699 1.9317503 852491
1.5427752 0.12460262 1.5602599 852232
1.5581126 0.12460262 1.5602599 655624
1.5734501 0.12460262 1.5602599 721672
1.5887874 0.12460262 1.5602599 721670
1.6041249 0.12460262 1.5602599 721416
1.6194624 0.12460262 1.5602599 917769
1.6347997 0.12460262 1.5602599 786696
1.6501372 0.12460262 1.5602599 655881
1.7320936 0.12958673 1.6226703 655882
1.7480445 0.12958673 1.6226703 721675
2.2049944 0.16198342 2.028338 721673
2.2249329 0.16198342 2.028338 786950
2.3630228 0.17050885 2.1350925 786696
2.3840108 0.17050885 2.1350925 852491
2.8559361 0.20247926 2.5354223 852491
2.8808594 0.20247926 2.5354223 852490
2.9057827 0.20247926 2.5354223 787209
2.930706 0.20247926 2.5354223 721417
2.9556293 0.20247926 2.5354223 852489
2.8052261 0.19056872 2.3862798 918282
3.6990473 0.24920525 3.1205199 655880
0 0 0 786696
0 0 0 1049608
0 0 0 852489
0 0 0 787209
0 0 0 721672
0 0 0 721160
0 0 0 917769
0 0 0 917769
0 0 0 983305
0 0 0 1115146
0 0 0 1443853
0 0 0 1115922
0 0 0 1576222
-8.0692434 0.60640687 6.761126 5585460
-8.0027809 0.60640687 6.761126 9989204
-15.872638 1.2128137 13.522252 10776144
-23.609571 1.8192205 20.283379 10972753
0 0 0 10710354
-23.210798 1.8192205 20.283379 10514769
-9.204565 0.72768825 8.1133518 10580562
-9.1248102 0.72768825 8.1133518 10908755
-9.0450563 0.72768825 8.1133518 10580562
-7.4710836 0.60640687 6.761126 10842964
-7.4046216 0.60640687 6.761126 10973780
-5.5036197 0.45480514 5.0708447 10842193
-5.453773 0.45480514 5.0708447 11367764
-5.4039264 0.45480514 5.0708447 11105621
-4.7591825 0.40427125 4.5074177 11105107
-3.5361555 0.30320343 3.380563 11236435
-3.2334688 0.27988011 3.1205199 10908241
-3.4696932 0.30320343 3.380563 9527358
-4.123755 0.36384413 4.0566759 6963750
-4.0838776 0.36384413 4.0566759 4926492
-4.0440001 0.36384413 4.0566759 1377540
-3.6401114 0.33076736 3.687887 1181707
-3.9642456 0.36384413 4.0566759 1640716
-3.9243684 0.36384413 4.0566759 2823443
-4.3161011 0.40427125 4.5074177 3216916
-4.2717929 0.40427125 4.5074177 3217429
-4.2274847 0.40427125 4.5074177 3217429
-4.183177 0.40427125 4.5074177 3414292
-4.1388688 0.40427125 4.5074177 3283222
-4.0945606 0.40427125 4.5074177 3414292
-4.0502524 0.40427125 4.5074177 3414292
-3.60535 0.36384413 4.0566759 3479831
-3.5654726 0.36384413 4.0566759 3480085
-3.5255952 0.36384413 4.0566759 3480855
-3.8730199 0.40427125 4.5074177 3349015
-3.8287117 0.40427125 4.5074177 3414035
-3.7844038 0.40427125 4.5074177 2689802
-3.366086 0.36384413 4.0566759 984329
-3.3262088 0.36384413 4.0566759 2100241
-3.2863314 0.36384413 4.0566759 851970
-2.9513218 0.33076736 3.687887 720902
-3.2065768 0.36384413 4.0566759 786950
-3.1666996 0.36384413 4.0566759 852743
-3.1268222 0.36384413 4.0566759 918282
-3.0869448 0.36384413 4.0566759 984075
-3.3856306 0.40427125 4.5074177 918282
-3.3413227 0.40427125 4.5074177 787720
-3.2970145 0.40427125 4.5074177 787466
-3.2527063 0.40427125 4.5074177 919051
-3.2083981 0.40427125 4.5074177 1115144
-3.1640902 0.40427125 4.5074177 1050122
-3.5097547 0.45480514 5.0708447 786950
-3.459908 0.45480514 5.0708447 720903
-3.4100614 0.45480514 5.0708447 720903
-2.9868577 0.40427125 4.5074177 786950
-2.9425495 0.40427125 4.5074177 786950
-2.8982413 0.40427125 4.5074177 852488
-2.8539333 0.40427125 4.5074177 1115145
-3.1608281 0.45480514 5.0708447 918025
-3.1109815 0.45480514 5.0708447 1049095
-3.0611348 0.45480514 5.0708447 918023
-3.0112882 0.45480514 5.0708447 852743
-2.9614415 0.45480514 5.0708447 852743
-2.9115949 0.45480514 5.0708447 786950
-2.8617485 0.45480514 5.0708447 720903
-2.4994683 0.40427125 4.5074177 721927
-0.40175346 0.066153474 0.73757738 786950
-1.808139 0.30320343 3.380563 852489
-1.9362631 0.33076736 3.687887 721673
-2.6125152 0.45480514 5.0708447 786696
-2.9287641 0.5197773 5.7952509 721161
0 0 0 655368
0 0 0 1640457
0 0 0 3150098
0 0 0 7687226
0 0 0 9590842
-0.3852917 0.077413641 0.86312246 9657148
-0.36895701 0.075800858 0.84514076 9658688
-0.36832264 0.077413641 0.86312246 9723711
-0.36766067 0.079096548 0.88188601 9724222
-0.35899168 0.079096548 0.88188601 4269073
-0.35032272 0.079096548 0.88188601 721418
-0.32073617 0.074253902 0.82789302 787210
-0.31259793 0.074253902 0.82789302 852491
-0.29252011 0.071341984 0.79542661 590346
-0.27922603 0.069970027 0.78012997 853003
-0.26149964 0.067378543 0.75123626 918282
-0.25890955 0.068649828 0.76541048 656137
-0.24673025 0.067378543 0.75123626 984075
-0.23934558 0.067378543 0.75123626 1049352
-0.23196089 0.067378543 0.75123626 655882
-0.22049299 0.066153474 0.73757738 655880
-0.20576039 0.063832305 0.71169752 590347
-0.18882613 0.060640685 0.67611259 524809
-0.18217991 0.060640685 0.67611259 720905
-0.18477233 0.063832305 0.71169752 720905
-0.17777631 0.063832305 0.71169752 720905
-0.16783579 0.062731743 0.69942683 524552
-0.13933885 0.054305092 0.605474 655628
-0.13338701 0.054305092 0.605474 590089
-0.12743518 0.054305092 0.605474 721675
-0.123324 0.055127893 0.61464781 984077
-0.11728198 0.055127893 0.61464781 655880
-0.11123996 0.055127893 0.61464781 524294
-0.10519795 0.055127893 0.61464781 327685
-0.10225456 0.056850642 0.63385558 524294
0 0 0 459272
0 0 0 590089
0 0 0 590089
-0.079825804 0.058684535 0.65430254 655628
-0.073393978 0.058684535 0.65430254 786696
-0.068059899 0.059646577 0.66502881 590089
-0.061522633 0.059646577 0.66502881 720903
-0.058843996 0.063832305 0.71169752 786696
-0.05277383 0.064972162 0.72440636 721159
-0.045652881 0.064972162 0.72440636 655877
-0.037855938 0.063832305 0.71169752 589830
-0.029316923 0.060640685 0.67611259 786697
-0.023054956 0.061668497 0.68757218 786695
-0.016296091 0.061668497 0.68757218 786696
-0.0097016599 0.062731743 0.69942683 852743
0 0 0 786696
0 0 0 1312523
0 0 0 1180937
0.021508247 0.075800858 0.84514076 1443082
0.031803753 0.080854245 0.90148348 1378059
0.040665377 0.080854245 0.90148348 1640461
0.054358903 0.088742465 0.98943311 1443853
0.07101319 0.09833625 1.0963988 1640459
0.081790842 0.09833625 1.0963988 1706254
0 0 0 1443852
0 0 0 1246731
0 0 0 1246474
0 0 0 1115915
0 0 0 852743
0 0 0 1049609
0.64640808 0.40427125 4.5074177 918536
0.47818813 0.27988011 3.1205199 983305
0.55126822 0.30320343 3.380563 1049352
0.5844993 0.30320343 3.380563 721160
0.7412765 0.36384413 4.0566759 655623
0.7811538 0.36384413 4.0566759 590087
0.82103109 0.36384413 4.0566759 787211
0.78264397 0.33076736 3.687887 655880
0.81889606 0.33076736 3.687887 852233
1.0451812 0.40427125 4.5074177 5057311
1.4007719 0.5197773 5.7952509 5187871
1.700696 0.60640687 6.761126 4857880
1.7671582 0.60640687 6.761126 4596252
1.5716746 0.5197773 5.7952509 4465692
1.4250619 0.45480514 5.0708447 4596506
1.3110299 0.40427125 4.5074177 4399128
1.355338 0.40427125 4.5074177 4334107
1.2596815 0.36384413 4.0566759 7161652
0.99966061 0.27988011 3.1205199 13538155
1.0303354 0.27988011 3.1205199 14326383
0.98522377 0.25988865 2.8976254 13733477
1.0137075 0.25988865 2.8976254 11629907
1.12236 0.27988011 3.1205199 10776654
1.1530348 0.27988011 3.1205199 9527878
1.0991589 0.25988865 2.8976254 9855815
1.1276428 0.25988865 2.8976254 7950404
1.2450594 0.27988011 3.1205199 1180686
0.97556144 0.21402594 2.3862798 983818
0.67933273 0.14553764 1.6226703 786696
0.66854197 0.13994005 1.5602599 655880
0.68387938 0.13994005 1.5602599 721159
0.69921684 0.13994005 1.5602599 589830
0.71455425 0.13994005 1.5602599 720905
0.75908732 0.14553764 1.6226703 852489
0.84243286 0.1581931 1.763772 721159
0.89885128 0.16538368 1.8439435 917511
0.96064293 0.17325909 1.9317503 983559
0.97963214 0.17325909 1.9317503 852743
0.99862134 0.17325909 1.9317503 918023
1.0684911 0.18192206 2.028338 852488
1.0884298 0.18192206 2.028338 852743
1.1083684 0.18192206 2.028338 852743
1.1283071 0.18192206 2.028338 1181709
1.2086797 0.19149691 2.1350925 1707280
1.2296677 0.19149691 2.1350925 1181451
1.188123 0.18192206 2.028338 983304
1.1505349 0.17325909 1.9317503 852232
0.9446156 0.13994005 1.5602599 524807
1.0399491 0.15160172 1.6902815 393221
1.1025022 0.1581931 1.763772 1049095
1.2264916 0.17325909 1.9317503 983816
1.2454808 0.17325909 1.9317503 786696
1.26447 0.17325909 1.9317503 787468
1.2834592 0.17325909 1.9317503 787466
1.3024484 0.17325909 1.9317503 919054
1.3875096 0.18192206 2.028338 787211
1.4815243 0.19149691 2.1350925 721675
1.4273869 0.18192206 2.028338 721674
1.3784052 0.17325909 1.9317503 787468
1.4672642 0.18192206 2.028338 721675
1.4163835 0.17325909 1.9317503 3086869
1.4353727 0.17325909 1.9317503 5649958
1.4543619 0.17325909 1.9317503 5584939
1.4733511 0.17325909 1.9317503 6307893
1.4923403 0.17325909 1.9317503 6834753
1.5113295 0.17325909 1.9317503 6835784
1.4607588 0.16538368 1.8439435 6704453
1.4145855 0.1581931 1.763772 7097154
1.4319234 0.1581931 1.763772 7031104
1.3888755 0.15160172 1.6902815 6636605
1.4665993 0.1581931 1.763772 3086363
1.4839373 0.1581931 1.763772 2560276
1.5695151 0.16538368 1.8439435 786949
1.5876411 0.16538368 1.8439435 459016
1.6822323 0.17325909 1.9317503 524296
1.7012215 0.17325909 1.9317503 590345
1.7202107 0.17325909 1.9317503 655882
1.6601453 0.16538368 1.8439435 786698
1.758189 0.17325909 1.9317503 786698
1.7771782 0.17325909 1.9317503 655368
1.7961674 0.17325909 1.9317503 393479
1.8151566 0.17325909 1.9317503 590090
1.9258533 0.18192206 2.028338 655370
1.9457918 0.18192206 2.028338 720906
1.8721242 0.17325909 1.9317503 590089
1.6547242 0.15160172 1.6902815 655880
1.5427752 0.13994005 1.5602599 852489
1.5581126 0.13994005 1.5602599 787466
1.5734501 0.13994005 1.5602599 655882
1.5887874 0.13994005 1.5602599 721673
1.6041249 0.13994005 1.5602599 655880
1.6194624 0.13994005 1.5602599 917768
1.7001917 0.14553764 1.6226703 655880
1.7876486 0.15160172 1.6902815 721673
1.7320936 0.14553764 1.6226703 655880
1.7480445 0.14553764 1.6226703 852491
1.7639954 0.14553764 1.6226703 852491
1.9347242 0.1581931 1.763772 984075
2.2448716 0.18192206 2.028338 852232
2.5164559 0.20213562 2.2537088 721160
2.6879399 0.21402594 2.3862798 918025
2.7113969 0.21402594 2.3862798 786952
2.5829182 0.20213562 2.2537088 721416
2.930706 0.22740257 2.5354223 787466
2.9556293 0.22740257 2.5354223 655880
2.9805527 0.22740257 2.5354223 918282
3.4348295 0.25988865 2.8976254 786696
0 0 0 786696
0 0 0 655880
0 0 0 655880
0 0 0 655880
0 0 0 655880
0 0 0 590600
0 0 0 721673
0 0 0 852489
0 0 0 1115661
0 0 0 918539
0 0 0 1182224
0 0 0 984077
0 0 0 1510687
-8.0692434 0.67286903 6.761126 5060144
-8.0027809 0.67286903 6.761126 9923152
-15.872638 1.3457381 13.522252 10580050
0 0 0 10448721
0 0 0 10448719
0 0 0 10448206
-9.204565 0.8074429 8.1133518 10777171
-7.6040082 0.67286903 6.761126 10711889
-7.5375462 0.67286903 6.761126 10777427
-7.4710836 0.67286903 6.761126 10973780
-7.4046216 0.67286903 6.761126 10843475
-5.5036197 0.50465178 5.0708447 10842450
-5.453773 0.50465178 5.0708447 11104851
-4.8034906 0.44857937 4.5074177 11039571
-4.7591825 0.44857937 4.5074177 11433559
-3.5361555 0.33643451 3.380563 10974035
-3.2334688 0.31055495 3.1205199 10973775
-3.2027938 0.31055495 3.1205199 9592894
-4.5819497 0.44857937 4.5074177 6964265
-4.5376415 0.44857937 4.5074177 4860700
-4.0440001 0.40372145 4.0566759 1509125
-4.0041227 0.40372145 4.0566759 1115658
-3.9642456 0.40372145 4.0566759 1903888
-4.3604093 0.44857937 4.5074177 3349527
-4.3161011 0.44857937 4.5074177 3677719
-4.2717929 0.44857937 4.5074177 3611671
-4.2274847 0.44857937 4.5074177 3743000
-4.183177 0.44857937 4.5074177 3742744
-4.1388688 0.44857937 4.5074177 3611158
-4.0945606 0.44857937 4.5074177 3677980
-3.6452272 0.40372145 4.0566759 3611417
-3.60535 0.40372145 4.0566759 3414807
-3.5654726 0.40372145 4.0566759 3611671
-3.5255952 0.40372145 4.0566759 3349012
-3.8730199 0.44857937 4.5074177 3151636
-3.8287117 0.44857937 4.5074177 3282452
-3.4059634 0.40372145 4.0566759 2690315
-3.366086 0.40372145 4.0566759 852230
-3.3262088 0.40372145 4.0566759 1640461
-2.9875739 0.36701947 3.687887 918023
-2.9513218 0.36701947 3.687887 721159
-2.9150696 0.36701947 3.687887 853000
-2.8788176 0.36701947 3.687887 852745
-3.1268222 0.40372145 4.0566759 786953
-3.0869448 0.40372145 4.0566759 852746
-3.0470676 0.40372145 4.0566759 918281
-3.3413227 0.44857937 4.5074177 984073
-3.2970145 0.44857937 4.5074177 984329
-3.2527063 0.44857937 4.5074177 984072
-3.2083981 0.44857937 4.5074177 1115145
-3.1640902 0.44857937 4.5074177 918282
-3.119782 0.44857937 4.5074177 721928
-3.0754738 0.44857937 4.5074177 656134
-3.4100614 0.50465178 5.0708447 590343
-2.9868577 0.44857937 4.5074177 655880
-2.9425495 0.44857937 4.5074177 720903
-2.8982413 0.44857937 4.5074177 917512
-2.8539333 0.44857937 4.5074177 1048841
-2.8096251 0.44857937 4.5074177 918025
-3.1109815 0.50465178 5.0708447 655365
-3.0611348 0.50465178 5.0708447 786697
-3.0112882 0.50465178 5.0708447 786954
-2.9614415 0.50465178 5.0708447 1115402
-2.9115949 0.50465178 5.0708447 852487
-2.8617485 0.50465178 5.0708447 786696
-2.8119018 0.50465178 5.0708447 918282
-2.4551601 0.44857937 4.5074177 786953
-2.4108522 0.44857937 4.5074177 786950
-2.6623619 0.50465178 5.0708447 983559
-2.6125152 0.50465178 5.0708447 720903
-2.9287641 0.57674485 5.7952509 852489
-2.8717964 0.57674485 5.7952509 852489
0 0 0 1444879
0 0 0 4531996
0 0 0 7423282
0 0 0 8999738
0 0 0 9328696
-0.39355415 0.089715868 0.90148348 9199166
-0.38469252 0.089715868 0.90148348 9592895
-0.37583092 0.089715868 0.90148348 9263931
-0.36696929 0.089715868 0.90148348 7490871
-0.35032272 0.087765522 0.88188601 852489
-0.34165373 0.087765522 0.88188601 655882
-0.31259793 0.082392126 0.82789302 721673
-0.29837051 0.080744281 0.81133515 721161
-0.27922603 0.077638738 0.78012997 852746
-0.2715573 0.077638738 0.78012997 919051
-0.25411496 0.074763231 0.75123626 918280
-0.24673025 0.074763231 0.75123626 852489
-0.23934558 0.074763231 0.75123626 524809
-0.23196089 0.074763231 0.75123626 524296
-0.22049299 0.073403895 0.73757738 590600
-0.20943466 0.072093107 0.72440636 655880
-0.20231372 0.072093107 0.72440636 524809
-0.19176835 0.070828319 0.71169752 590090
-0.18477233 0.070828319 0.71169752 458759
-0.17777631 0.070828319 0.71169752 589832
-0.15958159 0.066183843 0.66502881 590089
-0.14145005 0.061169907 0.61464781 655882
-0.13338701 0.060256928 0.605474 786698
-0.12936601 0.061169907 0.61464781 918284
-0.123324 0.061169907 0.61464781 918284
-0.11553151 0.060256928 0.605474 458757
-0.10957967 0.060256928 0.605474 327686
-0.10519795 0.061169907 0.61464781 262149
-0.10068142 0.062110987 0.62410396 524294
0 0 0 590089
0 0 0 590089
-0.084888458 0.064082764 0.64391679 786696
-0.079825804 0.065116361 0.65430254 655882
-0.073393978 0.065116361 0.65430254 590087
-0.068059899 0.066183843 0.66502881 590087
-0.067015722 0.072093107 0.72440636 590089
-0.059894778 0.072093107 0.72440636 655624
-0.079873905 0.10911389 1.0963988 655880
-0.045652881 0.072093107 0.72440636 786696
-0.037855938 0.070828319 0.71169752 786696
-0.029813822 0.068427362 0.68757218 851976
-0.023054956 0.068427362 0.68757218 786696
-0.016296091 0.068427362 0.68757218 721671
-0.0095372256 0.068427362 0.68757218 918538
-0.0028262627 0.069607139 0.69942683 918284
0 0 0 1180937
0 0 0 1246731
0.021508247 0.084108628 0.84514076 1180681
0.029816018 0.084108628 0.84514076 1575439
0.040665377 0.089715868 0.90148348 1444110
0.053064641 0.096124142 0.96587515 1443852
0.064085074 0.098468639 0.98943311 1508875
0.075656533 0.10093036 1.014169 1707024
0.092568487 0.10911389 1.0963988 1509645
0 0 0 1116685
0 0 0 1049868
0 0 0 1049098
0 0 0 984074
0 0 0 1049095
0 0 0 918793
0 0 0 918538
0.55126822 0.33643451 3.380563 983816
0.5844993 0.33643451 3.380563 984072
0.7412765 0.40372145 4.0566759 918536
0.86794865 0.44857937 4.5074177 786951
0.91225678 0.44857937 4.5074177 852488
0.9565649 0.44857937 4.5074177 721414
1.000873 0.44857937 4.5074177 655623
1.1758287 0.50465178 5.0708447 4728350
1.6342338 0.67286903 6.761126 5055772
2.551044 1.0093036 10.141689 5188125
2.6507373 1.0093036 10.141689 5714466
2.7504306 1.0093036 10.141689 6700076
2.2800992 0.8074429 8.1133518 7028524
1.4749085 0.50465178 5.0708447 7685168
1.355338 0.44857937 4.5074177 8210738
0.89977241 0.28837243 2.8976254 8670516
0.92825621 0.28837243 2.8976254 7683886
0.95674002 0.28837243 2.8976254 6566948
0.98522377 0.28837243 2.8976254 6567971
1.0137075 0.28837243 2.8976254 7618856
1.0421914 0.28837243 2.8976254 7225389
0.93684077 0.25232589 2.5354223 7094317
1.0258816 0.2691476 2.7044504 8999736
0.98668742 0.25232589 2.5354223 7293496
1.0790514 0.2691476 2.7044504 1968136
0.8728708 0.21248496 2.1350925 1050124
0.65320456 0.15527748 1.5602599 655880
0.66854197 0.15527748 1.5602599 786696
0.6585505 0.14952646 1.5024725 655880
0.64927274 0.14418621 1.4488127 984587
0.64063483 0.13921428 1.3988537 1575695
0.70285863 0.14952646 1.5024725 1313294
0.77503824 0.16148856 1.6226703 1444109
0.89885128 0.18350974 1.8439435 1509903
0.96064293 0.19224828 1.9317503 1444110
1.0286138 0.20186073 2.028338 1378318
1.0485525 0.20186073 2.028338 1181196
1.0684911 0.20186073 2.028338 984587
1.0884298 0.20186073 2.028338 787209
1.1667036 0.21248496 2.1350925 1313038
1.1876916 0.21248496 2.1350925 1839380
1.2086797 0.21248496 2.1350925 2495768
1.2296677 0.21248496 2.1350925 1904403
1.0801117 0.18350974 1.8439435 1115404
0.92927819 0.15527748 1.5602599 721673
0.9446156 0.15527748 1.5602599 458762
0.95995307 0.15527748 1.5602599 655881
0.97529048 0.15527748 1.5602599 852743
1.1198401 0.17553104 1.763772 786696
1.188868 0.18350974 1.8439435 655880
1.2069941 0.18350974 1.8439435 984077
1.2251202 0.18350974 1.8439435 983823
1.3024484 0.19224828 1.9317503 983823
1.3875096 0.20186073 2.028338 721160
1.4074482 0.20186073 2.028338 852489
1.4273869 0.20186073 2.028338 786696
1.4473255 0.20186073 2.028338 721416
1.4672642 0.20186073 2.028338 787209
1.4872029 0.20186073 2.028338 3743769
1.4353727 0.19224828 1.9317503 5979946
1.4543619 0.19224828 1.9317503 6768953
1.4733511 0.19224828 1.9317503 7096121
1.4923403 0.19224828 1.9317503 7883585
1.4426327 0.18350974 1.8439435 7883331
1.4607588 0.18350974 1.8439435 6244164
1.4145855 0.17553104 1.763772 6111805
1.4319234 0.17553104 1.763772 7884101
1.3888755 0.16821726 1.6902815 6832956
1.4665993 0.17553104 1.763772 3545114
1.4839373 0.17553104 1.763772 2297874
1.5695151 0.18350974 1.8439435 786950
1.5876411 0.18350974 1.8439435 590087
1.6822323 0.19224828 1.9317503 393223
1.7012215 0.19224828 1.9317503 590088
1.6420193 0.18350974 1.8439435 655624
1.6601453 0.18350974 1.8439435 721418
1.6782713 0.18350974 1.8439435 590088
1.6963974 0.18350974 1.8439435 655625
1.7961674 0.19224828 1.9317503 655882
1.8151566 0.19224828 1.9317503 590088
1.8341458 0.19224828 1.9317503 655624
1.6919928 0.17553104 1.763772 2167834
1.5725844 0.16148856 1.6226703 2956829
1.5885353 0.16148856 1.6226703 3351074
1.5427752 0.15527748 1.5602599 2890778
1.5581126 0.15527748 1.5602599 2299409
1.6363881 0.16148856 1.6226703 2364432
1.652339 0.16148856 1.6226703 2364435
1.6682899 0.16148856 1.6226703 1378316
1.8306965 0.17553104 1.763772 1114891
1.8480344 0.17553104 1.763772 918536
2.0430269 0.19224828 1.9317503 853001
2.062016 0.19224828 1.9317503 852744
2.0810053 0.19224828 1.9317503 852489
1.7639954 0.16148856 1.6226703 852232
1.7114869 0.15527748 1.5602599 983559
2.3630228 0.21248496 2.1350925 853002
2.8310127 0.25232589 2.5354223 721673
2.8559361 0.25232589 2.5354223 786953
2.7113969 0.23748319 2.3862798 852488
2.5829182 0.22428969 2.2537088 721158
2.605072 0.22428969 2.2537088 720903
2.7817688 0.23748319 2.3862798 786696
2.9805527 0.25232589 2.5354223 786696
3.005476 0.25232589 2.5354223 852489
0 0 0 852489
0 0 0 918280
0 0 0 787464
0 0 0 721670
0 0 0 853000
0 0 0 853000
0 0 0 852743
0 0 0 918283
0 0 0 983562
0 0 0 1114891
0 0 0 1772821
0 0 0 1115663
0 0 0 1445148
-8.0692434 0.73933119 6.761126 4535346
-8.0027809 0.73933119 6.761126 10580308
0 0 0 10579791
0 0 0 10645584
0 0 0 10645330
-6.6316566 0.63371247 5.7952509 10645333
-6.5746889 0.63371247 5.7952509 10579792
-6.5177212 0.63371247 5.7952509 10777171
-6.4607539 0.63371247 5.7952509 10973780
-6.4037862 0.63371247 5.7952509 10907987
-6.3468184 0.63371247 5.7952509 10907987
-6.2898512 0.63371247 5.7952509 11104853
-5.453773 0.55449843 5.0708447 11170388
-5.4039264 0.55449843 5.0708447 11105363
-5.3540797 0.55449843 5.0708447 11105363
-3.5361555 0.36966559 3.380563 11236434
-3.2334688 0.3412298 3.1205199 11105357
-3.2027938 0.3412298 3.1205199 9593406
-4.123755 0.44359875 4.0566759 6700582
-4.5376415 0.4928875 4.5074177 4992030
-4.4933338 0.4928875 4.5074177 1640199
-4.0041227 0.44359875 4.0566759 1181453
-3.9642456 0.44359875 4.0566759 1444365
-4.3604093 0.4928875 4.5074177 3085331
-4.3161011 0.4928875 4.5074177 3216913
-4.2717929 0.4928875 4.5074177 3216913
-4.2274847 0.4928875 4.5074177 3019280
-4.183177 0.4928875 4.5074177 3282452
-4.1388688 0.4928875 4.5074177 3085074
-4.0945606 0.4928875 4.5074177 3020052
-3.6452272 0.44359875 4.0566759 3151892
-3.60535 0.44359875 4.0566759 3282964
-3.5654726 0.44359875 4.0566759 3282708
-3.5255952 0.44359875 4.0566759 3217172
-3.485718 0.44359875 4.0566759 3085843
-3.8287117 0.4928875 4.5074177 2954259
-3.7844038 0.4928875 4.5074177 2296844
-3.366086 0.44359875 4.0566759 786695
-3.3262088 0.44359875 4.0566759 852490
-2.9875739 0.40327156 3.687887 852489
-2.9513218 0.40327156 3.687887 852743
-2.9150696 0.40327156 3.687887 983815
-2.8788176 0.40327156 3.687887 984329
-2.8425655 0.40327156 3.687887 1115915
-3.0869448 0.44359875 4.0566759 918536
-3.0470676 0.44359875 4.0566759 983819
-3.3413227 0.4928875 4.5074177 917769
-3.2970145 0.4928875 4.5074177 721416
-3.2527063 0.4928875 4.5074177 786952
-3.2083981 0.4928875 4.5074177 852232
-3.1640902 0.4928875 4.5074177 918282
-2.8078039 0.44359875 4.0566759 1246731
-3.0754738 0.4928875 4.5074177 919306
-3.0311658 0.4928875 4.5074177 786696
-2.9868577 0.4928875 4.5074177 852489
-2.9425495 0.4928875 4.5074177 852491
-2.8982413 0.4928875 4.5074177 1115145
-2.8539333 0.4928875 4.5074177 1114888
-2.8096251 0.4928875 4.5074177 1114891
-2.765317 0.4928875 4.5074177 590602
-2.721009 0.4928875 4.5074177 983559
-3.0112882 0.55449843 5.0708447 918536
-2.9614415 0.55449843 5.0708447 1246474
-2.9115949 0.55449843 5.0708447 984332
-2.8617485 0.55449843 5.0708447 1378317
-2.8119018 0.55449843 5.0708447 1181194
-2.7620552 0.55449843 5.0708447 1246731
-2.7122085 0.55449843 5.0708447 1246474
-2.6623619 0.55449843 5.0708447 1114887
-2.6125152 0.55449843 5.0708447 918536
-2.5626686 0.55449843 5.0708447 1378060
-2.8717964 0.63371247 5.7952509 1246731
-2.8148289 0.63371247 5.7952509 1509902
0 0 0 3020569
0 0 0 6178366
0 0 0 7883826
0 0 0 8343604
-0.39355415 0.098577492 0.90148348 9001530
-0.38469252 0.098577492 0.90148348 9657918
-0.37583092 0.098577492 0.90148348 8343859
-0.36696929 0.098577492 0.90148348 7227184
-0.35810766 0.098577492 0.90148348 1442563
-0.34165373 0.096434504 0.88188601 655882
-0.31259793 0.090530351 0.82789302 852489
-0.30445972 0.090530351 0.82789302 786953
-0.28470105 0.086980142 0.79542661 852748
-0.26643357 0.08369787 0.76541048 918539
-0.25890955 0.08369787 0.76541048 1246733
-0.25138554 0.08369787 0.76541048 786953
-0.23934558 0.082147911 0.75123626 655882
-0.23196089 0.082147911 0.75123626 524296
-0.22049299 0.080654308 0.73757738 852491
-0.20943466 0.079214059 0.72440636 393222
-0.19876437 0.077824339 0.71169752 524555
-0.19176835 0.077824339 0.71169752 655882
-0.18477233 0.077824339 0.71169752 524295
-0.16888748 0.073933117 0.67611259 459017
-0.15958159 0.072721101 0.66502881 590343
-0.14587036 0.069312304 0.63385558 524294
-0.13540803 0.067211926 0.61464781 459016
-0.12936601 0.067211926 0.61464781 786698
-0.123324 0.067211926 0.61464781 721675
-0.11728198 0.067211926 0.61464781 655366
-0.11123996 0.067211926 0.61464781 327685
-0.10681639 0.068245955 0.62410396 393224
0 0 0 655368
0 0 0 720903
-0.088411473 0.068245955 0.62410396 524809
-0.083562076 0.069312304 0.63385558 655880
-0.078558728 0.070412494 0.64391679 786696
-0.073393978 0.071548179 0.65430254 786696
-0.074136674 0.079214059 0.72440636 720903
0 0 0 458759
0 0 0 393223
-0.11366671 0.1706149 1.5602599 655366
-0.088157289 0.15296507 1.3988537 655367
-0.074406497 0.15296507 1.3988537 786438
-0.030859921 0.077824339 0.71169752 786696
-0.023054956 0.07518623 0.68757218 786951
-0.016577058 0.076482534 0.69942683 786951
-0.0097016599 0.076482534 0.69942683 918536
0 0 0 786698
0 0 0 1049352
0 0 0 1115145
0.021508247 0.092416398 0.84514076 1246731
0.029816018 0.092416398 0.84514076 1443852
0.040665377 0.098577492 0.90148348 1574156
0.053064641 0.10561875 0.96587515 1509646
0.064085074 0.10819481 0.98943311 1180680
0.073811248 0.10819481 0.98943311 2691092
0.085625857 0.11089969 1.014169 2625299
0.10621687 0.12322187 1.1268544 2428944
0 0 0 2364180
0 0 0 2167571
0 0 0 1970192
0 0 0 1970192
0 0 0 2363410
0 0 0 2231312
0 0 0 2034448
0 0 0 983559
0 0 0 918281
0 0 0 787209
0 0 0 786696
0 0 0 917766
1.5013094 0.73933119 6.761126 853513
1.5677716 0.73933119 6.761126 5977131
2.4513507 1.1089969 10.141689 6962218
5.102088 2.2179937 20.283379 7029294
5.3014746 2.2179937 20.283379 7488297
5.5008612 2.2179937 20.283379 7881775
2.8501239 1.1089969 10.141689 8145971
1.1799269 0.44359875 4.0566759 8473908
0.87128866 0.31685624 2.8976254 8802102
0.89977241 0.31685624 2.8976254 8802358
0.92825621 0.31685624 2.8976254 8999480
0.95674002 0.31685624 2.8976254 9065528
0.98522377 0.31685624 2.8976254 9196601
1.0137075 0.31685624 2.8976254 9065273
0.91191745 0.27724922 2.5354223 8540728
0.93684077 0.27724922 2.5354223 8474682
0.9617641 0.27724922 2.5354223 8868404
0.98668742 0.27724922 2.5354223 7357232
1.0116107 0.27724922 2.5354223 1180681
0.8728708 0.23347302 2.1350925 852489
0.65320456 0.1706149 1.5602599 655880
0.62078893 0.15842812 1.4488127 655880
0.63503081 0.15842812 1.4488127 786696
0.64927274 0.15842812 1.4488127 721928
0.66351461 0.15842812 1.4488127 852489
0.70285863 0.16429582 1.5024725 1050122
0.77503824 0.1774395 1.6226703 1049608
0.89885128 0.20163578 1.8439435 1115145
0.91697735 0.20163578 1.8439435 984072
1.0286138 0.22179937 2.028338 852745
1.0485525 0.22179937 2.028338 984329
1.0684911 0.22179937 2.028338 918282
1.0884298 0.22179937 2.028338 655880
1.1667036 0.23347302 2.1350925 1115144
1.1876916 0.23347302 2.1350925 786696
1.2086797 0.23347302 2.1350925 786695
1.1125565 0.21123749 1.9317503 786696
0.9504984 0.1774395 1.6226703 1114887
0.92927819 0.1706149 1.5602599 656134
0.9446156 0.1706149 1.5602599 786695
0.95995307 0.1706149 1.5602599 720903
0.97529048 0.1706149 1.5602599 2692887
0.99062788 0.1706149 1.5602599 3285019
1.0897957 0.1848328 1.6902815 3481628
1.1545161 0.19286901 1.763772 3153437
1.171854 0.19286901 1.763772 3087902
1.2432462 0.20163578 1.8439435 1838354
1.3214376 0.21123749 1.9317503 983562
1.3404268 0.21123749 1.9317503 787209
1.4273869 0.22179937 2.028338 918282
1.4473255 0.22179937 2.028338 787209
1.4672642 0.22179937 2.028338 984074
1.4163835 0.21123749 1.9317503 3611670
1.4353727 0.21123749 1.9317503 6307885
1.4543619 0.21123749 1.9317503 6044981
1.4733511 0.21123749 1.9317503 6439995
1.4245067 0.20163578 1.8439435 7687746
1.4426327 0.20163578 1.8439435 7425347
1.3972476 0.19286901 1.763772 7426119
1.4145855 0.19286901 1.763772 6769472
1.4319234 0.19286901 1.763772 6571836
1.3888755 0.1848328 1.6902815 6372917
1.4665993 0.19286901 1.763772 3478807
1.4839373 0.19286901 1.763772 2889753
1.5012753 0.19286901 1.763772 918281
1.5876411 0.20163578 1.8439435 786439
1.6057671 0.20163578 1.8439435 459016
1.6238931 0.20163578 1.8439435 655625
1.6420193 0.20163578 1.8439435 524296
1.6601453 0.20163578 1.8439435 655880
1.6782713 0.20163578 1.8439435 656134
1.6963974 0.20163578 1.8439435 655620
1.7961674 0.21123749 1.9317503 852743
1.6573169 0.19286901 1.763772 590087
1.6746548 0.19286901 1.763772 786695
1.5566334 0.1774395 1.6226703 2561043
1.5725844 0.1774395 1.6226703 5847084
1.5885353 0.1774395 1.6226703 6702133
1.6044862 0.1774395 1.6226703 7096117
1.6204371 0.1774395 1.6226703 7227703
1.6363881 0.1774395 1.6226703 7622718
1.652339 0.1774395 1.6226703 7489596
1.6682899 0.1774395 1.6226703 6898743
1.8306965 0.19286901 1.763772 6241858
1.8480344 0.19286901 1.763772 1378833
2.0430269 0.21123749 1.9317503 721673
2.062016 0.21123749 1.9317503 721675
2.0810053 0.21123749 1.9317503 786698
1.6961495 0.1706149 1.5602599 852490
1.6480985 0.16429582 1.5024725 917767
1.7268243 0.1706149 1.5602599 852232
2.8310127 0.27724922 2.5354223 1049355
3.2639267 0.31685624 2.8976254 983562
2.8808594 0.27724922 2.5354223 917769
2.5829182 0.24644375 2.2537088 918025
2.7583115 0.26094043 2.3862798 853002
2.7817688 0.26094043 2.3862798 918279
2.9805527 0.27724922 2.5354223 918025
3.005476 0.27724922 2.5354223 852489
2.2039268 0.20163578 1.8439435 787466
4.4441056 0.40327156 3.687887 787466
0 0 0 853001
0 0 0 852743
0 0 0 852743
0 0 0 852743
0 0 0 655880
0 0 0 983305
0 0 0 983305
0 0 0 1574925
0 0 0 4993836
0 0 0 787468
0 0 0 1445146
-8.0692434 0.80579334 6.761126 4536119
-12.004172 1.20869 10.141689 10316368
0 0 0 10645072
0 0 0 10579793
-6.6886239 0.69068003 5.7952509 10514257
-6.6316566 0.69068003 5.7952509 10645585
-5.7528529 0.60434502 5.0708447 10580305
-5.7030063 0.60434502 5.0708447 10711121
-5.6531596 0.60434502 5.0708447 11038545
-6.4037862 0.69068003 5.7952509 10710354
-6.3468184 0.69068003 5.7952509 11040341
-6.2898512 0.69068003 5.7952509 10711376
-5.453773 0.60434502 5.0708447 11040343
-4.8034906 0.53719562 4.5074177 11039315
-5.3540797 0.60434502 5.0708447 11039571
-3.5361555 0.40289667 3.380563 11236178
-3.2334688 0.37190464 3.1205199 10907977
-3.2027938 0.37190464 3.1205199 9987653
-4.123755 0.48347604 4.0566759 6832427
-4.5376415 0.53719562 4.5074177 5320226
-4.0440001 0.48347604 4.0566759 1246471
-4.0041227 0.48347604 4.0566759 918793
-4.4047174 0.53719562 4.5074177 1378571
-4.3604093 0.53719562 4.5074177 3348246
-4.3161011 0.53719562 4.5074177 3020050
-4.2717929 0.53719562 4.5074177 3282706
-4.2274847 0.53719562 4.5074177 3347732
-4.183177 0.53719562 4.5074177 3610904
-4.1388688 0.53719562 4.5074177 3479831
-4.0945606 0.53719562 4.5074177 3414038
-4.0502524 0.53719562 4.5074177 3282706
-4.0059443 0.53719562 4.5074177 3282964
-3.9616363 0.53719562 4.5074177 3151638
-3.5255952 0.48347604 4.0566759 3217174
-3.485718 0.48347604 4.0566759 3151892
-3.4458406 0.48347604 4.0566759 3020051
-3.7844038 0.53719562 4.5074177 2493966
-3.7400956 0.53719562 4.5074177 918023
-3.3262088 0.48347604 4.0566759 655624
-2.9875739 0.43952367 3.687887 1049868
-2.9513218 0.43952367 3.687887 984075
-2.9150696 0.43952367 3.687887 918282
-2.8788176 0.43952367 3.687887 1049352
-2.8425655 0.43952367 3.687887 1049095
-3.0869448 0.48347604 4.0566759 786696
-3.0470676 0.48347604 4.0566759 852489
-3.0071902 0.48347604 4.0566759 721673
-2.9673131 0.48347604 4.0566759 787720
-3.2527063 0.53719562 4.5074177 984074
-2.8875585 0.48347604 4.0566759 1049611
-2.847681 0.48347604 4.0566759 1180939
-2.8078039 0.48347604 4.0566759 1115658
-2.7679265 0.48347604 4.0566759 1378059
-3.0311658 0.53719562 4.5074177 1246731
-2.9868577 0.53719562 4.5074177 984075
-2.9425495 0.53719562 4.5074177 1181454
-2.8982413 0.53719562 4.5074177 1443853
-2.8539333 0.53719562 4.5074177 1574668
-2.8096251 0.53719562 4.5074177 1378317
-2.765317 0.53719562 4.5074177 1246731
-2.721009 0.53719562 4.5074177 1443853
-3.0112882 0.60434502 5.0708447 1443853
-2.9614415 0.60434502 5.0708447 1180680
-2.9115949 0.60434502 5.0708447 852232
-2.8617485 0.60434502 5.0708447 1444879
-2.8119018 0.60434502 5.0708447 1444365
-2.7620552 0.60434502 5.0708447 1378573
-2.7122085 0.60434502 5.0708447 1443851
-2.6623619 0.60434502 5.0708447 1640973
-2.6125152 0.60434502 5.0708447 1509645
-2.5626686 0.60434502 5.0708447 1378059
-2.5128219 0.60434502 5.0708447 1246730
-2.4629753 0.60434502 5.0708447 918284
-2.4131286 0.60434502 5.0708447 3612704
-3.7812514 0.96695209 8.1133518 3938835
0 0 0 3610640
-3.0181184 0.80579334 6.761126 3544849
-0.40249857 0.10988092 0.92197174 3610128
-0.38469252 0.10743912 0.90148348 3479572
-0.37583092 0.10743912 0.90148348 3281939
-0.36696929 0.10743912 0.90148348 2887696
-0.35032272 0.10510349 0.88188601 1837579
-0.34165373 0.10510349 0.88188601 852491
-0.31911039 0.10072417 0.84514076 918282
-0.30445972 0.098668583 0.82789302 721675
-0.27922603 0.09297616 0.78012997 721672
-0.2715573 0.09297616 0.78012997 852233
-0.25890955 0.091221891 0.76541048 787210
-0.25138554 0.091221891 0.76541048 787210
-0.23934558 0.089532599 0.75123626 721418
-0.23196089 0.089532599 0.75123626 721675
-0.22049299 0.087904729 0.73757738 655882
-0.20943466 0.086335003 0.72440636 459016
