# .PCD v0.7 - Point Cloud Data file format
VERSION 0.7
FIELDS x y z rgb
SIZE 4 4 4 4
TYPE F F F U
COUNT 1 1 1 1
WIDTH 1225
HEIGHT 1
VIEWPOINT 0 0 0 1 0 0 0
POINTS 1225
DATA ascii
2.3186791 -0.7630648 3.1205199 13535068
2.349354 -0.7630648 3.1205199 12879965
2.380029 -0.7630648 3.1205199 12682333
2.4107037 -0.7630648 3.1205199 12419934
2.4413786 -0.7630648 3.1205199 12616796
2.6780577 -0.82665354 3.380563 12157273
3.615052 -1.1022048 4.5074177 12484957
4.7048912 -1.4171203 5.7952509 12551006
6.6666026 -1.9839686 8.1133518 12287835
6.7463574 -1.9839686 8.1133518 12091225
6.8261123 -1.9839686 8.1133518 12091226
2.8774443 -0.82665354 3.380563 11828056
2.6867774 -0.7630648 3.1205199 12024920
2.7174523 -0.7630648 3.1205199 11696212
2.748127 -0.7630648 3.1205199 11696984
2.7788019 -0.7630648 3.1205199 11959641
2.8094769 -0.7630648 3.1205199 11696981
2.8401515 -0.7630648 3.1205199 11302995
3.1100619 -0.82665354 3.380563 11631191
3.1432929 -0.82665354 3.380563 11367765
3.1765239 -0.82665354 3.380563 11367250
3.5015512 -0.90180385 3.687887 11105620
4.3239818 -1.1022048 4.5074177 11236695
4.3682899 -1.1022048 4.5074177 11104853
5.6733398 -1.4171203 5.7952509 11236437
5.7303076 -1.4171203 5.7952509 11301712
5.7872753 -1.4171203 5.7952509 10908755
5.1137128 -1.2399803 5.0708447 10973780
5.163559 -1.2399803 5.0708447 10843220
5.2134056 -1.2399803 5.0708447 10908242
5.2632523 -1.2399803 5.0708447 11039571
5.3130989 -1.2399803 5.0708447 10908757
7.1505942 -1.6533071 6.761126 10776917
7.2170563 -1.6533071 6.761126 10645331
8.7402229 -1.9839686 8.1133518 10777171
8.8199778 -1.9839686 8.1133518 10907988
8.8997316 -1.9839686 8.1133518 10710093
8.9794865 -1.9839686 8.1133518 10842192
9.0592413 -1.9839686 8.1133518 10514769
9.1389961 -1.9839686 8.1133518 10513999
9.21875 -1.9839686 8.1133518 10382159
9.2985048 -1.9839686 8.1133518 10250575
9.3782597 -1.9839686 8.1133518 10381391
9.4580145 -1.9839686 8.1133518 10185552
9.5377693 -1.9839686 8.1133518 10054223
6.010952 -1.2399803 5.0708447 10317138
3.7297223 -0.7630648 3.1205199 10250575
6.1106453 -1.2399803 5.0708447 10186065
4.1069946 -0.82665354 3.380563 9857612
4.9682708 -0.99198431 4.0566759 9988684
5.0081482 -0.99198431 4.0566759 10054220
0 0 0 10118730
0 0 0 10184782
0 0 0 10185810
0 0 0 10250577
0 0 0 9857362
0 0 0 9855815
0 0 0 12549204
0 0 0 12943707
-5.3794961 -1.0578966 4.5074177 12747613
-5.3351879 -1.0578966 4.5074177 12617567
-3.9681594 -0.7934224 3.380563 13339233
-4.2926493 -0.86555177 3.687887 13076831
-4.6820374 -0.95210695 4.0566759 12945760
-4.6421599 -0.95210695 4.0566759 12880226
-4.1838932 -0.86555177 3.687887 12814177
-4.1476407 -0.86555177 3.687887 13076061
-4.1113887 -0.86555177 3.687887 13077346
-4.0751367 -0.86555177 3.687887 13208162
-4.0388846 -0.86555177 3.687887 13208162
-4.0026326 -0.86555177 3.687887 13143137
-3.6358488 -0.7934224 3.380563 13273953
-3.6026175 -0.7934224 3.380563 13405539
-3.8938763 -0.86555177 3.687887 13208414
-4.2433867 -0.95210695 4.0566759 13471586
-3.821372 -0.86555177 3.687887 12681555
-3.4696932 -0.7934224 3.380563 10118719
-3.4364622 -0.7934224 3.380563 9921603
-3.7126157 -0.86555177 3.687887 9791044
-3.6763637 -0.86555177 3.687887 9592897
-3.6401114 -0.86555177 3.687887 10447434
-3.6038594 -0.86555177 3.687887 12483924
-3.5676074 -0.86555177 3.687887 12222807
-3.2370756 -0.7934224 3.380563 11959635
-2.4028835 -0.59506685 2.5354223 12550484
-2.3779602 -0.59506685 2.5354223 12680785
-2.3530369 -0.59506685 2.5354223 12483923
-2.3281136 -0.59506685 2.5354223 12484435
-1.6022192 -0.41395953 1.763772 12352595
-1.5848813 -0.41395953 1.763772 12221780
-1.5675433 -0.41395953 1.763772 12156244
-1.5502053 -0.41395953 1.763772 12483924
-1.410238 -0.38084278 1.6226703 12156242
-1.3406607 -0.36619499 1.5602599 12419158
-1.0768251 -0.29753342 1.2677112 12287568
-0.85149086 -0.23802674 1.014169 12287059
-0.82099658 -0.2322212 0.98943311 12287058
-0.69296008 -0.1983556 0.84514076 12023375
-0.67067987 -0.19430754 0.82789302 12025171
-0.66254163 -0.19430754 0.82789302 12089678
-0.60501444 -0.17964281 0.76541048 11762260
-0.44601402 -0.13409957 0.57136279 11762004
-0.43428087 -0.13223708 0.56342721 12089939
-0.42874235 -0.13223708 0.56342721 11564878
-0.42320383 -0.13223708 0.56342721 11368273
-0.42354792 -0.13409957 0.57136279 11301707
-0.42390186 -0.13601528 0.57952511 10907208
-0.41231489 -0.13409957 0.57136279 9920834
-0.41250834 -0.13601528 0.57952511 8804662
-0.41270739 -0.13798651 0.587924 6832422
-0.42542478 -0.14425862 0.61464781 3677712
-0.41938275 -0.14425862 0.61464781 1968391
-0.41334075 -0.14425862 0.61464781 1378316
-0.40121967 -0.14210552 0.605474 1312524
-0.38945505 -0.14001572 0.59656996 1575439
-0.38359076 -0.14001572 0.59656996 1444110
-0.37772644 -0.14001572 0.59656996 1181195
-0.37741232 -0.14210552 0.605474 1312523
-0.3714605 -0.14210552 0.605474 983560
-0.36550865 -0.14210552 0.605474 1114888
-0.35955682 -0.14210552 0.605474 786697
-0.35360497 -0.14210552 0.605474 720903
-0.34765315 -0.14210552 0.605474 853001
-0.3417013 -0.14210552 0.605474 918536
-0.33574948 -0.14210552 0.605474 851974
-0.32979763 -0.14210552 0.605474 983305
-0.31908333 -0.14001572 0.59656996 786696
-0.31321904 -0.14001572 0.59656996 918279
-0.31194213 -0.14210552 0.605474 853002
-0.31062648 -0.14425862 0.61464781 918535
-0.30458447 -0.14425862 0.61464781 918282
-0.29854244 -0.14425862 0.61464781 918279
-0.29700047 -0.146478 0.62410396 983816
-0.29541025 -0.14876671 0.63385558 1115145
-0.29376957 -0.15112808 0.64391679 983559
-0.28743985 -0.15112808 0.64391679 983559
-0.28564414 -0.15356563 0.65430254 918022
-0.27921233 -0.15356563 0.65430254 852487
-0.27278051 -0.15356563 0.65430254 1049097
-0.26634869 -0.15356563 0.65430254 918023
-0.2641778 -0.15608311 0.66502881 1049351
-0.25764054 -0.15608311 0.66502881 983302
-0.2552883 -0.15868448 0.67611259 1049352
-0.24864209 -0.15868448 0.67611259 1115144
-0.24609752 -0.16137406 0.68757218 1049610
-0.2477365 -0.16703631 0.71169752 1050122
-0.24074048 -0.16703631 0.71169752 984072
-0.23791845 -0.17001909 0.72440636 1115146
-0.23499382 -0.17311035 0.73757738 1969165
-0.23196089 -0.1763161 0.75123626 3609871
-0.23321375 -0.1830975 0.78012997 10643011
-0.22996747 -0.18668763 0.79542661 12746835
0 0 0 13207387
0 0 0 13075543
0 0 0 12812371
0 0 0 12550482
0 0 0 12352592
0 0 0 11959635
0 0 0 12155213
0 0 0 11695691
-0.4787873 -0.56006289 2.3862798 11433294
-0.45533007 -0.56006289 2.3862798 11301449
-0.43187281 -0.56006289 2.3862798 11563593
0 0 0 11170377
0 0 0 11104074
-0.6145519 -0.95210695 4.0566759 10709831
-0.47889549 -0.7934224 3.380563 10579530
-0.53479731 -0.95210695 4.0566759 10841416
-0.49492002 -0.95210695 4.0566759 11235146
-0.50560302 -1.0578966 4.5074177 11301965
-0.46129489 -1.0578966 4.5074177 11498572
-0.41698676 -1.0578966 4.5074177 12352082
-0.41926345 -1.1901337 5.0708447 12286545
-0.32837051 -1.0578966 4.5074177 12221778
-0.28406242 -1.0578966 4.5074177 13206610
-0.23975429 -1.0578966 4.5074177 13141334
-0.19544616 -1.0578966 4.5074177 13535063
-0.1700303 -1.1901337 5.0708447 13273943
-0.12018367 -1.1901337 5.0708447 13601626
-0.070337035 -1.1901337 5.0708447 13930845
-0.020490404 -1.1901337 5.0708447 14192734
0.029356226 -1.1901337 5.0708447 14455646
0.07040254 -1.0578966 4.5074177 14586719
0.12904948 -1.1901337 5.0708447 14193499
0.15901878 -1.0578966 4.5074177 14455649
0.2033269 -1.0578966 4.5074177 14390110
0.24763502 -1.0578966 4.5074177 13996122
0.29194313 -1.0578966 4.5074177 14520159
0.33625126 -1.0578966 4.5074177 14126175
0.42812929 -1.1901337 5.0708447 13536087
0.54625815 -1.3601527 5.7952509 13864282
0.60322571 -1.3601527 5.7952509 13666653
0.57766914 -1.1901337 5.0708447 13339998
0.55779183 -1.0578966 4.5074177 13076313
0.60209996 -1.0578966 4.5074177 13338712
0.64640808 -1.0578966 4.5074177 12812889
0.69071621 -1.0578966 4.5074177 13009498
0.73502433 -1.0578966 4.5074177 12879449
0.77933246 -1.0578966 4.5074177 12812374
0.82364053 -1.0578966 4.5074177 12747349
0.86794865 -1.0578966 4.5074177 12484692
0.91225678 -1.0578966 4.5074177 12616022
0.86090839 -0.95210695 4.0566759 12812371
0.90078574 -0.95210695 4.0566759 12945239
0.78388578 -0.7934224 3.380563 12878678
0.81711692 -0.7934224 3.380563 12878936
0.850348 -0.7934224 3.380563 13142107
0.81561148 -0.73238999 3.1205199 13076056
0.84628636 -0.73238999 3.1205199 12813141
0.71253097 -0.59506685 2.5354223 13142108
0.73745424 -0.59506685 2.5354223 13142108
0.76237756 -0.59506685 2.5354223 13338712
0.78730088 -0.59506685 2.5354223 13470044
0.76444632 -0.56006289 2.3862798 13470555
0.78790355 -0.56006289 2.3862798 13471068
0.76628524 -0.52894831 2.2537088 13667679
0.78843927 -0.52894831 2.2537088 13996128
0.81059337 -0.52894831 2.2537088 13799518
0.78891855 -0.50110894 2.1350925 13733469
0.8099066 -0.50110894 2.1350925 14258270
0.83089465 -0.50110894 2.1350925 13865054
0.8518827 -0.50110894 2.1350925 14390114
0.82922727 -0.47605348 2.028338 14193251
0.84916592 -0.47605348 2.028338 14193249
0.82771862 -0.45338425 1.9317503 14455138
0.84670776 -0.45338425 1.9317503 14456424
0.86569697 -0.45338425 1.9317503 14194020
1.0321339 -0.52894831 2.2537088 14193761
1.4597833 -0.73238999 3.1205199 13930593
1.4904583 -0.73238999 3.1205199 14259814
1.5211331 -0.73238999 3.1205199 14128481
1.2608439 -0.59506685 2.5354223 14128228
1.2857672 -0.59506685 2.5354223 14260071
1.3980699 -0.63473791 2.7044504 14061665
1.5264157 -0.68007636 2.8976254 14455907
1.6745073 -0.73238999 3.1205199 14259045
1.4778244 -0.63473791 2.7044504 14390115
1.32742 -0.56006289 2.3862798 14128231
1.2758286 -0.52894831 2.2537088 14325353
1.2296677 -0.50110894 2.1350925 13930595
1.8278816 -0.73238999 3.1205199 13799014
2.0134361 -0.7934224 3.380563 13865056
2.2327278 -0.86555177 3.687887 13733216
2.2689798 -0.86555177 3.687887 13864545
2.8175058 -1.0578966 4.5074177 13732960
2.861814 -1.0578966 4.5074177 13800546
2.9061222 -1.0578966 4.5074177 13340771
2.9504302 -1.0578966 4.5074177 13864804
2.2460537 -0.7934224 3.380563 13536612
2.2792847 -0.7934224 3.380563 13471329
2.3125157 -0.7934224 3.380563 13142881
2.3457468 -0.7934224 3.380563 13142109
2.1959798 -0.73238999 3.1205199 13273692
2.2266545 -0.73238999 3.1205199 13272670
2.2573295 -0.73238999 3.1205199 13207392
2.2880044 -0.73238999 3.1205199 13011551
2.3186791 -0.73238999 3.1205199 13338721
2.349354 -0.73238999 3.1205199 12747098
2.5783644 -0.7934224 3.380563 12287577
2.6115956 -0.7934224 3.380563 12550491
2.4413786 -0.73238999 3.1205199 12682075
2.6780577 -0.7934224 3.380563 12354393
2.9577696 -0.86555177 3.687887 12223584
3.6593602 -1.0578966 4.5074177 12549468
5.5555019 -1.5868448 6.761126 12157021
5.621964 -1.5868448 6.761126 11894104
3.102778 -0.86555177 3.687887 12222811
2.8774443 -0.7934224 3.380563 11959385
2.6867774 -0.73238999 3.1205199 12287322
2.7174523 -0.73238999 3.1205199 12286808
2.5518322 -0.68007636 2.8976254 11762006
2.7788019 -0.73238999 3.1205199 11762008
2.8094769 -0.73238999 3.1205199 11630163
2.8401515 -0.73238999 3.1205199 11565141
3.1100619 -0.7934224 3.380563 11564885
3.1432929 -0.7934224 3.380563 11434072
3.1765239 -0.7934224 3.380563 11434070
3.5015512 -0.86555177 3.687887 11368277
3.8915837 -0.95210695 4.0566759 11433300
3.9314611 -0.95210695 4.0566759 11301714
4.4125981 -1.0578966 4.5074177 11170645
4.4569063 -1.0578966 4.5074177 11302482
5.0638661 -1.1901337 5.0708447 10974548
4.5455227 -1.0578966 4.5074177 11040342
4.5898304 -1.0578966 4.5074177 10973776
4.6341386 -1.0578966 4.5074177 10908243
4.6784468 -1.0578966 4.5074177 10776915
4.722755 -1.0578966 4.5074177 10841939
7.1505942 -1.5868448 6.761126 10710865
8.6604681 -1.9042139 8.1133518 10645587
8.7402229 -1.9042139 8.1133518 10513748
8.8199778 -1.9042139 8.1133518 10907989
8.8997316 -1.9042139 8.1133518 10383696
8.9794865 -1.9042139 8.1133518 10514769
9.0592413 -1.9042139 8.1133518 10514512
9.1389961 -1.9042139 8.1133518 10317390
9.21875 -1.9042139 8.1133518 10381646
9.2985048 -1.9042139 8.1133518 10185808
9.3782597 -1.9042139 8.1133518 10316366
9.4580145 -1.9042139 8.1133518 10120272
5.2987604 -1.0578966 4.5074177 10054478
4.3716011 -0.86555177 3.687887 9922636
4.848639 -0.95210695 4.0566759 9988685
4.8885164 -0.95210695 4.0566759 10383186
4.1069946 -0.7934224 3.380563 10448464
4.1402254 -0.7934224 3.380563 10185034
0 0 0 10316366
0 0 0 10380108
0 0 0 10053200
0 0 0 9987663
0 0 0 10250577
0 0 0 9725771
0 0 0 9988174
0 0 0 12420445
0 0 0 12420957
-5.3794961 -1.0135885 4.5074177 12485983
-5.3351879 -1.0135885 4.5074177 12814946
-5.2908797 -1.0135885 4.5074177 13142368
-4.7219143 -0.91222966 4.0566759 12944987
-4.6820374 -0.91222966 4.0566759 12945243
-5.1579552 -1.0135885 4.5074177 13011552
-5.1136475 -1.0135885 4.5074177 12946530
-4.1476407 -0.82929963 3.687887 13076574
-4.1113887 -0.82929963 3.687887 13012064
-4.0751367 -0.82929963 3.687887 12749151
-4.0388846 -0.82929963 3.687887 12748894
-4.0026326 -0.82929963 3.687887 12944992
-3.9663804 -0.82929963 3.687887 12813402
-4.3231416 -0.91222966 4.0566759 13405539
-4.2832642 -0.91222966 4.0566759 13141854
-4.2433867 -0.91222966 4.0566759 13273180
-3.821372 -0.82929963 3.687887 12944472
-3.78512 -0.82929963 3.687887 10381893
-3.7488678 -0.82929963 3.687887 9986885
-3.7126157 -0.82929963 3.687887 9527874
-3.6763637 -0.82929963 3.687887 9396036
-4.0041227 -0.91222966 4.0566759 9199684
-3.9642456 -0.91222966 4.0566759 11564624
-3.9243684 -0.91222966 4.0566759 12679761
-3.5313554 -0.82929963 3.687887 12222548
-2.4028835 -0.57014352 2.5354223 12091221
-2.3779602 -0.57014352 2.5354223 12483924
-2.3530369 -0.57014352 2.5354223 12287830
-2.3281136 -0.57014352 2.5354223 12484180
-1.6022192 -0.39662156 1.763772 12485207
-1.5188446 -0.38009566 1.6902815 12287828
-1.4421399 -0.36489186 1.6226703 12287829
-1.4261889 -0.36489186 1.6226703 12353363
-1.410238 -0.36489186 1.6226703 11959635
-1.0892868 -0.28507176 1.2677112 12091221
-0.88354886 -0.23390505 1.0401733 12287828
-0.83072275 -0.22249503 0.98943311 12155731
-0.73175776 -0.19831078 0.88188601 12090962
-0.69296008 -0.19004783 0.84514076 12090447
-0.65726626 -0.18244593 0.81133515 12155986
-0.61253846 -0.1721188 0.76541048 12154705
-0.56255734 -0.16004029 0.71169752 11827281
-0.45238563 -0.13031852 0.57952511 11696722
-0.4403975 -0.12848306 0.57136279 11893844
-0.43478096 -0.12848306 0.57136279 12024659
-0.43529537 -0.13031852 0.57952511 11499085
-0.4295986 -0.13031852 0.57952511 11564364
-0.43004534 -0.13220719 0.587924 11366985
-0.41231489 -0.12848306 0.57136279 9922884
-0.41250834 -0.13031852 0.57952511 8608051
-0.41270739 -0.13220719 0.587924 6108962
-0.42542478 -0.1382166 0.61464781 4400926
-0.41938275 -0.1382166 0.61464781 1706508
-0.41334075 -0.1382166 0.61464781 1312267
-0.40121967 -0.13615368 0.605474 1575439
-0.38945505 -0.13415141 0.59656996 1378060
-0.38359076 -0.13415141 0.59656996 1115915
-0.37772644 -0.13415141 0.59656996 1050379
-0.37741232 -0.13615368 0.605474 919306
-0.37708864 -0.1382166 0.61464781 918281
-0.36550865 -0.13615368 0.605474 786440
-0.35955682 -0.13615368 0.605474 655625
-0.35360497 -0.13615368 0.605474 590345
-0.35292059 -0.1382166 0.61464781 655877
-0.3417013 -0.13615368 0.605474 918536
-0.33574948 -0.13615368 0.605474 853000
-0.32494766 -0.13415141 0.59656996 787720
-0.31908333 -0.13415141 0.59656996 721416
-0.31321904 -0.13415141 0.59656996 1049097
-0.31194213 -0.13615368 0.605474 1115145
-0.31062648 -0.1382166 0.61464781 983560
-0.30458447 -0.1382166 0.61464781 1049352
-0.29854244 -0.1382166 0.61464781 1049352
-0.29250044 -0.1382166 0.61464781 852489
-0.29086548 -0.14034303 0.62410396 852489
-0.28917941 -0.14253588 0.63385558 852742
-0.28743985 -0.14479835 0.64391679 852232
-0.28564414 -0.14713381 0.65430254 918026
-0.27478039 -0.14479835 0.64391679 852488
-0.26845065 -0.14479835 0.64391679 786951
-0.26634869 -0.14713381 0.65430254 918536
-0.25991684 -0.14713381 0.65430254 917510
-0.25348502 -0.14713381 0.65430254 1049098
-0.25110325 -0.14954585 0.66502881 1049098
-0.24456599 -0.14954585 0.66502881 786696
-0.24199587 -0.15203826 0.67611259 1115403
-0.24346517 -0.15728097 0.69942683 1509645
-0.24074048 -0.16004029 0.71169752 1378057
-0.23374446 -0.16004029 0.71169752 1378060
-0.23499382 -0.16585992 0.73757738 1378057
-0.23196089 -0.16893141 0.75123626 1968908
-0.23321375 -0.17542878 0.78012997 8015160
-0.22554503 -0.17542878 0.78012997 12681298
-0.23603266 -0.19004783 0.84514076 13011285
0 0 0 13338710
0 0 0 13338712
0 0 0 13010004
0 0 0 12418385
0 0 0 12287312
0 0 0 12548944
0 0 0 11957063
0 0 0 11564619
0 0 0 11826508
-0.45886487 -0.57014352 2.5354223 11694921
0 0 0 11170378
-0.40901825 -0.57014352 2.5354223 11235912
-0.68283546 -1.0135885 4.5074177 10972742
-0.57467461 -0.91222966 4.0566759 10842183
-0.53479731 -0.91222966 4.0566759 11104328
-0.49492002 -0.91222966 4.0566759 11366473
-0.45504269 -0.91222966 4.0566759 11629900
-0.46129489 -1.0135885 4.5074177 11827535
-0.41698676 -1.0135885 4.5074177 12089166
-0.37267864 -1.0135885 4.5074177 12549714
-0.32837051 -1.0135885 4.5074177 12484691
-0.28406242 -1.0135885 4.5074177 12944982
-0.23975429 -1.0135885 4.5074177 13272921
-0.19544616 -1.0135885 4.5074177 13273433
-0.1700303 -1.140287 5.0708447 13799005
-0.12018367 -1.140287 5.0708447 13799001
-0.070337035 -1.140287 5.0708447 14126940
-0.020490404 -1.140287 5.0708447 14651999
0.029356226 -1.140287 5.0708447 14783838
0.079202853 -1.140287 5.0708447 14586974
0.12904948 -1.140287 5.0708447 14324573
0.15901878 -1.0135885 4.5074177 14521442
0.2033269 -1.0135885 4.5074177 14390110
0.24763502 -1.0135885 4.5074177 14193247
0.29194313 -1.0135885 4.5074177 14258270
0.33625126 -1.0135885 4.5074177 13799261
0.42812929 -1.140287 5.0708447 14061663
0.54625815 -1.3031851 5.7952509 13929559
0.52782255 -1.140287 5.0708447 13863766
0.5134837 -1.0135885 4.5074177 13666905
0.55779183 -1.0135885 4.5074177 13076565
0.60209996 -1.0135885 4.5074177 13075545
0.64640808 -1.0135885 4.5074177 13140309
0.69071621 -1.0135885 4.5074177 13469274
0.66152191 -0.91222966 4.0566759 12549717
0.77933246 -1.0135885 4.5074177 12878936
0.82364053 -1.0135885 4.5074177 12747606
0.86794865 -1.0135885 4.5074177 12943957
0.82103109 -0.91222966 4.0566759 12813403
0.71742362 -0.76019132 3.380563 12878163
0.7506547 -0.76019132 3.380563 12615763
0.78388578 -0.76019132 3.380563 12944472
0.81711692 -0.76019132 3.380563 12878677
0.850348 -0.76019132 3.380563 13076569
0.81561148 -0.70171511 3.1205199 13141849
0.84628636 -0.70171511 3.1205199 13010520
0.81432104 -0.65159255 2.8976254 13207647
0.78661782 -0.60815305 2.7044504 13207899
0.76237756 -0.57014352 2.5354223 13011035
0.78730088 -0.57014352 2.5354223 13404762
0.86637247 -0.60815305 2.7044504 13667425
0.89295733 -0.60815305 2.7044504 13142365
0.81136078 -0.53660566 2.3862798 13470555
0.78843927 -0.50679427 2.2537088 13929820
0.81059337 -0.50679427 2.2537088 13930848
0.8327474 -0.50679427 2.2537088 13865825
0.85490143 -0.50679427 2.2537088 14126947
0.83089465 -0.48012087 2.1350925 14259044
0.8518827 -0.48012087 2.1350925 14389858
0.8728708 -0.48012087 2.1350925 14324065
0.84916592 -0.45611483 2.028338 14323552
0.86910456 -0.45611483 2.028338 13866081
0.84670776 -0.43439505 1.9317503 14324323
1.0693904 -0.53660566 2.3862798 13735009
1.4291085 -0.70171511 3.1205199 14193761
1.4597833 -0.70171511 3.1205199 14456165
1.4904583 -0.70171511 3.1205199 14259041
1.5211331 -0.70171511 3.1205199 14521444
1.3449001 -0.60815305 2.7044504 14259560
1.371485 -0.60815305 2.7044504 14127970
1.497932 -0.65159255 2.8976254 14390628
1.5264157 -0.65159255 2.8976254 14324837
1.6745073 -0.70171511 3.1205199 13800035
1.7051822 -0.70171511 3.1205199 13864804
1.4103838 -0.57014352 2.5354223 14389604
1.4353071 -0.57014352 2.5354223 14192995
1.2979827 -0.50679427 2.2537088 13800290
1.9802049 -0.76019132 3.380563 13733217
2.0134361 -0.76019132 3.380563 14062183
2.7288897 -1.0135885 4.5074177 14192481
2.7731977 -1.0135885 4.5074177 13799266
2.8175058 -1.0135885 4.5074177 13602914
2.3414841 -0.82929963 3.687887 13732186
2.9061222 -1.0135885 4.5074177 13799010
2.9504302 -1.0135885 4.5074177 13798241
2.4502404 -0.82929963 3.687887 13405798
2.2792847 -0.76019132 3.380563 13667428
2.13463 -0.70171511 3.1205199 13667171
2.1653049 -0.70171511 3.1205199 13535583
2.1959798 -0.70171511 3.1205199 13010781
2.2266545 -0.70171511 3.1205199 13010781
2.2573295 -0.70171511 3.1205199 13141597
2.2880044 -0.70171511 3.1205199 13076065
2.3186791 -0.70171511 3.1205199 12813147
0 0 0 13009752
2.5783644 -0.76019132 3.380563 12616025
2.6115956 -0.76019132 3.380563 12286805
2.6448267 -0.76019132 3.380563 12353880
2.6780577 -0.76019132 3.380563 12485722
2.5027282 -0.70171511 3.1205199 12353884
2.7445199 -0.76019132 3.380563 12025433
3.0302739 -0.82929963 3.687887 12157016
3.0665259 -0.82929963 3.687887 11763546
3.102778 -0.82929963 3.687887 11763291
2.8774443 -0.76019132 3.380563 11893078
2.6867774 -0.70171511 3.1205199 11893078
2.7174523 -0.70171511 3.1205199 11893590
2.748127 -0.70171511 3.1205199 11893592
2.7788019 -0.70171511 3.1205199 11762265
2.8094769 -0.70171511 3.1205199 11827799
2.8401515 -0.70171511 3.1205199 11499349
3.1100619 -0.76019132 3.380563 11498835
3.1432929 -0.76019132 3.380563 11368279
3.1765239 -0.76019132 3.380563 11433558
3.2097552 -0.76019132 3.380563 11302487
3.5378032 -0.82929963 3.687887 11958363
3.9314611 -0.91222966 4.0566759 11171159
4.4125981 -1.0135885 4.5074177 11432788
4.4569063 -1.0135885 4.5074177 11498836
5.0638661 -1.140287 5.0708447 11171411
5.1137128 -1.140287 5.0708447 10909010
4.5898304 -1.0135885 4.5074177 11236435
4.6341386 -1.0135885 4.5074177 11105618
4.6784468 -1.0135885 4.5074177 10973778
4.722755 -1.0135885 4.5074177 10776657
5.3629456 -1.140287 5.0708447 10711377
8.6604681 -1.8244593 8.1133518 10514001
8.7402229 -1.8244593 8.1133518 10579283
8.8199778 -1.8244593 8.1133518 10644819
8.8997316 -1.8244593 8.1133518 10580053
8.9794865 -1.8244593 8.1133518 10317652
9.0592413 -1.8244593 8.1133518 10579792
9.1389961 -1.8244593 8.1133518 10316620
9.21875 -1.8244593 8.1133518 10316368
9.2985048 -1.8244593 8.1133518 9988688
9.3782597 -1.8244593 8.1133518 10447441
5.9112587 -1.140287 5.0708447 10054226
4.3353491 -0.82929963 3.687887 10120015
4.3716011 -0.82929963 3.687887 10054479
4.848639 -0.91222966 4.0566759 10316881
4.8885164 -0.91222966 4.0566759 10250061
4.1069946 -0.76019132 3.380563 10249804
9.9365416 -1.8244593 8.1133518 10184782
0 0 0 9857614
0 0 0 10052428
0 0 0 10250576
0 0 0 9987661
0 0 0 10119247
0 0 0 10184012
0 0 0 9922380
0 0 0 12091480
0 0 0 12288857
-4.4014053 -0.79304755 3.687887 12354398
-5.3351879 -0.96928042 4.5074177 12683360
-5.2908797 -0.96928042 4.5074177 12749153
-5.2465715 -0.96928042 4.5074177 12814431
-5.8525462 -1.0904404 5.0708447 12683356
-5.1579552 -0.96928042 4.5074177 12485978
-5.1136475 -0.96928042 4.5074177 12749408
-5.0693393 -0.96928042 4.5074177 12814172
-4.1113887 -0.79304755 3.687887 12748379
-4.0751367 -0.79304755 3.687887 13011551
-4.0388846 -0.79304755 3.687887 12879969
-4.4028959 -0.87235236 4.0566759 12880222
-4.3630185 -0.87235236 4.0566759 13011550
-4.3231416 -0.87235236 4.0566759 12683098
-4.2832642 -0.87235236 4.0566759 12814942
-4.2433867 -0.87235236 4.0566759 12945245
-3.821372 -0.79304755 3.687887 12549458
-3.78512 -0.79304755 3.687887 10249019
-3.7488678 -0.79304755 3.687887 9921858
-4.0838776 -0.87235236 4.0566759 9724738
-4.0440001 -0.87235236 4.0566759 9330240
-4.0041227 -0.87235236 4.0566759 9395008
-3.9642456 -0.87235236 4.0566759 9986882
-3.9243684 -0.87235236 4.0566759 12417104
-3.884491 -0.87235236 4.0566759 12418898
-3.2038445 -0.72696024 3.380563 12222037
-2.9267204 -0.6710403 3.1205199 12680787
-2.5099058 -0.58156818 2.7044504 12484437
-2.483321 -0.58156818 2.7044504 12418901
-1.6750474 -0.39652377 1.8439435 12287057
-1.5848813 -0.37928361 1.763772 12025427
-1.502229 -0.36348012 1.6902815 12024915
-1.4261889 -0.34894094 1.6226703 12024658
-1.3559982 -0.33552015 1.5602599 12353621
-1.0892868 -0.2726101 1.2677112 11828819
-0.88354886 -0.22368009 1.0401733 11959377
-0.79208446 -0.20287263 0.94341296 11893328
-0.73175776 -0.1896418 0.88188601 12090193
-0.67881811 -0.17803109 0.82789302 12288082
-0.6319868 -0.16776007 0.78012997 11828047
-0.61253846 -0.16459477 0.76541048 12090449
-0.52566832 -0.14300857 0.66502881 12089934
-0.45894194 -0.12642787 0.587924 11893070
-0.4403975 -0.12286653 0.57136279 12155474
-0.43478096 -0.12286653 0.57136279 12024403
-0.43529537 -0.12462176 0.57952511 12024656
-0.43582466 -0.12642787 0.587924 11696463
-0.43004534 -0.12642787 0.587924 10971973
-0.42426601 -0.12642787 0.587924 8804409
-0.41848668 -0.12642787 0.587924 6175268
-0.42502701 -0.13020185 0.605474 3808273
-0.42542478 -0.13217458 0.61464781 2494737
-0.41938275 -0.13217458 0.61464781 1509643
-0.40118366 -0.12828711 0.59656996 1444110
-0.38959008 -0.12642787 0.587924 1575439
-0.38381079 -0.12642787 0.587924 1444110
-0.38359076 -0.12828711 0.59656996 1246730
-0.38336414 -0.13020185 0.605474 1246731
-0.38313067 -0.13217458 0.61464781 786953
-0.37708864 -0.13217458 0.61464781 786438
-0.37104663 -0.13217458 0.61464781 786950
-0.35955682 -0.13020185 0.605474 852743
-0.3589626 -0.13217458 0.61464781 917766
-0.34765315 -0.13020185 0.605474 918282
-0.34687856 -0.13217458 0.61464781 917766
-0.33574948 -0.13020185 0.605474 983816
-0.32979763 -0.13020185 0.605474 721670
-0.3238458 -0.13020185 0.605474 786953
-0.31321904 -0.12828711 0.59656996 918026
-0.30735472 -0.12828711 0.59656996 918536
-0.31062648 -0.13217458 0.61464781 852231
-0.30458447 -0.13217458 0.61464781 852489
-0.29854244 -0.13217458 0.61464781 1049098
-0.29250044 -0.13217458 0.61464781 721160
-0.29086548 -0.13420805 0.62410396 786950
-0.28473052 -0.13420805 0.62410396 917766
-0.28294858 -0.13630505 0.63385558 918026
-0.27671778 -0.13630505 0.63385558 852489
-0.27048695 -0.13630505 0.63385558 786694
-0.26425612 -0.13630505 0.63385558 786696
-0.25802529 -0.13630505 0.63385558 721160
-0.25579119 -0.13846862 0.64391679 786696
-0.24946146 -0.13846862 0.64391679 917766
-0.24313173 -0.13846862 0.64391679 917512
-0.24062139 -0.14070199 0.65430254 1115402
-0.23418957 -0.14070199 0.65430254 852743
-0.23534966 -0.14539205 0.67611259 1049353
-0.23658976 -0.15040557 0.69942683 1180937
-0.23374446 -0.15304427 0.71169752 918792
-0.23499382 -0.15860951 0.73757738 1641229
-0.23196089 -0.16154674 0.75123626 1772044
-0.22881347 -0.16459477 0.76541048 3085587
-0.22554503 -0.16776007 0.78012997 11236948
-0.23121569 -0.17803109 0.82789302 13010004
-0.22772489 -0.18174006 0.84514076 13601110
-0.23936415 -0.19826189 0.92197174 13601112
-0.24715243 -0.21276887 0.98943311 13075545
0 0 0 12945242
0 0 0 12878164
0 0 0 12286541
0 0 0 12484176
0 0 0 11892556
0 0 0 11958609
0 0 0 11826508
0 0 0 11433035
-0.54535764 -0.72696024 3.380563 11497805
-0.51212656 -0.72696024 3.380563 11301451
-0.57467461 -0.87235236 4.0566759 11170123
-0.59421921 -0.96928042 4.5074177 11235914
-0.54991114 -0.96928042 4.5074177 11499342
-0.50560302 -0.96928042 4.5074177 11564106
-0.46129489 -0.96928042 4.5074177 12024658
-0.41698676 -0.96928042 4.5074177 12155727
-0.37267864 -0.96928042 4.5074177 12484947
-0.32837051 -0.96928042 4.5074177 12944467
-0.28406242 -0.96928042 4.5074177 13141847
-0.23975429 -0.96928042 4.5074177 13667418
-0.21987693 -1.0904404 5.0708447 13798234
-0.1700303 -1.0904404 5.0708447 13733978
-0.12018367 -1.0904404 5.0708447 14192218
-0.070337035 -1.0904404 5.0708447 14324828
-0.020490404 -1.0904404 5.0708447 14455901
0.029356226 -1.0904404 5.0708447 14586976
0.079202853 -1.0904404 5.0708447 14850146
0.12904948 -1.0904404 5.0708447 14455901
0.17889611 -1.0904404 5.0708447 14324833
0.2033269 -0.96928042 4.5074177 14325087
0.24763502 -0.96928042 4.5074177 14390110
0.29194313 -0.96928042 4.5074177 14062685
0.33625126 -0.96928042 4.5074177 14128224
0.38055938 -0.96928042 4.5074177 13995868
0.4779759 -1.0904404 5.0708447 14258524
0.52782255 -1.0904404 5.0708447 13733468
0.57766914 -1.0904404 5.0708447 13470555
0.62751579 -1.0904404 5.0708447 13207126
0.67736244 -1.0904404 5.0708447 13469528
0.64640808 -0.96928042 4.5074177 13075543
0.69071621 -0.96928042 4.5074177 12878164
0.66152191 -0.87235236 4.0566759 12944981
0.70139921 -0.87235236 4.0566759 12681816
0.82364053 -0.96928042 4.5074177 12746834
0.86794865 -0.96928042 4.5074177 12615766
0.82103109 -0.87235236 4.0566759 12748117
0.66223723 -0.6710403 3.1205199 12681814
0.6929121 -0.6710403 3.1205199 12615767
0.72358692 -0.6710403 3.1205199 12944729
0.75426179 -0.6710403 3.1205199 12944473
0.78493661 -0.6710403 3.1205199 13272921
0.81561148 -0.6710403 3.1205199 12945242
0.84628636 -0.6710403 3.1205199 13208156
0.76003295 -0.58156818 2.7044504 13339230
0.78661782 -0.58156818 2.7044504 13142106
0.81320274 -0.58156818 2.7044504 13404510
0.89977241 -0.6231088 2.8976254 13602141
0.92825621 -0.6231088 2.8976254 13536348
0.95674002 -0.6231088 2.8976254 13536094
0.81136078 -0.51314843 2.3862798 13798239
0.78843927 -0.48464021 2.2537088 13799520
0.81059337 -0.48464021 2.2537088 13864541
0.8327474 -0.48464021 2.2537088 13930850
0.90518975 -0.51314843 2.3862798 13997158
0.98668742 -0.5452202 2.5354223 14455392
1.1561265 -0.6231088 2.8976254 14193247
0.97556144 -0.51314843 2.3862798 13995872
0.84916592 -0.43617618 2.028338 14128231
0.86910456 -0.43617618 2.028338 14062433
1.0459331 -0.51314843 2.3862798 13996898
1.3984337 -0.6710403 3.1205199 14062689
1.4291085 -0.6710403 3.1205199 14587235
1.4597833 -0.6710403 3.1205199 14258781
1.4904583 -0.6710403 3.1205199 14194018
1.5211331 -0.6710403 3.1205199 14391142
1.5518079 -0.6710403 3.1205199 14128228
1.4694482 -0.6231088 2.8976254 14324068
1.497932 -0.6231088 2.8976254 14062685
1.5264157 -0.6231088 2.8976254 14260064
1.6745073 -0.6710403 3.1205199 14324578
1.7051822 -0.6710403 3.1205199 13864802
1.735857 -0.6710403 3.1205199 14127204
1.7665318 -0.6710403 3.1205199 14192480
1.7972068 -0.6710403 3.1205199 13995872
1.9802049 -0.72696024 3.380563 14126946
2.6845815 -0.96928042 4.5074177 13931105
3.0700006 -1.0904404 5.0708447 13667420
3.5655398 -1.2462176 5.7952509 13865313
2.8175058 -0.96928042 4.5074177 13602658
2.3414841 -0.79304755 3.687887 13799009
2.9061222 -0.96928042 4.5074177 13536867
2.9504302 -0.96928042 4.5074177 13667425
2.4502404 -0.79304755 3.687887 13536097
2.2792847 -0.72696024 3.380563 13273694
2.3125157 -0.72696024 3.380563 13601889
2.1653049 -0.6710403 3.1205199 13076574
2.1959798 -0.6710403 3.1205199 13339487
2.412209 -0.72696024 3.380563 13208157
2.4454401 -0.72696024 3.380563 12944216
2.2880044 -0.6710403 3.1205199 13141341
2.5119023 -0.72696024 3.380563 12616284
0 0 0 12551004
7.7350936 -2.1808808 10.141689 12551515
7.8347869 -2.1808808 10.141689 12747613
2.6448267 -0.72696024 3.380563 12288600
2.6780577 -0.72696024 3.380563 12222807
2.5027282 -0.6710403 3.1205199 12222553
2.5334032 -0.6710403 3.1205199 12157016
2.777751 -0.72696024 3.380563 12157019
3.0665259 -0.79304755 3.687887 11959642
3.102778 -0.79304755 3.687887 11960156
3.1390302 -0.79304755 3.687887 11893847
2.9106753 -0.72696024 3.380563 11762261
2.7174523 -0.6710403 3.1205199 12025176
2.748127 -0.6710403 3.1205199 11564883
2.7788019 -0.6710403 3.1205199 11696727
2.6087997 -0.6231088 2.8976254 11761749
2.6372836 -0.6231088 2.8976254 11629908
3.1100619 -0.72696024 3.380563 11172181
3.1432929 -0.72696024 3.380563 11564886
3.1765239 -0.72696024 3.380563 11432791
3.5015512 -0.79304755 3.687887 11498839
7.7831674 -1.7447047 8.1133518 11235922
7.8629222 -1.7447047 8.1133518 11368534
4.4125981 -0.96928042 4.5074177 11040083
4.4569063 -0.96928042 4.5074177 10843476
4.5012145 -0.96928042 4.5074177 10843476
0 0 0 10973264
0 0 0 10908243
0 0 0 10907984
6.0151453 -1.2462176 5.7952509 10710094
5.3130989 -1.0904404 5.0708447 10907219
6.1290808 -1.2462176 5.7952509 10645844
8.6604681 -1.7447047 8.1133518 10645841
8.7402229 -1.7447047 8.1133518 10645843
8.8199778 -1.7447047 8.1133518 10514002
11.124664 -2.1808808 10.141689 10448465
11.224358 -2.1808808 10.141689 10120012
11.324051 -2.1808808 10.141689 10382926
11.423744 -2.1808808 10.141689 10382926
9.21875 -1.7447047 8.1133518 10381901
9.2985048 -1.7447047 8.1133518 10382161
7.8152161 -1.4539205 6.761126 10185552
5.2544522 -0.96928042 4.5074177 10316366
3.9740701 -0.72696024 3.380563 10381391
4.0073013 -0.72696024 3.380563 10250577
4.4078536 -0.79304755 3.687887 9856335
4.8885164 -0.87235236 4.0566759 9922127
4.9283938 -0.87235236 4.0566759 10054226
0 0 0 10054737
0 0 0 10053968
0 0 0 10250323
0 0 0 9791571
0 0 0 9988691
0 0 0 9987662
0 0 0 10250319
0 0 0 10053710
0 0 0 12287828
0 0 0 12682076
-3.4582472 -0.594625 2.8976254 12288603
-4.3651533 -0.75679547 3.687887 12289116
-5.2908797 -0.9249723 4.5074177 12026457
-5.2465715 -0.9249723 4.5074177 12355422
-5.8525462 -1.0405937 5.0708447 12224349
-5.1579552 -0.9249723 4.5074177 12420443
-5.1136475 -0.9249723 4.5074177 12748899
-5.0693393 -0.9249723 4.5074177 12945249
-4.5225282 -0.83247507 4.0566759 12879969
-4.4826508 -0.83247507 4.0566759 12551519
-4.4427733 -0.83247507 4.0566759 12944991
-4.4028959 -0.83247507 4.0566759 12813404
-4.3630185 -0.83247507 4.0566759 12748378
-4.3231416 -0.83247507 4.0566759 13142623
-4.2832642 -0.83247507 4.0566759 13076573
-3.5361555 -0.69372916 3.380563 13142620
-3.821372 -0.75679547 3.687887 12550229
-3.78512 -0.75679547 3.687887 10643264
-4.123755 -0.83247507 4.0566759 9987136
-4.0838776 -0.83247507 4.0566759 9723965
-4.0440001 -0.83247507 4.0566759 9461311
-4.0041227 -0.83247507 4.0566759 9199167
-3.9642456 -0.83247507 4.0566759 9462083
-3.9243684 -0.83247507 4.0566759 10775626
-3.884491 -0.83247507 4.0566759 12222035
-3.4951031 -0.75679547 3.687887 12419668
-2.9267204 -0.64036542 3.1205199 12287312
-2.8960454 -0.64036542 3.1205199 12091471
-2.483321 -0.55498332 2.7044504 12353623
-2.1677084 -0.4896912 2.3862798 12090449
-1.9185406 -0.43814474 2.1350925 12221519
-1.5675433 -0.36194566 1.763772 12287571
-1.4261889 -0.33299002 1.6226703 12287315
-1.410238 -0.33299002 1.6226703 12155985
-1.2019717 -0.28706035 1.3988537 11828305
-0.93130821 -0.22499324 1.0963988 11828304
-0.79208446 -0.19359884 0.94341296 11959892
-0.7480191 -0.18499444 0.90148348 12156500
-0.66524172 -0.16649501 0.81133515 12155472
-0.6319868 -0.16009136 0.78012997 12287058
-0.62431812 -0.16009136 0.78012997 12484437
-0.52566832 -0.13647132 0.66502881 12089424
-0.48718452 -0.12807308 0.62410396 11827277
-0.44668889 -0.11892501 0.57952511 12221267
-0.44099212 -0.11892501 0.57952511 11893842
-0.44160396 -0.12064855 0.587924 11959120
-0.43582466 -0.12064855 0.587924 11761738
-0.43004534 -0.12064855 0.587924 10774591
-0.43050522 -0.1224228 0.59656996 9987139
-0.42464092 -0.1224228 0.59656996 8937537
-0.42502701 -0.12425 0.605474 4927257
-0.42542478 -0.12613258 0.61464781 1903115
-0.40704799 -0.1224228 0.59656996 1443852
-0.39536941 -0.12064855 0.587924 1443853
-0.38959008 -0.12064855 0.587924 1312524
-0.38381079 -0.12064855 0.587924 1247247
-0.38359076 -0.1224228 0.59656996 1312524
-0.37772644 -0.1224228 0.59656996 984072
-0.37186214 -0.1224228 0.59656996 786694
-0.36599782 -0.1224228 0.59656996 1115147
-0.36550865 -0.12425 0.605474 917768
-0.35955682 -0.12425 0.605474 1114634
-0.35360497 -0.12425 0.605474 721673
-0.34765315 -0.12425 0.605474 1049098
-0.3417013 -0.12425 0.605474 590600
-0.33574948 -0.12425 0.605474 721674
-0.32979763 -0.12425 0.605474 721670
-0.3238458 -0.12425 0.605474 918281
-0.31321904 -0.1224228 0.59656996 917512
-0.30290031 -0.12064855 0.587924 786696
-0.30149043 -0.1224228 0.59656996 655879
-0.30458447 -0.12613258 0.61464781 721157
-0.29854244 -0.12613258 0.61464781 918282
-0.29250044 -0.12613258 0.61464781 852489
-0.2864584 -0.12613258 0.61464781 918023
-0.28473052 -0.12807308 0.62410396 852230
-0.27859554 -0.12807308 0.62410396 720901
-0.27246058 -0.12807308 0.62410396 786950
-0.26632559 -0.12807308 0.62410396 852489
-0.26425612 -0.13007422 0.63385558 459013
-0.25802529 -0.13007422 0.63385558 852743
-0.25579119 -0.13213889 0.64391679 983559
-0.24946146 -0.13213889 0.64391679 983559
-0.24313173 -0.13213889 0.64391679 655366
-0.236802 -0.13213889 0.64391679 786439
-0.23418957 -0.13427016 0.65430254 1049354
-0.22775774 -0.13427016 0.65430254 918535
-0.22870344 -0.13874583 0.67611259 852486
-0.22971436 -0.14353018 0.69942683 1115145
-0.23499382 -0.1513591 0.73757738 1313036
-0.23196089 -0.15416205 0.75123626 1705995
-0.22881347 -0.15707076 0.76541048 2297870
-0.22554503 -0.16009136 0.78012997 9726039
-0.2221484 -0.16323039 0.79542661 12878161
-0.22307746 -0.16989286 0.82789302 13601880
-0.22408557 -0.17712234 0.86312246 13404503
-0.22518331 -0.18499444 0.90148348 13535321
-0.23742625 -0.20304269 0.98943311 12813141
-0.2523163 -0.22499324 1.0963988 12681812
-0.27081606 -0.25226516 1.2292956 12944212
0 0 0 12549455
0 0 0 12287313
0 0 0 12221264
0 0 0 12023886
0 0 0 11564364
-0.54535764 -0.69372916 3.380563 11694923
-0.51212656 -0.69372916 3.380563 11301962
-0.57467461 -0.83247507 4.0566759 11170121
-0.59421921 -0.9249723 4.5074177 11498828
-0.54991114 -0.9249723 4.5074177 11761229
-0.50560302 -0.9249723 4.5074177 11957839
-0.51895672 -1.0405937 5.0708447 12287059
-0.41698676 -0.9249723 4.5074177 12615763
-0.37267864 -0.9249723 4.5074177 12878677
-0.29553348 -0.83247507 4.0566759 12944984
-0.28406242 -0.9249723 4.5074177 13076824
-0.26972356 -1.0405937 5.0708447 13535834
-0.21987693 -1.0405937 5.0708447 13864538
-0.1700303 -1.0405937 5.0708447 14127708
-0.13735276 -1.18925 5.7952509 14455133
-0.080385178 -1.18925 5.7952509 14588000
-0.020490404 -1.0405937 5.0708447 15047009
0.029356226 -1.0405937 5.0708447 14587231
0.079202853 -1.0405937 5.0708447 14980959
0.12904948 -1.0405937 5.0708447 14587230
0.17889611 -1.0405937 5.0708447 14717790
0.22874275 -1.0405937 5.0708447 14587489
0.24763502 -0.9249723 4.5074177 14456419
0.29194313 -0.9249723 4.5074177 14390878
0.33625126 -0.9249723 4.5074177 14259040
0.38055938 -0.9249723 4.5074177 13995868
0.4779759 -1.0405937 5.0708447 13865311
0.52782255 -1.0405937 5.0708447 13667675
0.77022552 -1.3874583 6.761126 13928792
0.83668768 -1.3874583 6.761126 13272922
0.67736244 -1.0405937 5.0708447 12813402
0.64640808 -0.9249723 4.5074177 13009752
0.69071621 -0.9249723 4.5074177 12747096
0.66152191 -0.83247507 4.0566759 12681303
0.70139921 -0.83247507 4.0566759 12747096
0.82364053 -0.9249723 4.5074177 12746578
0.86794865 -0.9249723 4.5074177 12483410
0.74639189 -0.75679547 3.687887 12812630
0.66223723 -0.64036542 3.1205199 12614994
0.6929121 -0.64036542 3.1205199 12681558
0.72358692 -0.64036542 3.1205199 12747351
0.75426179 -0.64036542 3.1205199 13010522
0.78493661 -0.64036542 3.1205199 13272661
0.75735348 -0.594625 2.8976254 13208412
0.73344809 -0.55498332 2.7044504 13076826
0.76003295 -0.55498332 2.7044504 13077338
0.78661782 -0.55498332 2.7044504 13274201
0.87128866 -0.594625 2.8976254 13404510
0.89977241 -0.594625 2.8976254 13601884
0.92825621 -0.594625 2.8976254 13536094
0.83714753 -0.52029687 2.5354223 13339485
0.81136078 -0.4896912 2.3862798 13601887
0.83481801 -0.4896912 2.3862798 13930338
0.85827523 -0.4896912 2.3862798 13733987
0.93684077 -0.52029687 2.5354223 14192480
1.0258816 -0.55498332 2.7044504 14061920
0.98668742 -0.52029687 2.5354223 13799005
1.1561265 -0.594625 2.8976254 14324322
0.97556144 -0.4896912 2.3862798 14324322
0.84916592 -0.41623753 2.028338 14587237
0.86910456 -0.41623753 2.028338 14257759
1.0459331 -0.4896912 2.3862798 14455651
1.3984337 -0.64036542 3.1205199 14194021
1.4291085 -0.64036542 3.1205199 14127204
1.4597833 -0.64036542 3.1205199 13930595
1.4904583 -0.64036542 3.1205199 14194019
1.5211331 -0.64036542 3.1205199 14456419
1.5518079 -0.64036542 3.1205199 14258786
1.5824827 -0.64036542 3.1205199 14455650
1.497932 -0.594625 2.8976254 13996640
1.5264157 -0.594625 2.8976254 14194017
1.6745073 -0.64036542 3.1205199 14127458
1.7051822 -0.64036542 3.1205199 14062433
1.735857 -0.64036542 3.1205199 13930849
1.9137428 -0.69372916 3.380563 14128228
1.9469738 -0.69372916 3.380563 13733730
1.9802049 -0.69372916 3.380563 13930592
2.6845815 -0.9249723 4.5074177 13733984
3.0700006 -1.0405937 5.0708447 13667936
3.5655398 -1.18925 5.7952509 13799009
3.1696939 -1.0405937 5.0708447 13667677
2.861814 -0.9249723 4.5074177 13667680
2.61551 -0.83247507 4.0566759 13666911
2.6553872 -0.83247507 4.0566759 13601632
2.4502404 -0.75679547 3.687887 13404255
2.4864924 -0.75679547 3.687887 13535837
2.5227444 -0.75679547 3.687887 13207389
2.3457468 -0.69372916 3.380563 13470307
2.378978 -0.69372916 3.380563 13405027
2.412209 -0.69372916 3.380563 12681814
3.260587 -0.9249723 4.5074177 13076061
0 0 0 12485980
0 0 0 12681820
0 0 0 12877913
0 0 0 12419933
10.446383 -2.7749166 13.522252 12485724
7.9344802 -2.0811875 10.141689 12354652
2.6780577 -0.69372916 3.380563 12026715
2.7112887 -0.69372916 3.380563 12288604
2.7445199 -0.69372916 3.380563 11959894
2.777751 -0.69372916 3.380563 12091225
2.810982 -0.69372916 3.380563 12156250
3.4130561 -0.83247507 4.0566759 11631192
2.8774443 -0.69372916 3.380563 11894106
2.9106753 -0.69372916 3.380563 11827799
2.9439063 -0.69372916 3.380563 11762004
2.9771376 -0.69372916 3.380563 11434583
3.0103686 -0.69372916 3.380563 11236948
2.8094769 -0.64036542 3.1205199 11696468
2.8401515 -0.64036542 3.1205199 11498835
3.1100619 -0.69372916 3.380563 11236950
3.1432929 -0.69372916 3.380563 11236949
3.1765239 -0.69372916 3.380563 11302997
3.5015512 -0.75679547 3.687887 11368277
9.7289591 -2.0811875 10.141689 11170898
9.8286524 -2.0811875 10.141689 11104593
7.9426765 -1.6649501 8.1133518 10841680
13.370718 -2.7749166 13.522252 10974037
0 0 0 10907731
0 0 0 10711380
0 0 0 10645331
0 0 0 10777689
0 0 0 10645331
8.5009594 -1.6649501 8.1133518 10711124
8.5807133 -1.6649501 8.1133518 10711378
8.6604681 -1.6649501 8.1133518 10382159
8.7402229 -1.6649501 8.1133518 10580052
11.024971 -2.0811875 10.141689 10514259
11.124664 -2.0811875 10.141689 10381644
11.224358 -2.0811875 10.141689 10316622
11.324051 -2.0811875 10.141689 10053451
11.423744 -2.0811875 10.141689 10381901
11.523438 -2.0811875 10.141689 10250315
9.2985048 -1.6649501 8.1133518 10119759
7.8152161 -1.3874583 6.761126 10054480
5.9112587 -1.0405937 5.0708447 10119504
4.3353491 -0.75679547 3.687887 10053711
4.0073013 -0.69372916 3.380563 9988943
4.0405321 -0.69372916 3.380563 10120272
4.8885164 -0.83247507 4.0566759 10185552
0 0 0 9922637
0 0 0 10119761
0 0 0 10316370
0 0 0 9790542
0 0 0 9856332
0 0 0 9987146
0 0 0 10053711
0 0 0 10053710
0 0 0 10381389
0 0 0 12288600
0 0 0 12354394
-3.4582472 -0.56614119 2.8976254 12223066
-4.3651533 -0.72054338 3.687887 12420187
-4.7617917 -0.79259777 4.0566759 12485209
-5.2465715 -0.88066417 4.5074177 12485727
-5.2022634 -0.88066417 4.5074177 12420188
-5.1579552 -0.88066417 4.5074177 12617052
-5.1136475 -0.88066417 4.5074177 12420188
-5.0693393 -0.88066417 4.5074177 13010531
-5.0250311 -0.88066417 4.5074177 12749153
-4.9807229 -0.88066417 4.5074177 12617824
-4.4427733 -0.79259777 4.0566759 12749153
-4.4028959 -0.79259777 4.0566759 12749152
-4.3630185 -0.79259777 4.0566759 12814687
-3.9301283 -0.72054338 3.687887 12944989
-3.8938763 -0.72054338 3.687887 13141599
-3.5361555 -0.66049808 3.380563 13076574
-3.821372 -0.72054338 3.687887 12747349
-4.1636324 -0.79259777 4.0566759 10643005
-4.123755 -0.79259777 4.0566759 9987393
-4.0838776 -0.79259777 4.0566759 9658943
-4.0440001 -0.79259777 4.0566759 9461567
-4.0041227 -0.79259777 4.0566759 9264449
-3.9642456 -0.79259777 4.0566759 9329985
-3.5676074 -0.72054338 3.687887 9855812
-3.5313554 -0.72054338 3.687887 11499344
-3.4951031 -0.72054338 3.687887 12221522
-2.9267204 -0.60969055 3.1205199 12287828
-2.8960454 -0.60969055 3.1205199 12156242
-2.8653705 -0.60969055 3.1205199 12287832
-2.4567361 -0.52839845 2.7044504 12222553
-2.2782669 -0.49537358 2.5354223 12025170
-2.1207941 -0.46623394 2.3862798 12025426
-1.697844 -0.37742749 1.9317503 12155985
-1.410238 -0.31703907 1.6226703 12155985
-1.2448992 -0.28307059 1.4488127 12221519
-1.1486135 -0.26419923 1.3522252 12025426
-0.92053056 -0.21421559 1.0963988 11762256
-0.7480191 -0.17613283 0.90148348 12025428
-0.67881811 -0.16175464 0.82789302 11828049
-0.6319868 -0.15242264 0.78012997 11761486
-0.62431812 -0.15242264 0.78012997 12024656
-0.57260299 -0.1415353 0.72440636 12287060
-0.48718452 -0.12193811 0.62410396 12156244
-0.45316261 -0.11486923 0.587924 12221265
-0.44738328 -0.11486923 0.587924 12418898
-0.44160396 -0.11486923 0.587924 12024656
-0.44223383 -0.11655848 0.59656996 12024145
-0.43004534 -0.11486923 0.587924 11433035
-0.43050522 -0.11655848 0.59656996 9460538
-0.43097883 -0.11829817 0.605474 8213043
-0.43146679 -0.12009056 0.61464781 6305307
-0.41291231 -0.11655848 0.59656996 2099719
-0.40704799 -0.11655848 0.59656996 1443853
-0.40118366 -0.11655848 0.59656996 1509903
-0.39531937 -0.11655848 0.59656996 1509647
-0.38945505 -0.11655848 0.59656996 1378317
-0.38359076 -0.11655848 0.59656996 1313037
-0.37772644 -0.11655848 0.59656996 1116174
-0.37186214 -0.11655848 0.59656996 1443854
-0.36599782 -0.11655848 0.59656996 1509646
-0.36550865 -0.11829817 0.605474 1444109
-0.35955682 -0.11829817 0.605474 1049868
-0.35360497 -0.11829817 0.605474 917769
-0.34254059 -0.11655848 0.59656996 1049098
-0.33667627 -0.11655848 0.59656996 984073
-0.33574948 -0.11829817 0.605474 918795
-0.32979763 -0.11829817 0.605474 917512
-0.31908333 -0.11655848 0.59656996 852489
-0.30867961 -0.11486923 0.587924 852489
-0.30290031 -0.11486923 0.587924 720903
-0.30149043 -0.11655848 0.59656996 720903
-0.30003846 -0.11829817 0.605474 917512
-0.29408661 -0.11829817 0.605474 851973
-0.29250044 -0.12009056 0.61464781 852746
-0.2864584 -0.12009056 0.61464781 721162
-0.2804164 -0.12009056 0.61464781 852489
-0.27027926 -0.11829817 0.605474 852489
-0.27246058 -0.12193811 0.62410396 984329
-0.26632559 -0.12193811 0.62410396 2690067
-0.26019064 -0.12193811 0.62410396 3543832
-0.25802529 -0.12384339 0.63385558 3281173
-0.25179446 -0.12384339 0.63385558 1180167
-0.24946146 -0.12580916 0.64391679 917766
-0.24313173 -0.12580916 0.64391679 984072
-0.236802 -0.12580916 0.64391679 917512
-0.23418957 -0.12783834 0.65430254 721416
-0.22775774 -0.12783834 0.65430254 786951
-0.22495422 -0.12993406 0.66502881 1049608
-0.22205722 -0.13209961 0.67611259 1115914
-0.23499382 -0.14410867 0.73757738 1246730
-0.23196089 -0.14677736 0.75123626 1706766
-0.22881347 -0.14954673 0.76541048 4204068
-0.22554503 -0.15242264 0.78012997 10383444
-0.2221484 -0.15541132 0.79542661 13010004
0 0 0 13601880
0 0 0 13929559
-0.24715243 -0.19331652 0.98943311 13667927
-0.23742625 -0.19331652 0.98943311 13206609
-0.2523163 -0.21421559 1.0963988 13338710
-0.27081606 -0.24018112 1.2292956 12681040
0 0 0 12681554
0 0 0 12615763
0 0 0 12352593
0 0 0 12220748
0 0 0 11629899
0 0 0 11695438
-0.51212656 -0.66049808 3.380563 11563594
-0.47889549 -0.66049808 3.380563 11564622
-0.59421921 -0.88066417 4.5074177 11761231
-0.54991114 -0.88066417 4.5074177 11827279
-0.50560302 -0.88066417 4.5074177 12155470
-0.51895672 -0.99074715 5.0708447 12352848
-0.41698676 -0.88066417 4.5074177 12746835
-0.30491886 -0.72054338 3.687887 12878935
-0.29553348 -0.79259777 4.0566759 13206873
-0.28406242 -0.88066417 4.5074177 13535836
-0.26972356 -0.99074715 5.0708447 13798232
-0.21987693 -0.99074715 5.0708447 13995864
-0.1700303 -0.99074715 5.0708447 14127195
-0.13735276 -1.1322824 5.7952509 14653532
-0.080385178 -1.1322824 5.7952509 14521694
-0.023417605 -1.1322824 5.7952509 14916450
0.029356226 -0.99074715 5.0708447 14719070
0.079202853 -0.99074715 5.0708447 14784605
0.12904948 -0.99074715 5.0708447 14784866
0.20445271 -1.1322824 5.7952509 14456673
0.26142028 -1.1322824 5.7952509 14588257
0.27858937 -0.99074715 5.0708447 14783585
0.29194313 -0.88066417 4.5074177 14390880
0.33625126 -0.88066417 4.5074177 14586974
0.38055938 -0.88066417 4.5074177 13865563
0.4779759 -0.99074715 5.0708447 13930329
0.70376337 -1.3209962 6.761126 13405532
0.77022552 -1.3209962 6.761126 13470044
0.83668768 -1.3209962 6.761126 13273692
0.67736244 -0.99074715 5.0708447 13272665
0.72720903 -0.99074715 5.0708447 12943959
0.77705568 -0.99074715 5.0708447 12550484
0.66152191 -0.79259777 4.0566759 12156244
0.70139921 -0.79259777 4.0566759 12222035
0.7412765 -0.79259777 4.0566759 12024656
0.7811538 -0.79259777 4.0566759 12025426
