# .PCD v0.7 - Point Cloud Data file format
VERSION 0.7
FIELDS x y z rgb
SIZE 4 4 4 4
TYPE F F F U
COUNT 1 1 1 1
WIDTH 1336
HEIGHT 1
VIEWPOINT 0 0 0 1 0 0 0
POINTS 1336
DATA ascii
-0.074597158 0.033497524 0.66502881 720905
-0.068059899 0.033497524 0.66502881 590600
-0.062548012 0.034055814 0.67611259 720903
-0.055901792 0.034055814 0.67611259 720905
-0.049255572 0.034055814 0.67611259 720903
-0.042609356 0.034055814 0.67611259 721417
-0.035373583 0.033497524 0.66502881 655625
-0.028836319 0.033497524 0.66502881 721415
-0.022670705 0.034055814 0.67611259 786953
-0.016296091 0.034633033 0.68757218 1115404
-0.0093782712 0.034055814 0.67611259 1181454
-0.0027320539 0.034055814 0.67611259 918282
0.0039141634 0.034055814 0.67611259 1115915
0.011116191 0.03584823 0.71169752 1050122
0 0 0 1312524
0 0 0 1378314
0 0 0 1575436
0 0 0 1772045
0 0 0 1575438
0 0 0 1640461
0 0 0 1575696
0 0 0 1312267
0 0 0 1246731
0 0 0 1049352
0 0 0 1049352
0 0 0 853000
0.72720903 0.25541863 5.0708447 656135
0.69071621 0.22703879 4.5074177 918024
0.73502433 0.22703879 4.5074177 917766
0.77933246 0.22703879 4.5074177 984074
0.92659557 0.25541863 5.0708447 1246988
0.86794865 0.22703879 4.5074177 1443853
0.91225678 0.22703879 4.5074177 1773074
0.9565649 0.22703879 4.5074177 1772816
1.125982 0.25541863 5.0708447 1903890
1.1758287 0.25541863 5.0708447 1838609
1.2256753 0.25541863 5.0708447 1772302
1.1337974 0.22703879 4.5074177 1641231
1.1781055 0.22703879 4.5074177 1904402
1.3752153 0.25541863 5.0708447 1969424
1.4250619 0.25541863 5.0708447 1904399
1.3110299 0.22703879 4.5074177 2035731
1.355338 0.22703879 4.5074177 4532511
1.399646 0.22703879 4.5074177 7425081
1.4439542 0.22703879 4.5074177 8936261
1.6742951 0.25541863 5.0708447 9726028
1.5325705 0.22703879 4.5074177 10579536
1.4191908 0.2043349 4.0566759 11038800
1.12236 0.1571807 3.1205199 12025177
1.0706751 0.14595349 2.8976254 12221785
1.0991589 0.14595349 2.8976254 12484442
1.1276428 0.14595349 2.8976254 9659481
1.1561265 0.14595349 2.8976254 1114892
1.1846102 0.14595349 2.8976254 984329
1.1322211 0.13622326 2.7044504 984329
1.158806 0.13622326 2.7044504 852489
1.111304 0.12770931 2.5354223 721673
1.1362273 0.12770931 2.5354223 984075
1.1611506 0.12770931 2.5354223 983305
1.1860739 0.12770931 2.5354223 1115661
1.1397622 0.120197 2.3862798 918282
1.0985961 0.11351939 2.2537088 1313041
1.1207502 0.11351939 2.2537088 1247500
1.1429043 0.11351939 2.2537088 1379087
1.1037394 0.10754468 2.1350925 1116686
1.0684911 0.10216745 2.028338 1378317
1.0884298 0.10216745 2.028338 1312270
1.1667036 0.10754468 2.1350925 1575439
1.1876916 0.10754468 2.1350925 1640459
1.2086797 0.10754468 2.1350925 1444108
1.2296677 0.10754468 2.1350925 1115915
1.3201367 0.11351939 2.2537088 1312524
1.3422908 0.11351939 2.2537088 1115914
1.3644449 0.11351939 2.2537088 1115915
1.3865988 0.11351939 2.2537088 1246731
1.4087529 0.11351939 2.2537088 1050122
1.430907 0.11351939 2.2537088 590344
1.4530611 0.11351939 2.2537088 590089
1.4752151 0.11351939 2.2537088 786954
1.4973692 0.11351939 2.2537088 721675
1.4395483 0.10754468 2.1350925 721161
1.3875096 0.10216745 2.028338 721673
1.2794983 0.092879497 1.8439435 721673
1.359416 0.097302333 1.9317503 852746
1.3784052 0.097302333 1.9317503 984588
1.3973943 0.097302333 1.9317503 983818
1.4163835 0.097302333 1.9317503 1115401
1.4353727 0.097302333 1.9317503 1969424
1.5270802 0.10216745 2.028338 1509643
1.5470188 0.10216745 2.028338 918793
1.5669575 0.10216745 2.028338 656135
1.5113295 0.097302333 1.9317503 852746
1.5303187 0.097302333 1.9317503 918536
1.5493079 0.097302333 1.9317503 1180682
1.568297 0.097302333 1.9317503 1642259
1.515137 0.092879497 1.8439435 1838867
1.4665993 0.088841259 1.763772 1838867
1.551389 0.092879497 1.8439435 1378835
1.6442538 0.097302333 1.9317503 918282
1.7464054 0.10216745 2.028338 852489
1.9626044 0.11351939 2.2537088 590086
1.9847585 0.11351939 2.2537088 590089
2.0069125 0.11351939 2.2537088 590089
1.82616 0.10216745 2.028338 786698
1.6782713 0.092879497 1.8439435 655366
1.622641 0.088841259 1.763772 458757
1.6399789 0.088841259 1.763772 524294
1.6573169 0.088841259 1.763772 524551
1.6048776 0.085139535 1.6902815 721160
1.5566334 0.081733957 1.6226703 655880
1.6381086 0.085139535 1.6902815 459014
1.6547242 0.085139535 1.6902815 524809
1.6713398 0.085139535 1.6902815 786953
1.6204371 0.081733957 1.6226703 786698
1.6363881 0.081733957 1.6226703 786698
1.8776579 0.092879497 1.8439435 721419
1.8957839 0.092879497 1.8439435 721418
2.0050485 0.097302333 1.9317503 786696
2.0240376 0.097302333 1.9317503 1049097
2.0430269 0.097302333 1.9317503 852743
2.2790704 0.10754468 2.1350925 787468
2.5706537 0.120197 2.3862798 917769
0 0 0 852744
0 0 0 787466
0 0 0 918282
5.6620255 0.25541863 5.0708447 852489
5.7118721 0.25541863 5.0708447 983559
5.1215281 0.22703879 4.5074177 984075
5.1658363 0.22703879 4.5074177 1049609
9.3782597 0.4086698 8.1133518 1049352
9.4580145 0.4086698 8.1133518 983560
11.922211 0.51083726 10.141689 984075
4.3716011 0.18575899 3.687887 656134
9.697278 0.4086698 8.1133518 984075
9.7770329 0.4086698 8.1133518 852489
0 0 0 786696
0 0 0 852489
0 0 0 918281
0 0 0 852743
0 0 0 984329
0 0 0 984329
0 0 0 918536
0 0 0 1378564
0 0 0 5915699
0 0 0 853007
0 0 0 1641755
-4.8415465 0.24421221 4.0566759 6637384
-4.8016691 0.24421221 4.0566759 9924189
-4.7617917 0.24421221 4.0566759 10448976
-4.2926493 0.22201109 3.687887 10513999
-4.2563972 0.22201109 3.687887 10841679
-3.8684664 0.20351017 3.380563 10842194
-3.5402174 0.18785554 3.1205199 10907987
-3.8020041 0.20351017 3.380563 10645585
-3.7687731 0.20351017 3.380563 10973520
-4.0751367 0.22201109 3.687887 10973778
-4.0388846 0.22201109 3.687887 10776915
-3.6690798 0.20351017 3.380563 10908757
-3.6358488 0.20351017 3.380563 11040085
-4.3231416 0.24421221 4.0566759 11170901
-4.2832642 0.24421221 4.0566759 11236438
-4.2433867 0.24421221 4.0566759 11040083
-3.2334688 0.18785554 3.1205199 10908236
-3.2027938 0.18785554 3.1205199 9920572
-3.7488678 0.22201109 3.687887 7225891
-3.7126157 0.22201109 3.687887 4662803
-3.6763637 0.22201109 3.687887 1311746
-4.0041227 0.24421221 4.0566759 1050122
-3.9642456 0.24421221 4.0566759 1838609
-3.9243684 0.24421221 4.0566759 3283482
-3.5313554 0.22201109 3.687887 3677206
-3.4951031 0.22201109 3.687887 3611156
-3.8047364 0.24421221 4.0566759 3809048
-3.7648592 0.24421221 4.0566759 3611669
-3.7249818 0.24421221 4.0566759 3743257
-4.0945606 0.2713469 4.5074177 3808535
-4.0502524 0.2713469 4.5074177 3676949
-4.0059443 0.2713469 4.5074177 3808537
-3.9616363 0.2713469 4.5074177 3873560
-4.4069939 0.30526525 5.0708447 3808793
-4.3571472 0.30526525 5.0708447 3611671
-4.3073006 0.30526525 5.0708447 3480085
-4.2574539 0.30526525 5.0708447 2756880
-4.2076073 0.30526525 5.0708447 1642256
-4.1577606 0.30526525 5.0708447 2363150
-3.6514795 0.2713469 4.5074177 2626323
-3.6071713 0.2713469 4.5074177 2232079
-3.5628631 0.2713469 4.5074177 1574410
-3.5185549 0.2713469 4.5074177 1181195
-3.474247 0.2713469 4.5074177 1049866
-3.4299388 0.2713469 4.5074177 786696
-3.3856306 0.2713469 4.5074177 655625
-3.3413227 0.2713469 4.5074177 852744
-3.2970145 0.2713469 4.5074177 1114889
-3.6592944 0.30526525 5.0708447 1049868
-3.6094477 0.30526525 5.0708447 852232
-3.5596011 0.30526525 5.0708447 918282
-4.011148 0.34887457 5.7952509 918537
-3.9541805 0.34887457 5.7952509 918536
-3.8972127 0.34887457 5.7952509 1049351
-3.3602147 0.30526525 5.0708447 655370
-3.3103681 0.30526525 5.0708447 1050638
-3.2605214 0.30526525 5.0708447 3348504
-3.2106748 0.30526525 5.0708447 3676951
-3.1608281 0.30526525 5.0708447 3807250
-3.1109815 0.30526525 5.0708447 3741456
-3.0611348 0.30526525 5.0708447 3479051
-0.39492306 0.040034786 0.66502881 3215882
-0.3883858 0.040034786 0.66502881 2690570
-0.38184851 0.040034786 0.66502881 2427913
-0.38156644 0.040702034 0.67611259 1115399
-0.38127482 0.041391902 0.68757218 1049098
-0.38765687 0.042844247 0.71169752 983558
-0.39450303 0.044402216 0.73757738 983560
-0.38725263 0.044402216 0.73757738 852491
-0.36666882 0.042844247 0.71169752 1971225
-0.3306669 0.039389066 0.65430254 2692632
-0.32423508 0.039389066 0.65430254 2035217
-0.31780326 0.039389066 0.65430254 1509903
-0.31137145 0.039389066 0.65430254 1312011
-0.30009931 0.038763843 0.64391679 984330
-0.29376957 0.038763843 0.64391679 3284513
-0.31769669 0.042844247 0.71169752 9135959
-0.36142731 0.049839225 0.82789302 10776651
-0.35328907 0.049839225 0.82789302 10446655
-0.29159296 0.042105552 0.69942683 983561
-0.28471756 0.042105552 0.69942683 918282
-0.27784213 0.042105552 0.69942683 1312524
-0.27096674 0.042105552 0.69942683 1706510
-0.26409134 0.042105552 0.69942683 1640718
-0.25721595 0.042105552 0.69942683 2429206
-0.25034055 0.042105552 0.69942683 2429206
-0.2477365 0.042844247 0.71169752 2363412
-0.23658976 0.042105552 0.69942683 2364181
-0.22971436 0.042105552 0.69942683 2166803
-0.22283897 0.042105552 0.69942683 2166035
-0.21230319 0.041391902 0.68757218 2034706
-0.20554432 0.041391902 0.68757218 2362899
-0.19878545 0.041391902 0.68757218 2561304
-0.18882613 0.040702034 0.67611259 1706765
-0.18217991 0.040702034 0.67611259 655624
-0.1755337 0.040702034 0.67611259 393222
-0.16888748 0.040702034 0.67611259 393220
-0.15958159 0.040034786 0.66502881 524296
-0.15304431 0.040034786 0.66502881 393223
-0.14414404 0.039389066 0.65430254 590348
-0.13340871 0.038158156 0.63385558 786698
-0.1252213 0.03757111 0.62410396 721673
-0.11728198 0.037001848 0.61464781 1049868
-0.10957967 0.036449581 0.605474 590089
-0.10362784 0.036449581 0.605474 524294
-0.099155933 0.037001848 0.61464781 458759
-0.093113922 0.037001848 0.61464781 458762
-0.087071903 0.037001848 0.61464781 590087
-0.083562076 0.038158156 0.63385558 721675
-0.079825804 0.039389066 0.65430254 851975
-0.074597158 0.040034786 0.66502881 655880
-0.068059899 0.040034786 0.66502881 524809
0 0 0 655366
-0.068451174 0.049839225 0.82789302 524294
-0.060312953 0.049839225 0.82789302 655880
-0.043331552 0.041391902 0.68757218 917767
-0.035373583 0.040034786 0.66502881 590088
-0.028836319 0.040034786 0.66502881 721160
-0.022299055 0.040034786 0.66502881 655623
-0.016024489 0.040702034 0.67611259 983816
-0.0095372256 0.041391902 0.68757218 984072
-0.0027783602 0.041391902 0.68757218 852488
0.004120172 0.042844247 0.71169752 786950
0.011314694 0.043609321 0.72440636 1378059
0 0 0 1443852
0 0 0 1378316
0 0 0 1509645
0 0 0 1641231
0 0 0 1575438
0 0 0 1509645
0 0 0 1378317
0 0 0 1509645
0 0 0 1246731
0 0 0 1180681
0 0 0 1115145
0 0 0 918536
0.64640808 0.2713469 4.5074177 918535
0.62164456 0.24421221 4.0566759 786696
0.66152191 0.24421221 4.0566759 721160
0.70139921 0.24421221 4.0566759 655878
0.7412765 0.24421221 4.0566759 721417
0.60088754 0.18785554 3.1205199 851976
0.63156235 0.18785554 3.1205199 786695
0.78264397 0.22201109 3.687887 2298903
1.000873 0.2713469 4.5074177 3874335
1.1758287 0.30526525 5.0708447 3677468
1.2256753 0.30526525 5.0708447 3217174
1.1337974 0.2713469 4.5074177 3217687
1.1781055 0.2713469 4.5074177 3808540
0 0 0 3940124
0 0 0 4203037
1.1799269 0.24421221 4.0566759 4136987
1.2198042 0.24421221 4.0566759 4268568
1.2596815 0.24421221 4.0566759 7096374
1.4439542 0.2713469 4.5074177 9002565
1.3394361 0.24421221 4.0566759 9987658
1.3793133 0.24421221 4.0566759 10513229
1.2901733 0.22201109 3.687887 11039313
1.12236 0.18785554 3.1205199 11367764
1.1530348 0.18785554 3.1205199 12024664
1.0991589 0.17443728 2.8976254 12156249
1.1276428 0.17443728 2.8976254 9790553
1.1561265 0.17443728 2.8976254 1180942
1.1846102 0.17443728 2.8976254 853000
1.1322211 0.16280814 2.7044504 787464
1.0863807 0.15263262 2.5354223 985099
1.111304 0.15263262 2.5354223 2034702
1.0693904 0.14365424 2.3862798 1115143
0.97781104 0.12853274 2.1350925 1049351
0.99879909 0.12853274 2.1350925 1049352
0.96879786 0.12210611 2.028338 918536
0.98873651 0.12210611 2.028338 852489
1.0617633 0.12853274 2.1350925 852743
1.0827513 0.12853274 2.1350925 787720
1.1037394 0.12853274 2.1350925 721675
1.1247275 0.12853274 2.1350925 656393
1.0884298 0.12210611 2.028338 1049868
1.1083684 0.12210611 2.028338 787466
1.1876916 0.12853274 2.1350925 786698
1.2086797 0.12853274 2.1350925 852489
1.2296677 0.12853274 2.1350925 852489
1.2506558 0.12853274 2.1350925 984075
1.2716439 0.12853274 2.1350925 786951
1.3644449 0.13567345 2.2537088 787466
1.3865988 0.13567345 2.2537088 918279
1.4087529 0.13567345 2.2537088 1049097
1.430907 0.13567345 2.2537088 852488
1.4530611 0.13567345 2.2537088 590602
1.4752151 0.13567345 2.2537088 721931
1.4185603 0.12853274 2.1350925 852490
1.4395483 0.12853274 2.1350925 656139
1.3214376 0.11629152 1.9317503 722188
1.3404268 0.11629152 1.9317503 722187
1.359416 0.11629152 1.9317503 721929
1.3784052 0.11629152 1.9317503 786696
1.3973943 0.11629152 1.9317503 786696
1.4163835 0.11629152 1.9317503 2758428
1.5071415 0.12210611 2.028338 2561046
1.5270802 0.12210611 2.028338 2166802
1.5470188 0.12210611 2.028338 1904660
1.4923403 0.11629152 1.9317503 1707281
1.5113295 0.11629152 1.9317503 1838611
1.5303187 0.11629152 1.9317503 1903633
1.5493079 0.11629152 1.9317503 2035219
1.4319234 0.10617922 1.763772 2167575
1.4492614 0.10617922 1.763772 2561818
1.4665993 0.10617922 1.763772 1838608
1.551389 0.11100554 1.8439435 1247501
1.5695151 0.11100554 1.8439435 590600
1.6632431 0.11629152 1.9317503 459016
1.9626044 0.13567345 2.2537088 524553
2.1015089 0.14365424 2.3862798 459016
2.1249661 0.14365424 2.3862798 655367
1.7391998 0.11629152 1.9317503 524550
1.6782713 0.11100554 1.8439435 524296
1.622641 0.10617922 1.763772 655881
1.6399789 0.10617922 1.763772 655880
1.6573169 0.10617922 1.763772 655369
1.6048776 0.10175508 1.6902815 655370
1.5566334 0.097684883 1.6226703 590090
1.6381086 0.10175508 1.6902815 721162
1.6547242 0.10175508 1.6902815 786698
1.6713398 0.10175508 1.6902815 655625
1.6879553 0.10175508 1.6902815 720903
1.7786826 0.10617922 1.763772 655880
1.8776579 0.11100554 1.8439435 786696
1.8957839 0.11100554 1.8439435 917512
2.0050485 0.11629152 1.9317503 786696
2.1252398 0.12210611 2.028338 786698
2.2580824 0.12853274 2.1350925 655880
2.2790704 0.12853274 2.1350925 721673
1.6185597 0.090448968 1.5024725 852489
2.0999944 0.11629152 1.9317503 918284
4.9442954 0.2713469 4.5074177 787214
5.6121788 0.30526525 5.0708447 852489
5.0329118 0.2713469 4.5074177 852489
5.07722 0.2713469 4.5074177 852489
6.5848212 0.34887457 5.7952509 787209
9.2985048 0.48842442 8.1133518 852746
11.722824 0.6105305 10.141689 786953
11.822517 0.6105305 10.141689 787209
11.922211 0.6105305 10.141689 655880
9.6175232 0.48842442 8.1133518 721416
12.121597 0.6105305 10.141689 721675
0 0 0 852489
0 0 0 786954
0 0 0 852747
0 0 0 852490
0 0 0 787209
0 0 0 787209
0 0 0 918537
0 0 0 983817
0 0 0 1115396
0 0 0 5521713
0 0 0 919310
0 0 0 1575964
-4.8415465 0.28408951 4.0566759 6506310
-4.8016691 0.28408951 4.0566759 9727066
-4.7617917 0.28408951 4.0566759 10317135
-4.2926493 0.25826317 3.687887 10580308
-4.2563972 0.25826317 3.687887 10515028
-4.2201452 0.25826317 3.687887 10449489
-3.8352351 0.23674124 3.380563 10907985
-3.8020041 0.23674124 3.380563 10711124
-4.5225282 0.28408951 4.0566759 10646101
-4.0751367 0.25826317 3.687887 10646355
-4.0388846 0.25826317 3.687887 10711893
-4.0026326 0.25826317 3.687887 10908758
-3.9663804 0.25826317 3.687887 10842964
-4.3231416 0.28408951 4.0566759 11236950
-4.7591825 0.31565502 4.5074177 11236692
-4.2433867 0.28408951 4.0566759 11171668
-3.2334688 0.2185304 3.1205199 11171407
-3.2027938 0.2185304 3.1205199 9527097
-3.7488678 0.25826317 3.687887 7357991
-3.7126157 0.25826317 3.687887 4663574
-3.6763637 0.25826317 3.687887 1246210
-4.0041227 0.28408951 4.0566759 1181708
-3.9642456 0.28408951 4.0566759 1904145
-3.5676074 0.25826317 3.687887 3152152
-3.2370756 0.23674124 3.380563 3414806
-3.4951031 0.25826317 3.687887 3611927
-3.8047364 0.28408951 4.0566759 3611925
-3.7648592 0.28408951 4.0566759 3480854
-3.7249818 0.28408951 4.0566759 3807767
-3.6851046 0.28408951 4.0566759 3873815
-3.6452272 0.28408951 4.0566759 3480855
-4.0059443 0.31565502 4.5074177 3808019
-3.9616363 0.31565502 4.5074177 3742742
-4.4069939 0.3551119 5.0708447 3742485
-4.3571472 0.3551119 5.0708447 3676694
-4.3073006 0.3551119 5.0708447 3610904
-4.2574539 0.3551119 5.0708447 2691085
-3.7400956 0.31565502 4.5074177 1312523
-4.1577606 0.3551119 5.0708447 2166803
-3.6514795 0.31565502 4.5074177 2493967
-3.6071713 0.31565502 4.5074177 2362379
-3.5628631 0.31565502 4.5074177 2034186
-3.5185549 0.31565502 4.5074177 1902601
-3.474247 0.31565502 4.5074177 1443078
-3.858681 0.3551119 5.0708447 786950
-3.3856306 0.31565502 4.5074177 655366
-3.3413227 0.31565502 4.5074177 721415
-3.2970145 0.31565502 4.5074177 524295
-3.6592944 0.3551119 5.0708447 524551
-3.6094477 0.3551119 5.0708447 721158
-3.5596011 0.3551119 5.0708447 590344
-3.5097547 0.3551119 5.0708447 590086
-3.459908 0.3551119 5.0708447 524551
-3.4100614 0.3551119 5.0708447 655879
-3.3602147 0.3551119 5.0708447 655621
-3.3103681 0.3551119 5.0708447 721414
-3.2605214 0.3551119 5.0708447 852486
-3.2106748 0.3551119 5.0708447 852489
-3.1608281 0.3551119 5.0708447 786696
-3.1109815 0.3551119 5.0708447 786950
-3.0611348 0.3551119 5.0708447 917769
-3.0112882 0.3551119 5.0708447 590089
-0.3883858 0.046572052 0.66502881 655880
-0.39479256 0.048150767 0.68757218 590087
-0.38803369 0.048150767 0.68757218 917512
-0.3878485 0.048980948 0.69942683 786696
-0.40175346 0.051652636 0.73757738 655880
-0.40180868 0.052609168 0.75123626 655880
-0.40959415 0.0546326 0.78012997 720903
-0.40192541 0.0546326 0.78012997 852489
-0.38681787 0.05360179 0.76541048 1181708
-0.32955042 0.046572052 0.66502881 1443856
-0.32301316 0.046572052 0.66502881 984075
-0.33284533 0.048980948 0.69942683 1838100
-0.33168873 0.049840268 0.71169752 7689294
-0.34919778 0.05360179 0.76541048 9856068
-0.36956552 0.057977453 0.82789302 10578245
-0.37680715 0.060444575 0.86312246 10643526
-0.36832264 0.060444575 0.86312246 10380866
-0.33824784 0.0568179 0.81133515 983817
-0.30580774 0.052609168 0.75123626 721932
-0.29842305 0.052609168 0.75123626 853259
-0.29103836 0.052609168 0.75123626 983562
-0.28365368 0.052609168 0.75123626 721161
-0.26640224 0.050730269 0.72440636 393221
-0.25473252 0.049840268 0.71169752 786951
-0.2477365 0.049840268 0.71169752 2035476
-0.24074048 0.049840268 0.71169752 1969940
-0.23374446 0.049840268 0.71169752 2363155
-0.22283897 0.048980948 0.69942683 2232083
-0.21596357 0.048980948 0.69942683 2034706
-0.20908818 0.048980948 0.69942683 2297876
-0.19878545 0.048150767 0.68757218 1049864
-0.18882613 0.04734825 0.67611259 918282
-0.17919336 0.046572052 0.66502881 458757
-0.1726561 0.046572052 0.66502881 458756
-0.16888748 0.04734825 0.67611259 524809
-0.16224127 0.04734825 0.67611259 458762
-0.15304431 0.046572052 0.66502881 459016
-0.13963954 0.044388987 0.63385558 786696
-0.13135627 0.043706078 0.62410396 787466
-0.123324 0.043043863 0.61464781 852489
-0.11553151 0.042401418 0.605474 721673
-0.10957967 0.042401418 0.605474 590089
-0.10362784 0.042401418 0.605474 327685
-0.099155933 0.043043863 0.61464781 458761
-0.093113922 0.043043863 0.61464781 459016
-0.088411473 0.043706078 0.62410396 524807
0 0 0 590087
0 0 0 720903
0 0 0 720905
0 0 0 590089
0 0 0 786698
0 0 0 655880
-0.060312953 0.057977453 0.82789302 590087
-0.052174725 0.057977453 0.82789302 590087
-0.036572687 0.048150767 0.68757218 655624
-0.028836319 0.046572052 0.66502881 721417
-0.022299055 0.046572052 0.66502881 721161
-0.015761793 0.046572052 0.66502881 656138
-0.0095372256 0.048150767 0.68757218 1246475
0 0 0 1180938
0 0 0 1115145
0 0 0 1509645
0 0 0 1443852
0 0 0 1509643
0 0 0 1706252
0 0 0 1444110
0 0 0 1575436
0 0 0 1640459
0 0 0 1509643
0 0 0 1509646
0 0 0 1246731
0 0 0 918282
0 0 0 786953
0 0 0 852488
0.41554803 0.20292108 2.8976254 786950
0.4440318 0.20292108 2.8976254 786951
0.50886297 0.2185304 3.1205199 721160
0.53953785 0.2185304 3.1205199 721158
0.5294832 0.20292108 2.8976254 786439
0.52076918 0.189393 2.7044504 590087
0.54735404 0.189393 2.7044504 918282
0.57393891 0.189393 2.7044504 787209
0.6929121 0.2185304 3.1205199 3941153
1.0451812 0.31565502 4.5074177 4727836
1.0894892 0.31565502 4.5074177 3741970
1.1337974 0.31565502 4.5074177 2955797
1.3253686 0.3551119 5.0708447 4728606
0 0 0 4858650
1.2667217 0.31565502 4.5074177 4399384
0.90763605 0.2185304 3.1205199 4202520
0.93831086 0.2185304 3.1205199 4399897
1.2596815 0.28408951 4.0566759 7162166
1.2995588 0.28408951 4.0566759 9002565
1.3394361 0.28408951 4.0566759 10250829
1.2539212 0.25826317 3.687887 10120014
1.1826588 0.23674124 3.380563 10908244
1.12236 0.2185304 3.1205199 11367251
1.1530348 0.2185304 3.1205199 11565654
1.0991589 0.20292108 2.8976254 12024917
1.2143846 0.2185304 3.1205199 9396563
1.1561265 0.20292108 2.8976254 1180683
1.1846102 0.20292108 2.8976254 984329
1.1322211 0.189393 2.7044504 853261
0.96567178 0.15782751 2.2537088 1049352
0.71123457 0.1136358 1.6226703 786696
0.72718549 0.1136358 1.6226703 786953
0.74313641 0.1136358 1.6226703 852743
0.79071593 0.11837062 1.6902815 852743
0.88072526 0.12913159 1.8439435 852743
0.94165373 0.13528071 1.9317503 720903
0.96064293 0.13528071 1.9317503 983305
1.0286138 0.14204475 2.028338 918282
1.1037394 0.1495208 2.1350925 852489
1.0684911 0.14204475 2.028338 983305
1.1457155 0.1495208 2.1350925 720903
1.1083684 0.14204475 2.028338 983305
1.1876916 0.1495208 2.1350925 787466
1.1482457 0.14204475 2.028338 590087
1.1681844 0.14204475 2.028338 786696
1.188123 0.14204475 2.028338 721158
1.2716439 0.1495208 2.1350925 787208
1.2926319 0.1495208 2.1350925 852743
1.31362 0.1495208 2.1350925 786950
1.334608 0.1495208 2.1350925 1049609
1.3555961 0.1495208 2.1350925 786694
1.3765841 0.1495208 2.1350925 655883
1.3975722 0.1495208 2.1350925 721675
1.4185603 0.1495208 2.1350925 787466
1.4395483 0.1495208 2.1350925 722188
1.3875096 0.14204475 2.028338 722188
1.3404268 0.13528071 1.9317503 655882
1.359416 0.13528071 1.9317503 721675
1.3157504 0.12913159 1.8439435 656395
1.3338765 0.12913159 1.8439435 787209
1.4163835 0.13528071 1.9317503 3808024
1.4353727 0.13528071 1.9317503 5783090
1.5270802 0.14204475 2.028338 6571837
1.5470188 0.14204475 2.028338 6571325
1.4923403 0.13528071 1.9317503 6571841
1.5113295 0.13528071 1.9317503 6506048
1.5303187 0.13528071 1.9317503 6045751
1.4788848 0.12913159 1.8439435 6242360
1.4319234 0.12351717 1.763772 5979186
1.4492614 0.12351717 1.763772 5125679
1.4665993 0.12351717 1.763772 2756884
1.551389 0.12913159 1.8439435 2034189
1.5695151 0.12913159 1.8439435 852489
1.6632431 0.13528071 1.9317503 589834
1.9626044 0.15782751 2.2537088 459014
2.1015089 0.16711147 2.3862798 393222
2.1249661 0.16711147 2.3862798 524552
1.82616 0.14204475 2.028338 590089
1.758189 0.13528071 1.9317503 590089
1.6963974 0.12913159 1.8439435 458762
1.7145234 0.12913159 1.8439435 721417
1.7326494 0.12913159 1.8439435 656140
1.6746548 0.12351717 1.763772 656141
1.6214931 0.11837062 1.6902815 459016
1.6381086 0.11837062 1.6902815 590602
1.5885353 0.1136358 1.6226703 590089
1.6044862 0.1136358 1.6226703 786696
1.6879553 0.11837062 1.6902815 786696
1.8595318 0.12913159 1.8439435 590087
1.8776579 0.12913159 1.8439435 786696
1.8957839 0.12913159 1.8439435 721675
2.0050485 0.13528071 1.9317503 721675
2.1252398 0.14204475 2.028338 786696
2.0430269 0.13528071 1.9317503 786952
1.7320936 0.1136358 1.6226703 786950
1.6185597 0.10521834 1.5024725 786696
1.7639954 0.1136358 1.6226703 655881
2.3420346 0.1495208 2.1350925 918283
4.9886036 0.31565502 4.5074177 918282
2.3840108 0.1495208 2.1350925 918026
4.154089 0.25826317 3.687887 918282
0 0 0 852489
0 0 0 852489
0 0 0 787210
11.822517 0.71022379 10.141689 656141
11.922211 0.71022379 10.141689 721673
12.021904 0.71022379 10.141689 918282
12.121597 0.71022379 10.141689 787720
0 0 0 918284
0 0 0 852491
0 0 0 721418
0 0 0 787211
0 0 0 786696
0 0 0 787720
0 0 0 918282
0 0 0 1114634
0 0 0 1049608
0 0 0 2760478
0 0 0 1049868
0 0 0 1575960
-4.8415465 0.32396683 4.0566759 6046013
-6.0020862 0.40495852 5.0708447 9858648
-4.7617917 0.32396683 4.0566759 10383183
-4.7219143 0.32396683 4.0566759 10251598
-4.2563972 0.29451528 3.687887 10515028
-4.2201452 0.29451528 3.687887 10449489
-4.1838932 0.29451528 3.687887 10514513
-4.5624051 0.32396683 4.0566759 10711121
-4.5225282 0.32396683 4.0566759 10711377
-4.0751367 0.29451528 3.687887 10711377
-4.0388846 0.29451528 3.687887 10842962
-4.0026326 0.29451528 3.687887 10974035
-4.3630185 0.32396683 4.0566759 11105108
-4.3231416 0.32396683 4.0566759 11105106
-4.2832642 0.32396683 4.0566759 11171411
-3.8576241 0.29451528 3.687887 10974545
-3.2334688 0.24920525 3.1205199 10842701
-3.4696932 0.26997232 3.380563 9462078
-4.123755 0.32396683 4.0566759 7160870
-4.0838776 0.32396683 4.0566759 4598295
-4.0440001 0.32396683 4.0566759 1246468
-3.6401114 0.29451528 3.687887 1115916
-3.9642456 0.32396683 4.0566759 1837839
-3.5676074 0.29451528 3.687887 2955285
-3.5313554 0.29451528 3.687887 3414291
-3.8446138 0.32396683 4.0566759 3479572
-3.8047364 0.32396683 4.0566759 3545878
-3.7648592 0.32396683 4.0566759 3414038
-3.7249818 0.32396683 4.0566759 3545363
-3.6851046 0.32396683 4.0566759 3545876
-3.6452272 0.32396683 4.0566759 3546133
-4.0059443 0.35996315 4.5074177 3545622
-3.5654726 0.32396683 4.0566759 3480086
-3.9173281 0.35996315 4.5074177 3348500
-4.3571472 0.40495852 5.0708447 3479573
-4.3073006 0.40495852 5.0708447 3086098
-3.7844038 0.35996315 4.5074177 2690059
-3.7400956 0.35996315 4.5074177 984328
-3.6957874 0.35996315 4.5074177 2101010
-3.6514795 0.35996315 4.5074177 786435
-3.6071713 0.35996315 4.5074177 655366
-3.5628631 0.35996315 4.5074177 720903
-3.5185549 0.35996315 4.5074177 524294
-3.9085276 0.40495852 5.0708447 524294
-3.858681 0.40495852 5.0708447 721157
-3.8088343 0.40495852 5.0708447 655623
-3.3413227 0.35996315 4.5074177 656138
-3.2970145 0.35996315 4.5074177 655882
-3.2527063 0.35996315 4.5074177 787211
-3.2083981 0.35996315 4.5074177 918536
-3.1640902 0.35996315 4.5074177 721673
-3.5097547 0.40495852 5.0708447 590345
-3.459908 0.40495852 5.0708447 459014
-3.4100614 0.40495852 5.0708447 590344
-3.3602147 0.40495852 5.0708447 655623
-3.3103681 0.40495852 5.0708447 721160
-3.2605214 0.40495852 5.0708447 918024
-3.2106748 0.40495852 5.0708447 917768
-3.1608281 0.40495852 5.0708447 852231
-3.1109815 0.40495852 5.0708447 786950
-3.0611348 0.40495852 5.0708447 983304
-3.0112882 0.40495852 5.0708447 720903
-2.9614415 0.40495852 5.0708447 852489
-0.40159929 0.055856347 0.69942683 721159
-0.40164891 0.056836285 0.71169752 852489
-0.41657805 0.059993856 0.75123626 721159
-0.42493156 0.062301312 0.78012997 917512
-0.41726285 0.062301312 0.78012997 721159
-1.183272 0.17998157 2.2537088 590087
-2.6125152 0.40495852 5.0708447 917512
0 0 0 786696
0 0 0 655366
0 0 0 1838093
0 0 0 3677467
-0.37812513 0.064793363 0.81133515 7950128
-0.37014967 0.064793363 0.81133515 10051136
-0.36956552 0.066115677 0.82789302 10182977
-0.36895701 0.067493081 0.84514076 10052163
-0.36832264 0.068929106 0.86312246 9659455
-0.35234147 0.067493081 0.84514076 852485
-0.32379642 0.063522905 0.79542661 787210
-0.30405366 0.061125811 0.76541048 721418
-0.29652965 0.061125811 0.76541048 786955
-0.28900564 0.061125811 0.76541048 852747
-0.28148162 0.061125811 0.76541048 393222
-0.27395758 0.061125811 0.76541048 327685
-0.25216034 0.057851214 0.72440636 721161
-0.2450394 0.057851214 0.72440636 1969942
-0.23791845 0.057851214 0.72440636 2035989
-0.22674844 0.056836285 0.71169752 1970196
-0.21596357 0.055856347 0.69942683 1970197
-0.20908818 0.055856347 0.69942683 852230
-0.19878545 0.054909632 0.68757218 852489
-0.18882613 0.053994466 0.67611259 459014
-0.18217991 0.053994466 0.67611259 655624
-0.1755337 0.053994466 0.67611259 721160
-0.16888748 0.053994466 0.67611259 590602
-0.16224127 0.053994466 0.67611259 590602
-0.15304431 0.053109314 0.66502881 393225
-0.13749124 0.04984105 0.62410396 786696
-0.12936601 0.049085878 0.61464781 853259
-0.123324 0.049085878 0.61464781 984075
-0.11553151 0.048353255 0.605474 393477
-0.10957967 0.048353255 0.605474 393222
-0.10362784 0.048353255 0.605474 393222
-0.099155933 0.049085878 0.61464781 459015
-0.094546445 0.04984105 0.62410396 655366
0 0 0 720903
0 0 0 590089
0 0 0 590089
0 0 0 524296
0 0 0 524294
0 0 0 655880
0 0 0 655881
-0.060312953 0.066115677 0.82789302 589831
-0.052174725 0.066115677 0.82789302 590087
-0.0440365 0.066115677 0.82789302 786696
-0.028836319 0.053109314 0.66502881 786953
-0.022299055 0.053109314 0.66502881 590087
-0.015761793 0.053109314 0.66502881 721160
0 0 0 918026
0 0 0 1246731
0 0 0 1049352
0 0 0 1378059
0 0 0 1378059
0.034906559 0.079016298 0.98943311 1444110
0.044632733 0.079016298 0.98943311 1837840
0.054358903 0.079016298 0.98943311 1706255
0.082109004 0.10123963 1.2677112 1706252
0 0 0 1641229
0 0 0 1640461
0 0 0 1378317
0 0 0 1181708
0 0 0 1049868
0 0 0 918536
0.33868122 0.20247926 2.5354223 983305
0.34221601 0.19056872 2.3862798 852233
0.36567327 0.19056872 2.3862798 983305
0.3891305 0.19056872 2.3862798 786696
0.41258773 0.19056872 2.3862798 655882
0.43604496 0.19056872 2.3862798 590347
0.41113356 0.17050885 2.1350925 720903
0.4321216 0.17050885 2.1350925 721417
0.53806776 0.20247926 2.5354223 786696
0.64341831 0.23140486 2.8976254 1773075
1.0451812 0.35996315 4.5074177 5056282
1.4007719 0.46280971 5.7952509 4661784
1.4577394 0.46280971 5.7952509 4333336
1.1781055 0.35996315 4.5074177 4400672
1.2224137 0.35996315 4.5074177 4596250
1.2667217 0.35996315 4.5074177 4464920
1.3110299 0.35996315 4.5074177 4531485
1.355338 0.35996315 4.5074177 4268058
1.2596815 0.32396683 4.0566759 6701875
1.2995588 0.32396683 4.0566759 9133381
1.1161966 0.26997232 3.380563 10250829
1.1494278 0.26997232 3.380563 10579023
1.0916852 0.24920525 3.1205199 11236179
1.12236 0.24920525 3.1205199 11104851
1.1530348 0.24920525 3.1205199 11565143
1.1837097 0.24920525 3.1205199 11235919
1.2143846 0.24920525 3.1205199 8541770
1.2450594 0.24920525 3.1205199 1050123
1.5076859 0.29451528 3.687887 1115661
1.1322211 0.21597786 2.7044504 853261
0.69528365 0.12958673 1.6226703 786696
0.71123457 0.12958673 1.6226703 917512
0.69921684 0.12460262 1.5602599 721670
0.66351461 0.11570243 1.4488127 721157
0.70285863 0.11998771 1.5024725 524550
0.8073315 0.13498616 1.6902815 786698
0.89885128 0.14725764 1.8439435 524296
0.96064293 0.1542699 1.9317503 524296
0.97963214 0.1542699 1.9317503 590089
0.99862134 0.1542699 1.9317503 590089
1.0684911 0.16198342 2.028338 590089
1.0884298 0.16198342 2.028338 590089
1.1083684 0.16198342 2.028338 720903
1.1283071 0.16198342 2.028338 917769
1.1482457 0.16198342 2.028338 787208
1.1681844 0.16198342 2.028338 853000
1.188123 0.16198342 2.028338 918282
1.2080617 0.16198342 2.028338 721416
1.2280003 0.16198342 2.028338 655366
1.1885133 0.1542699 1.9317503 590088
1.2678777 0.16198342 2.028338 918536
1.2878163 0.16198342 2.028338 655880
1.3765841 0.17050885 2.1350925 590602
1.3276936 0.16198342 2.028338 787468
1.3476323 0.16198342 2.028338 787468
1.4395483 0.17050885 2.1350925 918284
1.3875096 0.16198342 2.028338 852491
1.3404268 0.1542699 1.9317503 656395
1.359416 0.1542699 1.9317503 656140
1.3784052 0.1542699 1.9317503 786696
1.3973943 0.1542699 1.9317503 1049352
1.4163835 0.1542699 1.9317503 3742740
1.4353727 0.1542699 1.9317503 6769206
1.4543619 0.1542699 1.9317503 7096383
1.4733511 0.1542699 1.9317503 7162690
1.4923403 0.1542699 1.9317503 7754827
1.5113295 0.1542699 1.9317503 7558220
1.4607588 0.14725764 1.8439435 6769477
1.4145855 0.14085513 1.763772 6637890
1.4319234 0.14085513 1.763772 6572353
1.4492614 0.14085513 1.763772 6504246
1.4665993 0.14085513 1.763772 3019799
1.551389 0.14725764 1.8439435 2297106
1.5695151 0.14725764 1.8439435 655880
1.6632431 0.1542699 1.9317503 458762
1.9626044 0.17998157 2.2537088 524553
1.9847585 0.17998157 2.2537088 590089
1.6420193 0.14725764 1.8439435 590602
1.82616 0.16198342 2.028338 524809
2.0512207 0.17998157 2.2537088 524809
2.0733747 0.17998157 2.2537088 655366
1.8859758 0.16198342 2.028338 721160
1.7326494 0.14725764 1.8439435 590090
1.7507756 0.14725764 1.8439435 655368
1.6214931 0.13498616 1.6902815 852490
1.6381086 0.13498616 1.6902815 590602
1.5885353 0.12958673 1.6226703 852489
1.6713398 0.13498616 1.6902815 655623
1.6879553 0.13498616 1.6902815 590344
1.8595318 0.14725764 1.8439435 590089
1.7211864 0.13498616 1.6902815 852489
1.8957839 0.14725764 1.8439435 590086
1.6194624 0.12460262 1.5602599 787209
2.0240376 0.1542699 1.9317503 655880
2.0430269 0.1542699 1.9317503 655621
2.062016 0.1542699 1.9317503 852743
1.7480445 0.12958673 1.6226703 852491
1.7639954 0.12958673 1.6226703 655882
2.3420346 0.17050885 2.1350925 655880
2.4943018 0.17998157 2.2537088 655882
2.3840108 0.17050885 2.1350925 852489
1.3846962 0.098171756 1.2292956 852489
0 0 0 852489
0 0 0 786696
0 0 0 852489
11.822517 0.80991703 10.141689 918282
11.922211 0.80991703 10.141689 918282
16.029205 1.0798893 13.522252 852489
0 0 0 786696
0 0 0 983305
0 0 0 787211
0 0 0 786954
0 0 0 786696
0 0 0 786696
0 0 0 787209
0 0 0 852489
0 0 0 917770
0 0 0 1115149
0 0 0 1378576
0 0 0 1181197
0 0 0 1510940
-5.3794961 0.40427125 4.5074177 5257268
-6.8595266 0.5197773 5.7952509 9792085
-7.9363189 0.60640687 6.761126 10579794
-7.8698568 0.60640687 6.761126 10645074
-4.6820374 0.36384413 4.0566759 10776147
-4.2201452 0.33076736 3.687887 10842194
-4.1838932 0.33076736 3.687887 10711124
-4.1476407 0.33076736 3.687887 10581073
-4.5225282 0.36384413 4.0566759 10580562
-4.4826508 0.36384413 4.0566759 11105364
-4.0388846 0.33076736 3.687887 10711121
-4.0026326 0.33076736 3.687887 10646355
-3.9663804 0.33076736 3.687887 10842966
-3.9301283 0.33076736 3.687887 11105366
-3.8938763 0.33076736 3.687887 10908240
-3.2641437 0.27988011 3.1205199 10842703
-3.2334688 0.27988011 3.1205199 10842446
-3.4696932 0.30320343 3.380563 9724480
-4.123755 0.36384413 4.0566759 6963493
-4.0838776 0.36384413 4.0566759 4795162
-4.0440001 0.36384413 4.0566759 1377541
-3.6401114 0.33076736 3.687887 1116172
-3.9642456 0.36384413 4.0566759 1641229
-3.5676074 0.33076736 3.687887 2758935
-3.884491 0.36384413 4.0566759 2888978
-3.8446138 0.36384413 4.0566759 3086102
-3.8047364 0.36384413 4.0566759 3217431
-3.7648592 0.36384413 4.0566759 3282706
-3.7249818 0.36384413 4.0566759 3349269
-3.6851046 0.36384413 4.0566759 3545363
-3.6452272 0.36384413 4.0566759 3480085
-4.0059443 0.40427125 4.5074177 3414552
-3.9616363 0.40427125 4.5074177 3413782
-3.9173281 0.40427125 4.5074177 3545878
-4.3571472 0.45480514 5.0708447 3611156
-3.4458406 0.36384413 4.0566759 3479314
-3.4059634 0.36384413 4.0566759 2820874
-3.7400956 0.40427125 4.5074177 852743
-3.6957874 0.40427125 4.5074177 2035475
-3.6514795 0.40427125 4.5074177 917507
-3.6071713 0.40427125 4.5074177 720903
-3.5628631 0.40427125 4.5074177 786696
-3.5185549 0.40427125 4.5074177 917768
-3.474247 0.40427125 4.5074177 852489
-3.858681 0.45480514 5.0708447 787466
-3.8088343 0.45480514 5.0708447 1115145
-3.3413227 0.40427125 4.5074177 852743
-3.2970145 0.40427125 4.5074177 721675
-3.2527063 0.40427125 4.5074177 787209
-3.2083981 0.40427125 4.5074177 852743
-3.1640902 0.40427125 4.5074177 1049352
-3.119782 0.40427125 4.5074177 655623
-3.459908 0.45480514 5.0708447 590089
-3.4100614 0.45480514 5.0708447 655882
-2.9868577 0.40427125 4.5074177 655366
-2.9425495 0.40427125 4.5074177 655367
-2.8982413 0.40427125 4.5074177 852744
-2.8539333 0.40427125 4.5074177 1114888
-3.1608281 0.45480514 5.0708447 918025
-3.1109815 0.45480514 5.0708447 1049095
-3.0611348 0.45480514 5.0708447 983560
-3.0112882 0.45480514 5.0708447 917769
-2.9614415 0.45480514 5.0708447 721927
-2.9115949 0.45480514 5.0708447 721157
-2.5437765 0.40427125 4.5074177 590341
-1.6068009 0.25988865 2.8976254 787464
-1.473096 0.24256274 2.7044504 852489
-1.2054261 0.20213562 2.2537088 787210
-1.7749078 0.30320343 3.380563 720903
-5.2250304 0.90961027 10.141689 720905
0 0 0 786696
0 0 0 655880
0 0 0 1443848
0 0 0 3215379
-0.37812513 0.072768822 0.81133515 8080691
-0.37770376 0.074253902 0.82789302 9263932
-0.3772648 0.075800858 0.84514076 9723710
-0.39355415 0.080854245 0.90148348 9724481
-0.38469252 0.080854245 0.90148348 9591612
-0.36766067 0.079096548 0.88188601 1903365
-0.33701262 0.074253902 0.82789302 786953
-0.31597736 0.071341984 0.79542661 786954
-0.30223218 0.069970027 0.78012997 787467
-0.28900564 0.068649828 0.76541048 786954
-0.28148162 0.068649828 0.76541048 590087
-0.27395758 0.068649828 0.76541048 327684
-0.26643357 0.068649828 0.76541048 590087
-0.24949466 0.066153474 0.73757738 1378831
-0.24224424 0.066153474 0.73757738 1969940
-0.2307975 0.064972162 0.72440636 2035219
-0.21975242 0.063832305 0.71169752 786695
-0.20908818 0.062731743 0.69942683 590089
-0.19878545 0.061668497 0.68757218 459016
-0.18882613 0.060640685 0.67611259 655881
-0.18217991 0.060640685 0.67611259 589830
-0.1755337 0.060640685 0.67611259 393222
-0.16888748 0.060640685 0.67611259 590345
-0.16224127 0.060640685 0.67611259 655368
-0.15304431 0.059646577 0.66502881 458758
-0.13540803 0.055127893 0.61464781 721675
-0.12936601 0.055127893 0.61464781 918284
-0.123324 0.055127893 0.61464781 918284
-0.11553151 0.054305092 0.605474 589829
-0.10957967 0.054305092 0.605474 327685
-0.10362784 0.054305092 0.605474 393222
-0.097676001 0.054305092 0.605474 458757
0 0 0 590089
0 0 0 590089
0 0 0 458759
0 0 0 655368
0 0 0 655366
0 0 0 458762
0 0 0 590087
-0.069877237 0.075800858 0.84514076 721416
-0.061569467 0.075800858 0.84514076 721159
-0.052174725 0.074253902 0.82789302 655367
-0.043155771 0.072768822 0.81133515 655623
-0.029813822 0.061668497 0.68757218 720903
-0.021939393 0.058684535 0.65430254 786698
-0.01550757 0.058684535 0.65430254 786953
-0.0092245294 0.059646577 0.66502881 852743
0 0 0 1180938
0 0 0 918282
0 0 0 1180938
0 0 0 1443852
0 0 0 1378316
0.044632733 0.088742465 0.98943311 1443852
0.057146542 0.093293369 1.0401733 1443852
0.075071089 0.10395546 1.1590502 1509645
0 0 0 1574668
0 0 0 1443853
0 0 0 1312266
0 0 0 1377289
0 0 0 1115145
0.22818756 0.16538368 1.8439435 983815
0.2463136 0.16538368 1.8439435 786950
0.26443964 0.16538368 1.8439435 852744
0.31082228 0.18192206 2.028338 983305
0.34816939 0.19149691 2.1350925 918280
0.36915746 0.19149691 2.1350925 786697
0.37063825 0.18192206 2.028338 720902
0.3905769 0.18192206 2.028338 655366
0.4321216 0.19149691 2.1350925 721418
0.50641668 0.21402594 2.3862798 590086
0.64341831 0.25988865 2.8976254 983817
0.78388578 0.30320343 3.380563 4794140
0 0 0 5187871
0 0 0 4857880
1.1781055 0.40427125 4.5074177 4268570
1.1001723 0.36384413 4.0566759 4596506
1.2667217 0.40427125 4.5074177 4662299
1.3110299 0.40427125 4.5074177 4333336
1.355338 0.40427125 4.5074177 4268314
1.399646 0.40427125 4.5074177 6963504
0.99966061 0.27988011 3.1205199 13406051
1.0303354 0.27988011 3.1205199 14063212
1.0610102 0.27988011 3.1205199 13536870
1.0916852 0.27988011 3.1205199 11629649
1.0421914 0.25988865 2.8976254 11170127
1.0706751 0.25988865 2.8976254 9593928
1.0991589 0.25988865 2.8976254 9790276
1.1276428 0.25988865 2.8976254 7688003
1.2450594 0.27988011 3.1205199 1311757
1.2757342 0.27988011 3.1205199 1049097
0.67933273 0.14553764 1.6226703 852743
0.66854197 0.13994005 1.5602599 852489
0.63503081 0.12994432 1.4488127 852489
0.64927274 0.12994432 1.4488127 590088
0.64063483 0.12546349 1.3988537 720903
0.65438563 0.12546349 1.3988537 786696
0.717628 0.13475709 1.5024725 721674
0.82394701 0.15160172 1.6902815 786696
0.96064293 0.17325909 1.9317503 786950
0.97963214 0.17325909 1.9317503 852489
0.99862134 0.17325909 1.9317503 786697
1.0684911 0.18192206 2.028338 786698
1.0884298 0.18192206 2.028338 917767
1.1083684 0.18192206 2.028338 918023
1.1283071 0.18192206 2.028338 1312525
1.2086797 0.19149691 2.1350925 1575695
1.2296677 0.19149691 2.1350925 1115914
1.2506558 0.19149691 2.1350925 917768
1.2716439 0.19149691 2.1350925 524551
1.1695241 0.17325909 1.9317503 524296
1.1885133 0.17325909 1.9317503 459016
1.2075025 0.17325909 1.9317503 918536
1.2264916 0.17325909 1.9317503 721158
1.2454808 0.17325909 1.9317503 721673
1.2069941 0.16538368 1.8439435 919054
1.3476323 0.18192206 2.028338 721675
1.3675709 0.18192206 2.028338 919054
1.3875096 0.18192206 2.028338 852746
1.3404268 0.17325909 1.9317503 918284
1.359416 0.17325909 1.9317503 852747
1.3784052 0.17325909 1.9317503 721673
1.3973943 0.17325909 1.9317503 721673
1.4163835 0.17325909 1.9317503 3545621
1.4353727 0.17325909 1.9317503 5387301
1.4543619 0.17325909 1.9317503 5649964
1.4063807 0.16538368 1.8439435 6241078
1.4245067 0.16538368 1.8439435 6637889
1.4426327 0.16538368 1.8439435 6507845
1.4607588 0.16538368 1.8439435 6506821
1.4145855 0.1581931 1.763772 6638918
1.4319234 0.1581931 1.763772 6703942
1.4492614 0.1581931 1.763772 6702401
1.4665993 0.1581931 1.763772 3086363
1.551389 0.16538368 1.8439435 2429460
1.5695151 0.16538368 1.8439435 983558
1.5876411 0.16538368 1.8439435 458759
1.6057671 0.16538368 1.8439435 524292
1.5532892 0.1581931 1.763772 590088
1.5706271 0.1581931 1.763772 524294
1.587965 0.1581931 1.763772 721161
2.0512207 0.20213562 2.2537088 786698
2.0733747 0.20213562 2.2537088 655368
2.0955288 0.20213562 2.2537088 721673
1.6573169 0.1581931 1.763772 590089
1.6746548 0.1581931 1.763772 655882
1.6214931 0.15160172 1.6902815 655369
1.6381086 0.15160172 1.6902815 589832
1.6547242 0.15160172 1.6902815 524555
1.6713398 0.15160172 1.6902815 590089
1.6879553 0.15160172 1.6902815 918284
1.7045708 0.15160172 1.6902815 655880
1.7211864 0.15160172 1.6902815 721673
1.7378019 0.15160172 1.6902815 786696
1.6842408 0.14553764 1.6226703 852489
2.0240376 0.17325909 1.9317503 852491
2.0430269 0.17325909 1.9317503 852489
2.062016 0.17325909 1.9317503 786696
2.0810053 0.17325909 1.9317503 852491
2.2049944 0.18192206 2.028338 721675
2.3420346 0.19149691 2.1350925 984075
2.4943018 0.20213562 2.2537088 917767
6.4708862 0.5197773 5.7952509 721159
6.5278535 0.5197773 5.7952509 852745
0 0 0 918281
11.623131 0.90961027 10.141689 786952
11.722824 0.90961027 10.141689 721416
11.822517 0.90961027 10.141689 590087
11.922211 0.90961027 10.141689 852491
12.021904 0.90961027 10.141689 721673
0 0 0 852489
0 0 0 917766
0 0 0 655623
0 0 0 590344
0 0 0 656138
0 0 0 655880
0 0 0 786950
0 0 0 918282
0 0 0 852489
0 0 0 852489
0 0 0 1247247
0 0 0 984077
0 0 0 1314075
-5.3794961 0.44857937 4.5074177 4797490
-6.8595266 0.57674485 5.7952509 9922385
-7.9363189 0.67286903 6.761126 10776147
-7.8698568 0.67286903 6.761126 10710610
-4.6820374 0.40372145 4.0566759 10907987
-4.6421599 0.40372145 4.0566759 10842192
-4.1838932 0.36701947 3.687887 10711376
-4.1476407 0.36701947 3.687887 10842962
-4.1113887 0.36701947 3.687887 10842707
-4.4826508 0.40372145 4.0566759 10646100
-4.4427733 0.40372145 4.0566759 10449233
-4.4028959 0.40372145 4.0566759 10908503
-3.9663804 0.36701947 3.687887 10646615
-3.9301283 0.36701947 3.687887 10712406
-3.5693865 0.33643451 3.380563 10842963
-3.2641437 0.31055495 3.1205199 10908498
-3.2334688 0.31055495 3.1205199 11039566
-3.4696932 0.33643451 3.380563 9658684
-4.123755 0.40372145 4.0566759 7161129
-4.0838776 0.40372145 4.0566759 4925978
-4.0440001 0.40372145 4.0566759 1508614
-4.0041227 0.40372145 4.0566759 919052
-3.9642456 0.40372145 4.0566759 1772817
-4.3604093 0.44857937 4.5074177 3218201
-4.3161011 0.44857937 4.5074177 3545877
-4.2717929 0.44857937 4.5074177 3545877
-4.2274847 0.44857937 4.5074177 3677209
-3.7648592 0.40372145 4.0566759 3414552
-3.7249818 0.40372145 4.0566759 3151893
-3.6851046 0.40372145 4.0566759 3611158
-4.0502524 0.44857937 4.5074177 3480601
-4.0059443 0.44857937 4.5074177 3479829
-3.9616363 0.44857937 4.5074177 3414805
-3.9173281 0.44857937 4.5074177 3415062
-3.485718 0.40372145 4.0566759 3217681
-3.4458406 0.40372145 4.0566759 3216913
-3.4059634 0.40372145 4.0566759 2624522
-3.7400956 0.44857937 4.5074177 786693
-3.6957874 0.44857937 4.5074177 1443594
-3.6514795 0.44857937 4.5074177 917766
-3.6071713 0.44857937 4.5074177 918023
-3.5628631 0.44857937 4.5074177 852487
-3.5185549 0.44857937 4.5074177 852232
-3.474247 0.44857937 4.5074177 787208
-3.858681 0.50465178 5.0708447 983817
-3.8088343 0.50465178 5.0708447 1049352
-3.3413227 0.44857937 4.5074177 918536
-3.2970145 0.44857937 4.5074177 984329
-3.2527063 0.44857937 4.5074177 983562
-3.2083981 0.44857937 4.5074177 1115145
-3.1640902 0.44857937 4.5074177 983559
-3.119782 0.44857937 4.5074177 787208
-3.0754738 0.44857937 4.5074177 721673
-3.0311658 0.44857937 4.5074177 786698
-2.9868577 0.44857937 4.5074177 458759
-2.9425495 0.44857937 4.5074177 655882
-2.8982413 0.44857937 4.5074177 851975
-2.8539333 0.44857937 4.5074177 1049095
-2.8096251 0.44857937 4.5074177 983305
-2.765317 0.44857937 4.5074177 851975
-3.0611348 0.50465178 5.0708447 721160
-3.0112882 0.50465178 5.0708447 721675
-2.9614415 0.50465178 5.0708447 1181195
-2.9115949 0.50465178 5.0708447 917767
-2.8617485 0.50465178 5.0708447 984329
-2.4994683 0.44857937 4.5074177 852489
-1.84137 0.33643451 3.380563 786696
-1.808139 0.33643451 3.380563 721416
-2.6623619 0.50465178 5.0708447 1049352
-2.6125152 0.50465178 5.0708447 590089
-5.1253371 1.0093036 10.141689 852489
0 0 0 655880
0 0 0 1379086
0 0 0 4269595
0 0 0 7162163
-0.41127741 0.089715868 0.90148348 8738106
-0.39366761 0.087765522 0.88188601 9132349
-0.39355415 0.089715868 0.90148348 9592126
-0.38469252 0.089715868 0.90148348 9723965
-0.36766067 0.087765522 0.88188601 6175790
-0.34403369 0.084108628 0.84514076 656138
-0.31597736 0.079161063 0.79542661 656136
-0.30223218 0.077638738 0.78012997 721675
-0.28900564 0.076173849 0.76541048 721160
-0.28148162 0.076173849 0.76541048 918796
-0.27395758 0.076173849 0.76541048 656136
-0.26149964 0.074763231 0.75123626 656137
-0.24949466 0.073403895 0.73757738 655881
-0.24224424 0.073403895 0.73757738 787212
-0.22674844 0.070828319 0.71169752 721418
-0.21975242 0.070828319 0.71169752 524294
-0.20908818 0.069607139 0.69942683 524807
-0.19878545 0.068427362 0.68757218 590087
-0.18882613 0.067286901 0.67611259 524808
-0.18217991 0.067286901 0.67611259 458762
-0.1755337 0.067286901 0.67611259 589835
-0.16888748 0.067286901 0.67611259 590088
-0.15958159 0.066183843 0.66502881 393221
-0.14145005 0.061169907 0.61464781 459016
-0.13540803 0.061169907 0.61464781 721675
-0.12936601 0.061169907 0.61464781 1049098
-0.123324 0.061169907 0.61464781 655880
-0.11553151 0.060256928 0.605474 458757
-0.10957967 0.060256928 0.605474 327686
-0.10362784 0.060256928 0.605474 327688
0 0 0 524296
0 0 0 458757
0 0 0 720905
0 0 0 655366
0 0 0 590602
0 0 0 655880
0 0 0 590087
0 0 0 720903
-0.071363986 0.085898168 0.86312246 655366
-0.062879458 0.085898168 0.86312246 590343
-0.054394923 0.085898168 0.86312246 655623
-0.044953924 0.084108628 0.84514076 655880
-0.0344905 0.079161063 0.79542661 721416
-0.022299055 0.066183843 0.66502881 590088
-0.01550757 0.065116361 0.65430254 590087
0 0 0 918025
0 0 0 1049352
0 0 0 1049352
0 0 0 983305
0 0 0 1246731
0 0 0 2428690
0 0 0 1312524
0 0 0 1443853
0 0 0 1378060
0 0 0 1903633
0 0 0 1706771
0 0 0 1313040
0 0 0 1180938
0.18485413 0.16148856 1.6226703 984075
0.19308178 0.15527748 1.5602599 918536
0.20841922 0.15527748 1.5602599 852743
0.26443964 0.18350974 1.8439435 1049352
0.31082228 0.20186073 2.028338 852489
0.33076096 0.20186073 2.028338 786953
0.3506996 0.20186073 2.028338 852489
0.37063825 0.20186073 2.028338 786952
0.3905769 0.20186073 2.028338 786695
0.45612839 0.22428969 2.2537088 786696
0.61493456 0.28837243 2.8976254 786437
0.90078574 0.40372145 4.0566759 786695
1.0451812 0.44857937 4.5074177 4990492
1.6342338 0.67286903 6.761126 5253405
1.700696 0.67286903 6.761126 5121299
1.514707 0.57674485 5.7952509 5779487
1.1001723 0.40372145 4.0566759 6896426
1.1400496 0.40372145 4.0566759 7225390
1.3110299 0.44857937 4.5074177 7291695
1.355338 0.44857937 4.5074177 8013616
0.89977241 0.28837243 2.8976254 8408629
0.92825621 0.28837243 2.8976254 7488046
0.89295733 0.2691476 2.7044504 6502179
0.91954219 0.2691476 2.7044504 6567458
0.94612706 0.2691476 2.7044504 7553062
0.97271192 0.2691476 2.7044504 7489069
0.99929678 0.2691476 2.7044504 7160365
1.0258816 0.2691476 2.7044504 8605748
0.98668742 0.25232589 2.5354223 7423281
1.0116107 0.25232589 2.5354223 1902600
0.82922727 0.20186073 2.028338 983819
0.58563161 0.13921428 1.3988537 655880
0.5993824 0.13921428 1.3988537 851975
