# .PCD v0.7 - Point Cloud Data file format
VERSION 0.7
FIELDS x y z rgb
SIZE 4 4 4 4
TYPE F F F U
COUNT 1 1 1 1
WIDTH 1317
HEIGHT 1
VIEWPOINT 0 0 0 1 0 0 0
POINTS 1317
DATA ascii
1.9789631 -1.3730811 3.687887 13273690
2.0152152 -1.3730811 3.687887 13405791
2.2566142 -1.5103892 4.0566759 13471326
1.4353071 -0.94399327 2.5354223 13601884
1.3743345 -0.88846421 2.3862798 13667678
1.3201367 -0.83910513 2.2537088 13602145
1.4212489 -0.88846421 2.3862798 13602402
1.3644449 -0.83910513 2.2537088 13667428
1.9199061 -1.1618379 3.1205199 13536865
1.950581 -1.1618379 3.1205199 13601632
2.1463604 -1.2586577 3.380563 13601890
2.1795914 -1.2586577 3.380563 13338977
2.2128224 -1.2586577 3.380563 13077600
2.0732803 -1.1618379 3.1205199 13535839
2.1039553 -1.1618379 3.1205199 13207134
1.6323642 -0.88846421 2.3862798 12879967
1.6558213 -0.88846421 2.3862798 13077863
1.5025125 -0.79494166 2.1350925 13141600
1.7027358 -0.88846421 2.3862798 12878684
2.4454401 -1.2586577 3.380563 12682590
3.3048952 -1.6782103 4.5074177 12945246
3.3492033 -1.6782103 4.5074177 12813404
4.3630857 -2.1576989 5.7952509 12747611
3.8675468 -1.8879865 5.0708447 12682076
5.2231913 -2.5173154 6.761126 12616795
0 0 0 12682075
0 0 0 12616281
0 0 0 12091479
4.1167798 -1.8879865 5.0708447 12025430
4.1666265 -1.8879865 5.0708447 12288602
0 0 0 12221783
0 0 0 12353370
4.3161664 -1.8879865 5.0708447 11959383
4.3660131 -1.8879865 5.0708447 11893844
3.9252088 -1.6782103 4.5074177 12025687
3.969517 -1.6782103 4.5074177 11828054
2.2577765 -0.94399327 2.5354223 11762263
2.2826998 -0.94399327 2.5354223 11630675
2.4614646 -1.0069261 2.7044504 11826257
2.4880495 -1.0069261 2.7044504 11696215
2.6942511 -1.0788494 2.8976254 11498578
4.2353659 -1.6782103 4.5074177 11237207
4.8146329 -1.8879865 5.0708447 11171412
4.8644795 -1.8879865 5.0708447 11368276
4.9143262 -1.8879865 5.0708447 11105106
13.237794 -5.0346308 13.522252 11301974
13.370718 -5.0346308 13.522252 10907474
13.503642 -5.0346308 13.522252 11039060
10.227426 -3.7759731 10.141689 10908757
0 0 0 10711120
10.426811 -3.7759731 10.141689 10973778
8.4212046 -3.0207784 8.1133518 10973265
6.072113 -2.1576989 5.7952509 10775886
6.1290808 -2.1576989 5.7952509 10775888
6.186048 -2.1576989 5.7952509 10842192
4.8556795 -1.6782103 4.5074177 11103825
4.8999872 -1.6782103 4.5074177 10645583
2.7811661 -0.94399327 2.5354223 10382413
3.4536486 -1.1618379 3.1205199 10644815
3.4843235 -1.1618379 3.1205199 10578509
3.0463316 -1.0069261 2.7044504 10644815
3.0729165 -1.0069261 2.7044504 10250571
3.3208945 -1.0788494 2.8976254 10185551
3.907608 -1.2586577 3.380563 10579025
5.2544522 -1.6782103 4.5074177 10447951
9.5377693 -3.0207784 8.1133518 10382414
9.6175232 -3.0207784 8.1133518 10250573
6.9266267 -2.1576989 5.7952509 10054479
6.1106453 -1.8879865 5.0708447 9988171
4.1069946 -1.2586577 3.380563 10053966
3.8217468 -1.1618379 3.1205199 9988432
0 0 0 10185296
0 0 0 10053710
0 0 0 9988174
0 0 0 10053966
0 0 0 9921610
0 0 0 9987918
0 0 0 10052428
0 0 0 11959638
0 0 0 13012329
-4.8415465 -1.4705119 4.0566759 13867382
-4.8016691 -1.4705119 4.0566759 13405541
-9.5235834 -2.9410238 8.1133518 12681303
-5.9023929 -1.8381399 5.0708447 12485208
-3.601567 -1.131163 3.1205199 12025172
-3.3158283 -1.0503656 2.8976254 11893844
-3.2873445 -1.0503656 2.8976254 11828566
-3.2588606 -1.0503656 2.8976254 11827797
-3.230377 -1.0503656 2.8976254 12418391
-3.2018931 -1.0503656 2.8976254 11630416
-3.1734092 -1.0503656 2.8976254 11302482
-3.1449256 -1.0503656 2.8976254 11433296
-3.1164417 -1.0503656 2.8976254 11564882
-3.0879579 -1.0503656 2.8976254 11499602
-2.855509 -0.9803412 2.7044504 11630929
-2.6521165 -0.91906995 2.5354223 11433548
-2.6271932 -0.91906995 2.5354223 11433296
-2.9740229 -1.0503656 2.8976254 11499089
-2.945539 -1.0503656 2.8976254 11301710
-3.1414442 -1.131163 3.1205199 11236686
-3.1107693 -1.131163 3.1205199 10973517
-3.3367689 -1.2254266 3.380563 11104333
-3.0494196 -1.131163 3.1205199 11039312
-3.2703068 -1.2254266 3.380563 10712145
-3.2370756 -1.2254266 3.380563 11039051
-3.2038445 -1.2254266 3.380563 10776653
-3.1706135 -1.2254266 3.380563 10645579
0 0 0 10644809
0 0 0 10710347
0 0 0 10710602
0 0 0 10447688
0 0 0 10578761
0 0 0 10644554
-3.9173281 -1.6339022 4.5074177 10644809
-3.8730199 -1.6339022 4.5074177 10513479
-6.8916812 -2.9410238 8.1133518 10315586
0 0 0 10185032
0 0 0 10315850
0 0 0 10577992
-1.933136 -0.86500698 2.3862798 10053445
-1.2486362 -0.5655815 1.5602599 9791046
-1.8862215 -0.86500698 2.3862798 10052676
-1.9791871 -0.91906995 2.5354223 9988423
-2.4052479 -1.131163 3.1205199 10052678
-1.1872865 -0.5655815 1.5602599 9986885
-1.171949 -0.5655815 1.5602599 9789506
-1.1566117 -0.5655815 1.5602599 9986370
-1.1869252 -0.58820474 1.6226703 9855297
-1.1709743 -0.58820474 1.6226703 9725252
-1.1550233 -0.58820474 1.6226703 9593923
0 0 0 9527620
0 0 0 9528135
0 0 0 9658690
0 0 0 9593154
0 0 0 9527876
0 0 0 9396547
0 0 0 9724483
0 0 0 9658690
0 0 0 9593670
0 0 0 9330243
0 0 0 9265215
0 0 0 9265730
0 0 0 9592895
0 0 0 9658687
0 0 0 9462082
0 0 0 9199168
0 0 0 9330495
0 0 0 9461057
0 0 0 9330756
0 0 0 9133633
0 0 0 9264703
0 0 0 9133629
-0.2699151 -0.20143999 0.555709 8803127
-0.26087877 -0.19871782 0.54819942 8147514
-0.25898981 -0.20143999 0.555709 6963498
-0.2570484 -0.20423777 0.56342721 6700586
-0.25150988 -0.20423777 0.56342721 4202513
-0.24260189 -0.20143999 0.555709 1904401
-0.23393466 -0.19871782 0.54819942 2495768
-0.22854583 -0.19871782 0.54819942 4992299
-0.223157 -0.19871782 0.54819942 5648940
-0.21203743 -0.1934884 0.53377312 6370601
-0.20410483 -0.19097556 0.52684098 6435368
-0.19388986 -0.18614075 0.51350325 6238246
-0.18417934 -0.18154468 0.50082415 5842721
-0.1792562 -0.18154468 0.50082415 5449760
-0.17433308 -0.18154468 0.50082415 4924188
-0.16940996 -0.18154468 0.50082415 4792860
-0.16654293 -0.18381399 0.50708449 4595738
-0.16155827 -0.18381399 0.50708449 4398618
-0.15855554 -0.18614075 0.51350325 4267287
-0.15547584 -0.18852717 0.52008665 4135960
-0.15231612 -0.19097556 0.52684098 3741973
-0.15106091 -0.19606826 0.5408901 3413269
-0.14973693 -0.20143999 0.555709 2888466
-0.1462781 -0.20423777 0.56342721 2363151
-0.14073958 -0.20423777 0.56342721 1574925
-0.1371053 -0.20711435 0.57136279 1115145
-0.13148879 -0.20711435 0.57136279 1312266
-0.12587225 -0.20711435 0.57136279 1180680
-0.12025574 -0.20711435 0.57136279 1116171
-0.11796208 -0.21311766 0.587924 1378060
-0.11383252 -0.21625175 0.59656996 1575178
-0.10957967 -0.2194794 0.605474 1903372
-0.10848539 -0.22976749 0.63385558 2428944
-0.1055531 -0.23717934 0.65430254 4072739
-0.099121273 -0.23717934 0.65430254 9067582
-0.10842916 -0.27745506 0.76541048 9527872
0 0 0 9790274
0 0 0 10052417
0 0 0 9921090
0 0 0 9986369
0 0 0 9723969
0 0 0 9921349
0 0 0 9724481
0 0 0 9921603
0 0 0 9592894
0 0 0 9789505
-0.064773448 -0.70024377 1.9317503 9592897
-0.045784254 -0.70024377 1.9317503 9593411
0 0 0 9855552
0 0 0 9658429
0 0 0 9461054
0.07040254 -1.6339022 4.5074177 9066810
0.1032396 -1.4705119 4.0566759 8804155
0.15901878 -1.6339022 4.5074177 9067584
0.3659884 -2.9410238 8.1133518 9396033
0.44574302 -2.9410238 8.1133518 9462083
0.52549762 -2.9410238 8.1133518 9396545
0.60525227 -2.9410238 8.1133518 9528387
0.68500686 -2.9410238 8.1133518 9856325
0.76476151 -2.9410238 8.1133518 10118728
0.8445161 -2.9410238 8.1133518 10184261
0.92427069 -2.9410238 8.1133518 10315849
1.0040253 -2.9410238 8.1133518 10118982
1.3547249 -3.6762798 10.141689 10184775
1.4544181 -3.6762798 10.141689 10250825
1.5541114 -3.6762798 10.141689 10579020
1.6538047 -3.6762798 10.141689 10316618
1.4027984 -2.9410238 8.1133518 10250825
1.482553 -2.9410238 8.1133518 10775370
1.5623076 -2.9410238 8.1133518 10448204
1.6420622 -2.9410238 8.1133518 10512714
0.9565649 -1.6339022 4.5074177 10776651
0.60052377 -0.9803412 2.7044504 10841931
1.0451812 -1.6339022 4.5074177 10841935
1.2256753 -1.8381399 5.0708447 10907468
1.275522 -1.8381399 5.0708447 11104590
1.3253686 -1.8381399 5.0708447 11170894
1.3752153 -1.8381399 5.0708447 10973773
1.4250619 -1.8381399 5.0708447 11367503
1.3110299 -1.6339022 4.5074177 11301710
1.1089128 -1.3368289 3.687887 11235917
0.8397876 -0.9803412 2.7044504 11498573
0.86637247 -0.9803412 2.7044504 11564622
0.83714753 -0.91906995 2.5354223 11762004
0.86207086 -0.91906995 2.5354223 11499855
1.1826588 -1.2254266 3.380563 12024918
1.3264254 -1.3368289 3.687887 12024662
1.2491211 -1.2254266 3.380563 12090708
0.85490143 -0.8169511 2.2537088 12681303
0.78934997 -0.73525596 2.028338 12615512
0.80928862 -0.73525596 2.028338 12551000
0.82922727 -0.73525596 2.028338 12747608
0.89385885 -0.77395362 2.1350925 12747352
2.1727614 -1.8381399 5.0708447 12617563
2.2226081 -1.8381399 5.0708447 13470044
0 0 0 13272923
2.3223011 -1.8381399 5.0708447 13338717
2.1085761 -1.6339022 4.5074177 13339485
2.152884 -1.6339022 4.5074177 13339486
2.1971922 -1.6339022 4.5074177 13601889
2.2415004 -1.6339022 4.5074177 13339485
2.0572276 -1.4705119 4.0566759 13471074
2.3301165 -1.6339022 4.5074177 13405280
4.2739644 -2.9410238 8.1133518 13471073
5.4421487 -3.6762798 10.141689 13340256
3.6945612 -2.4508531 6.761126 13405789
2.0514672 -1.3368289 3.687887 13406560
1.3508773 -0.86500698 2.3862798 13930079
1.2979827 -0.8169511 2.2537088 13799010
1.3201367 -0.8169511 2.2537088 13537118
1.510077 -0.91906995 2.5354223 13733988
1.5350003 -0.91906995 2.5354223 13536351
1.9199061 -1.131163 3.1205199 13208414
1.950581 -1.131163 3.1205199 13405280
2.861814 -1.6339022 4.5074177 13537377
2.3777361 -1.3368289 3.687887 13339741
2.9504302 -1.6339022 4.5074177 13339745
2.6952646 -1.4705119 4.0566759 13667428
3.0390465 -1.6339022 4.5074177 12946533
3.4687738 -1.8381399 5.0708447 13405028
3.5186205 -1.8381399 5.0708447 13337946
1.6792786 -0.86500698 2.3862798 13208159
1.7027358 -0.86500698 2.3862798 13076572
1.7261931 -0.86500698 2.3862798 13142623
2.4786713 -1.2254266 3.380563 13142108
3.7678535 -1.8381399 5.0708447 13076576
4.3630857 -2.1007311 5.7952509 12616536
4.4200535 -2.1007311 5.7952509 12485724
4.4770207 -2.1007311 5.7952509 13075034
0 0 0 12682074
0 0 0 12354137
4.0669332 -1.8381399 5.0708447 12418907
3.6593602 -1.6339022 4.5074177 12616284
2.2222006 -0.9803412 2.7044504 12616281
4.2164731 -1.8381399 5.0708447 12090969
0 0 0 12025430
2.1580832 -0.91906995 2.5354223 12156247
2.1830065 -0.91906995 2.5354223 12352597
2.2079298 -0.91906995 2.5354223 12090968
3.969517 -1.6339022 4.5074177 11696470
2.2577765 -0.91906995 2.5354223 11828054
2.2826998 -0.91906995 2.5354223 11827283
2.3076231 -0.91906995 2.5354223 12090199
2.4880495 -0.9803412 2.7044504 11434327
2.5146344 -0.9803412 2.7044504 11433557
7.6236582 -2.9410238 8.1133518 11433556
4.8146329 -1.8381399 5.0708447 11236946
7.7831674 -2.9410238 8.1133518 11302742
7.8629222 -2.9410238 8.1133518 11498836
13.237794 -4.9017062 13.522252 10843734
13.370718 -4.9017062 13.522252 10842705
0 0 0 11039827
0 0 0 10974550
0 0 0 10777171
10.426811 -3.6762798 10.141689 10711630
10.526505 -3.6762798 10.141689 11104335
6.072113 -2.1007311 5.7952509 10842447
6.1290808 -2.1007311 5.7952509 10777169
5.4127922 -1.8381399 5.0708447 10907985
5.4626389 -1.8381399 5.0708447 10973780
5.5124855 -1.8381399 5.0708447 10579279
2.7811661 -0.91906995 2.5354223 10645073
2.1379728 -0.70024377 1.9317503 10776399
3.0197468 -0.9803412 2.7044504 10316620
3.0463316 -0.9803412 2.7044504 10907472
3.0729165 -0.9803412 2.7044504 10906702
3.8743768 -1.2254266 3.380563 10906959
5.861412 -1.8381399 5.0708447 10315596
5.9112587 -1.8381399 5.0708447 10317394
9.5377693 -2.9410238 8.1133518 10251087
8.0146027 -2.4508531 6.761126 10251086
6.9266267 -2.1007311 5.7952509 10251343
5.431685 -1.6339022 4.5074177 10185809
3.080246 -0.91906995 2.5354223 10512464
3.8217468 -1.131163 3.1205199 10249290
0 0 0 10249294
0 0 0 9855819
0 0 0 10184526
0 0 0 10118732
0 0 0 10119759
0 0 0 9988173
0 0 0 10249805
0 0 0 12747613
0 0 0 13537127
-4.0346217 -1.1921954 3.380563 15904125
-4.3651533 -1.3005769 3.687887 15903349
-4.3289013 -1.3005769 3.687887 16231544
-3.9349284 -1.1921954 3.380563 16494462
-3.344312 -1.0218818 2.8976254 16692098
-3.3158283 -1.0218818 2.8976254 16101246
-3.2873445 -1.0218818 2.8976254 14589039
-3.2588606 -1.0218818 2.8976254 12946275
-3.230377 -1.0218818 2.8976254 12682590
-3.2018931 -1.0218818 2.8976254 12485209
-3.1734092 -1.0218818 2.8976254 12025173
-3.1449256 -1.0218818 2.8976254 12222294
-3.3561683 -1.1004882 3.1205199 12090453
-3.3254933 -1.1004882 3.1205199 11762258
-3.0594742 -1.0218818 2.8976254 11434320
-3.0309904 -1.0218818 2.8976254 11499089
-3.0025065 -1.0218818 2.8976254 11433551
-2.9740229 -1.0218818 2.8976254 11564624
-3.1721191 -1.1004882 3.1205199 11301710
-3.1414442 -1.1004882 3.1205199 11301964
-3.1107693 -1.1004882 3.1205199 11760718
-3.0800946 -1.1004882 3.1205199 11171407
-3.3035378 -1.1921954 3.380563 10908235
-3.2703068 -1.1921954 3.380563 10973515
-2.98807 -1.1004882 3.1205199 10974028
-2.9573951 -1.1004882 3.1205199 11105101
-3.1706135 -1.1921954 3.380563 11104332
0 0 0 10973261
0 0 0 10711631
0 0 0 10841930
0 0 0 10972747
-4.0059443 -1.589594 4.5074177 10841933
-3.9616363 -1.589594 4.5074177 10906955
-2.7119963 -1.1004882 3.1205199 10842444
-2.6813214 -1.1004882 3.1205199 10710090
-2.1536503 -0.89414662 2.5354223 11104848
-6.8119268 -2.8612692 8.1133518 10579531
0 0 0 10644552
0 0 0 10513481
-1.933136 -0.84154975 2.3862798 10055240
-1.2985816 -0.57225382 1.6226703 10054986
-1.2332988 -0.55024409 1.5602599 10316873
-1.130964 -0.51094091 1.4488127 10053702
-1.202624 -0.55024409 1.5602599 10118982
-1.1872865 -0.55024409 1.5602599 10119237
-1.171949 -0.55024409 1.5602599 9856839
-1.1566117 -0.55024409 1.5602599 10053959
-1.1869252 -0.57225382 1.6226703 9922373
-1.1259367 -0.55024409 1.5602599 9790022
-1.1550233 -0.57225382 1.6226703 9987401
-1.1865337 -0.59609771 1.6902815 10053447
-1.2762743 -0.65028846 1.8439435 9724484
0 0 0 9856326
0 0 0 9723459
0 0 0 9856069
0 0 0 9921603
0 0 0 10118469
0 0 0 9855811
0 0 0 9790276
0 0 0 9921862
0 0 0 9725251
-0.34913486 -0.20733835 0.587924 9658690
-0.34335554 -0.20733835 0.587924 9528132
-0.33757621 -0.20733835 0.587924 9921345
0 0 0 9724483
0 0 0 9855556
0 0 0 9855045
0 0 0 9855812
0 0 0 9461827
0 0 0 9592643
0 0 0 9855300
0 0 0 9724481
-0.2699151 -0.19597735 0.555709 8672569
-0.26445246 -0.19597735 0.555709 7620145
-0.26258689 -0.19869925 0.56342721 7488557
-0.2570484 -0.19869925 0.56342721 5714206
-0.25150988 -0.19869925 0.56342721 3019021
-0.24597137 -0.19869925 0.56342721 1970196
-0.23393466 -0.19332899 0.54819942 6175283
-0.22549854 -0.19075128 0.5408901 6305067
-0.22018157 -0.19075128 0.5408901 6370605
-0.21203743 -0.18824139 0.53377312 6172713
-0.20410483 -0.18579669 0.52684098 5844260
-0.19892596 -0.18579669 0.52684098 5581345
-0.1888421 -0.18109299 0.51350325 5383967
-0.1792562 -0.17662156 0.50082415 4924703
-0.17433308 -0.17662156 0.50082415 5318434
-0.16940996 -0.17662156 0.50082415 5056031
-0.16448684 -0.17662156 0.50082415 4924188
-0.16155827 -0.17882933 0.50708449 4595224
-0.16058831 -0.1834147 0.52008665 4332566
-0.15547584 -0.1834147 0.52008665 4464150
-0.15231612 -0.18579669 0.52684098 4266773
-0.14713725 -0.18579669 0.52684098 3938323
-0.14574394 -0.19075128 0.5408901 3938581
-0.14427428 -0.19597735 0.555709 2821901
-0.14272183 -0.20149784 0.57136279 1706766
-0.13906395 -0.20437637 0.57952511 1246476
-0.1333672 -0.20437637 0.57952511 1312523
-0.12767044 -0.20437637 0.57952511 1049094
-0.12197368 -0.20437637 0.57952511 1180938
-0.11627692 -0.20437637 0.57952511 1378060
-0.11218277 -0.20733835 0.587924 1312523
-0.1079682 -0.21038744 0.59656996 1246730
-0.10681639 -0.22009763 0.62410396 1772815
-0.10225456 -0.22353666 0.63385558 2166801
-0.099121273 -0.23074752 0.65430254 6242352
0 0 0 9396800
0 0 0 9855553
0 0 0 9856064
0 0 0 9790274
0 0 0 9987395
0 0 0 9789506
0 0 0 9659717
0 0 0 9921344
0 0 0 9855551
0 0 0 9724481
0 0 0 9593665
0 0 0 9395516
0 0 0 9329725
0 0 0 9329725
0 0 0 9001276
0 0 0 9001278
0.07040254 -1.589594 4.5074177 8870717
0.20647919 -2.8612692 8.1133518 9461826
0.15901878 -1.589594 4.5074177 9527876
0.3659884 -2.8612692 8.1133518 9593669
0.44574302 -2.8612692 8.1133518 9790530
0.52549762 -2.8612692 8.1133518 9856325
0.60525227 -2.8612692 8.1133518 10250567
0.68500686 -2.8612692 8.1133518 10250822
0.76476151 -2.8612692 8.1133518 10250825
0.8445161 -2.8612692 8.1133518 10645068
0.92427069 -2.8612692 8.1133518 10316359
1.0040253 -2.8612692 8.1133518 10578505
1.0837799 -2.8612692 8.1133518 10710345
1.4544181 -3.5765865 10.141689 10644551
1.2432891 -2.8612692 8.1133518 10775881
1.3230438 -2.8612692 8.1133518 10644553
1.4027984 -2.8612692 8.1133518 10709831
1.482553 -2.8612692 8.1133518 10906695
1.5623076 -2.8612692 8.1133518 10972745
0.54735404 -0.95375633 2.7044504 10710345
0.57393891 -0.95375633 2.7044504 11104076
0.60052377 -0.95375633 2.7044504 11300683
1.0451812 -1.589594 4.5074177 11432269
1.2256753 -1.7882932 5.0708447 11104843
1.275522 -1.7882932 5.0708447 11039308
1.3253686 -1.7882932 5.0708447 11235917
1.2224137 -1.589594 4.5074177 11302223
1.2667217 -1.589594 4.5074177 11236686
1.0726607 -1.3005769 3.687887 11564370
0.81320274 -0.95375633 2.7044504 11761488
0.8397876 -0.95375633 2.7044504 12023890
0.86637247 -0.95375633 2.7044504 11958097
1.4882623 -1.589594 4.5074177 11827025
1.2539212 -1.3005769 3.687887 11958867
1.2901733 -1.3005769 3.687887 11893844
1.6211867 -1.589594 4.5074177 12221525
0 0 0 12221781
0.85490143 -0.794797 2.2537088 12288341
0.78934997 -0.71531731 2.028338 12616025
0.80928862 -0.71531731 2.028338 12681557
0.8728708 -0.75296557 2.1350925 13075545
0.94351768 -0.794797 2.2537088 12944985
1.158806 -0.95375633 2.7044504 13207129
2.2226081 -1.7882932 5.0708447 13207386
2.2724545 -1.7882932 5.0708447 13142109
2.0642679 -1.589594 4.5074177 13142619
1.8977184 -1.4306346 4.0566759 13273694
2.152884 -1.589594 4.5074177 13405021
2.1971922 -1.589594 4.5074177 13667423
2.2415004 -1.589594 4.5074177 13667680
2.2858086 -1.589594 4.5074177 13733219
4.1942101 -2.8612692 8.1133518 13733218
5.3424554 -3.5765865 10.141689 13799520
4.3537192 -2.8612692 8.1133518 13536351
2.0152152 -1.3005769 3.687887 13996640
1.32742 -0.84154975 2.3862798 13996642
1.2086797 -0.75296557 2.1350925 13931110
1.2296677 -0.75296557 2.1350925 14192227
1.2506558 -0.75296557 2.1350925 13799263
1.510077 -0.89414662 2.5354223 14258272
1.5350003 -0.89414662 2.5354223 13864289
1.9199061 -1.1004882 3.1205199 13667679
1.950581 -1.1004882 3.1205199 13667425
2.1463604 -1.1921954 3.380563 14061665
2.1795914 -1.1921954 3.380563 13470560
2.2128224 -1.1921954 3.380563 13799520
2.6952646 -1.4306346 4.0566759 13667680
3.0390465 -1.589594 4.5074177 13536352
3.0833545 -1.589594 4.5074177 13667682
1.7593102 -0.89414662 2.5354223 13404768
1.6792786 -0.84154975 2.3862798 13272667
1.7027358 -0.84154975 2.3862798 13273440
2.4454401 -1.1921954 3.380563 13142624
5.9488115 -2.8612692 8.1133518 12945245
6.0285659 -2.8612692 8.1133518 13142108
6.1083207 -2.8612692 8.1133518 12944988
3.8675468 -1.7882932 5.0708447 13076061
4.4770207 -2.0437636 5.7952509 12813149
4.5339885 -2.0437636 5.7952509 12484954
4.5909562 -2.0437636 5.7952509 12354395
4.0669332 -1.7882932 5.0708447 12681305
3.6593602 -1.589594 4.5074177 12419161
2.2222006 -0.95375633 2.7044504 12484441
3.7479763 -1.589594 4.5074177 12353625
2.1331599 -0.89414662 2.5354223 12222555
2.1580832 -0.89414662 2.5354223 11893847
2.1830065 -0.89414662 2.5354223 11696979
2.7174523 -1.1004882 3.1205199 11959639
8.9314127 -3.5765865 10.141689 12024406
4.0138249 -1.589594 4.5074177 12024406
2.2826998 -0.89414662 2.5354223 11958615
2.3076231 -0.89414662 2.5354223 11564880
2.3325465 -0.89414662 2.5354223 11564883
2.5146344 -0.95375633 2.7044504 11302996
2.7227349 -1.0218818 2.8976254 11499350
4.8146329 -1.7882932 5.0708447 11105105
4.8644795 -1.7882932 5.0708447 11237204
4.9143262 -1.7882932 5.0708447 11171157
7.9426765 -2.8612692 8.1133518 11236690
8.0224314 -2.8612692 8.1133518 11301714
13.503642 -4.7687817 13.522252 11433300
8.1819401 -2.8612692 8.1133518 11039058
10.327118 -3.5765865 10.141689 11039570
10.426811 -3.5765865 10.141689 11039825
0 0 0 10842960
6.072113 -2.0437636 5.7952509 10907983
5.3629456 -1.7882932 5.0708447 10711887
5.4127922 -1.7882932 5.0708447 10646097
5.4626389 -1.7882932 5.0708447 10580309
4.8999872 -1.589594 4.5074177 10579539
2.0226662 -0.65028846 1.8439435 10513999
2.0407922 -0.65028846 1.8439435 10513999
2.0589182 -0.65028846 1.8439435 10448206
2.53861 -0.794797 2.2537088 10776145
5.7617188 -1.7882932 5.0708447 10710607
5.8115654 -1.7882932 5.0708447 10185804
0 0 0 10448722
5.9112587 -1.7882932 5.0708447 10512975
6.8126917 -2.0437636 5.7952509 10251087
6.8696589 -2.0437636 5.7952509 10120272
5.3873768 -1.589594 4.5074177 10054736
3.0553226 -0.89414662 2.5354223 10382418
3.080246 -0.89414662 2.5354223 10446928
3.8217468 -1.1004882 3.1205199 10512977
0 0 0 10512461
0 0 0 10315855
0 0 0 10249290
0 0 0 10053965
0 0 0 9922636
0 0 0 9856587
0 0 0 10316368
0 0 0 12747613
0 0 0 13142367
-3.7242663 -1.0698134 3.1205199 15245682
-4.0013905 -1.1589644 3.380563 15508850
-3.9681594 -1.1589644 3.380563 15772276
-3.9349284 -1.1589644 3.380563 15771504
-3.601567 -1.0698134 3.1205199 15837808
-3.3158283 -0.99339801 2.8976254 15968888
-3.2873445 -0.99339801 2.8976254 16034420
-3.2588606 -0.99339801 2.8976254 16034935
-3.230377 -0.99339801 2.8976254 16362870
-3.2018931 -0.99339801 2.8976254 16297082
-3.1734092 -0.99339801 2.8976254 15903099
-3.6690798 -1.1589644 3.380563 16230777
-4.3630185 -1.3907573 4.0566759 15639410
-3.6026175 -1.1589644 3.380563 14194540
-3.2948184 -1.0698134 3.1205199 12879968
-3.5361555 -1.1589644 3.380563 12419162
-3.2334688 -1.0698134 3.1205199 11762772
-3.4696932 -1.1589644 3.380563 11500113
-3.4364622 -1.1589644 3.380563 11762256
-3.1414442 -1.0698134 3.1205199 11696207
-3.1107693 -1.0698134 3.1205199 11565135
-3.0800946 -1.0698134 3.1205199 11367757
-3.3035378 -1.1589644 3.380563 11302734
-3.0187449 -1.0698134 3.1205199 10974800
-2.98807 -1.0698134 3.1205199 11040077
-2.9573951 -1.0698134 3.1205199 11237197
-2.9267204 -1.0698134 3.1205199 11235919
0 0 0 11104333
0 0 0 10907726
0 0 0 11105103
-4.0502524 -1.5452859 4.5074177 10907467
-2.7733459 -1.0698134 3.1205199 10974032
-2.2284203 -0.8692233 2.5354223 10776653
-2.0738795 -0.81809253 2.3862798 10841933
-2.0504222 -0.81809253 2.3862798 10841934
-2.0269649 -0.81809253 2.3862798 10973006
-2.0035079 -0.81809253 2.3862798 10644555
-1.9800506 -0.81809253 2.3862798 10643784
-2.2174723 -0.92717147 2.7044504 10776138
-2.1908875 -0.92717147 2.7044504 10448715
-2.1643026 -0.92717147 2.7044504 10513737
-2.0041103 -0.8692233 2.5354223 10316104
-1.9791871 -0.8692233 2.5354223 10250827
-1.202624 -0.53490669 1.5602599 10185032
-1.1872865 -0.53490669 1.5602599 10447945
-1.9044172 -0.8692233 2.5354223 10316361
-1.8794938 -0.8692233 2.5354223 10448456
-1.8545705 -0.8692233 2.5354223 10381639
-1.1259367 -0.53490669 1.5602599 10381895
-1.1105994 -0.53490669 1.5602599 10053447
-1.1865337 -0.5794822 1.6902815 10052932
-1.2762743 -0.63216239 1.8439435 9724481
-1.6281919 -0.81809253 2.3862798 10054218
-1.7050307 -0.8692233 2.5354223 10053700
0 0 0 10250309
0 0 0 10184774
0 0 0 10315847
0 0 0 10119239
0 0 0 9790789
0 0 0 10185034
-0.35491419 -0.20155902 0.587924 10184773
-0.34913486 -0.20155902 0.587924 10053702
-0.34335554 -0.20155902 0.587924 9593926
-0.33757621 -0.20155902 0.587924 9791046
-0.31797206 -0.19316074 0.56342721 9922114
-0.3081536 -0.1905147 0.555709 9987653
-0.30269098 -0.1905147 0.555709 9725252
0 0 0 10053447
0 0 0 9594694
0 0 0 9856581
-0.29712099 -0.20155902 0.587924 9856067
-0.27920246 -0.19316074 0.56342721 9658435
-0.2699151 -0.1905147 0.555709 8868661
-0.26812541 -0.19316074 0.56342721 8605236
-0.26258689 -0.19316074 0.56342721 6832167
-0.2570484 -0.19316074 0.56342721 4070159
-0.25150988 -0.19316074 0.56342721 2954257
-0.24597137 -0.19316074 0.56342721 2495768
-0.23393466 -0.18794017 0.54819942 6503475
-0.22549854 -0.18543431 0.5408901 6436654
-0.22018157 -0.18543431 0.5408901 5976104
-0.21203743 -0.18299438 0.53377312 5909801
-0.20410483 -0.18061782 0.52684098 5647140
-0.19892596 -0.18061782 0.52684098 5581348
-0.19126315 -0.17830223 0.52008665 5516325
-0.18379433 -0.17604522 0.51350325 5319200
-0.17651226 -0.17384467 0.50708449 5121568
-0.16940996 -0.17169842 0.50082415 4793115
-0.16654293 -0.17384467 0.50708449 4793117
-0.16360331 -0.17604522 0.51350325 4463898
-0.16058831 -0.17830223 0.52008665 4463898
-0.15749499 -0.18061782 0.52684098 4594967
-0.15231612 -0.18061782 0.52684098 4070165
-0.14713725 -0.18061782 0.52684098 4135958
-0.14382626 -0.18299438 0.53377312 4003605
-0.14427428 -0.1905147 0.555709 3085070
-0.14073958 -0.19316074 0.56342721 2165774
-0.13906395 -0.19867961 0.57952511 1641229
-0.1333672 -0.19867961 0.57952511 1312523
-0.12767044 -0.19867961 0.57952511 983558
-0.12197368 -0.19867961 0.57952511 1115145
-0.11627692 -0.19867961 0.57952511 984073
-0.11218277 -0.20155902 0.587924 1640717
-0.10640345 -0.20155902 0.587924 1772043
-0.10362784 -0.20757572 0.605474 1641486
-0.10068142 -0.21396266 0.62410396 1509645
-0.099121273 -0.22431569 0.65430254 4072992
0 0 0 8672829
0 0 0 9854785
0 0 0 9855551
0 0 0 9789505
0 0 0 9395518
0 0 0 9855551
0 0 0 9723965
0 0 0 9462081
0 0 0 9593149
0 0 0 9133627
0 0 0 9263932
-0.061829198 -0.63216239 1.8439435 9263162
-0.04370315 -0.63216239 1.8439435 8935998
-0.025577104 -0.63216239 1.8439435 9001534
-0.01260948 -1.0698134 3.1205199 9789764
0.018065371 -1.0698134 3.1205199 9855043
0 0 0 9790018
0 0 0 10249543
0 0 0 9855297
0.3659884 -2.7815146 8.1133518 10250307
0.44574302 -2.7815146 8.1133518 10512966
0.52549762 -2.7815146 8.1133518 10447174
0.60525227 -2.7815146 8.1133518 10643782
0.68500686 -2.7815146 8.1133518 10776397
0.76476151 -2.7815146 8.1133518 10578757
0.8445161 -2.7815146 8.1133518 10776395
0.92427069 -2.7815146 8.1133518 10906953
1.0040253 -2.7815146 8.1133518 10972490
1.0837799 -2.7815146 8.1133518 11104329
1.1635345 -2.7815146 8.1133518 11038281
1.2432891 -2.7815146 8.1133518 11104076
1.3230438 -2.7815146 8.1133518 11038285
1.4027984 -2.7815146 8.1133518 10776139
0.92659557 -1.7384466 5.0708447 11169611
0.97644222 -1.7384466 5.0708447 11170125
0.63156235 -1.0698134 3.1205199 11170124
0.57393891 -0.92717147 2.7044504 11170124
0.60052377 -0.92717147 2.7044504 11170124
0.72358692 -1.0698134 3.1205199 11236687
1.0894892 -1.5452859 4.5074177 11105614
0.60024565 -0.81809253 2.3862798 11367503
0.66268432 -0.8692233 2.5354223 11171149
0.91681015 -1.1589644 3.380563 11236688
1.2667217 -1.5452859 4.5074177 11434065
0.78661782 -0.92717147 2.7044504 11499089
0.76237756 -0.8692233 2.5354223 11696466
0.78730088 -0.8692233 2.5354223 11564879
0.81222421 -0.8692233 2.5354223 11893074
0.83714753 -0.8692233 2.5354223 12222036
0.81136078 -0.81809253 2.3862798 12090712
0.83481801 -0.81809253 2.3862798 12484439
0.85827523 -0.81809253 2.3862798 12484439
0 0 0 12485207
0.90518975 -0.81809253 2.3862798 12878939
0.78934997 -0.69537866 2.028338 12682590
0.80928862 -0.69537866 2.028338 13010270
0.8728708 -0.73197752 2.1350925 12747609
0.94351768 -0.77264297 2.2537088 13207898
1.0863807 -0.8692233 2.5354223 13404763
1.1853908 -0.92717147 2.7044504 13601887
1.1362273 -0.8692233 2.5354223 13600861
1.1611506 -0.8692233 2.5354223 13733727
1.4597833 -1.0698134 3.1205199 14126688
1.614663 -1.1589644 3.380563 13667680
1.647894 -1.1589644 3.380563 13601888
1.4409643 -0.99339801 2.8976254 13601887
1.2857672 -0.8692233 2.5354223 13405280
2.3301165 -1.5452859 4.5074177 13995876
2.6712277 -1.7384466 5.0708447 14062690
2.4187329 -1.5452859 4.5074177 13996386
1.3039628 -0.81809253 2.3862798 14128228
1.1876916 -0.73197752 2.1350925 13864804
1.2086797 -0.73197752 2.1350925 13798754
1.2296677 -0.73197752 2.1350925 14126946
1.2506558 -0.73197752 2.1350925 13930595
1.2716439 -0.73197752 2.1350925 13734243
1.5350003 -0.8692233 2.5354223 13668705
1.9199061 -1.0698134 3.1205199 13668704
1.950581 -1.0698134 3.1205199 13865570
2.1463604 -1.1589644 3.380563 13995357
2.1795914 -1.1589644 3.380563 13733984
2.2128224 -1.1589644 3.380563 13667680
2.2460537 -1.1589644 3.380563 13601372
2.7351418 -1.3907573 4.0566759 13470049
3.0833545 -1.5452859 4.5074177 13601889
1.7593102 -0.8692233 2.5354223 13535071
1.7842335 -0.8692233 2.5354223 13339746
1.7027358 -0.81809253 2.3862798 13339231
4.192183 -1.986796 5.7952509 12945760
5.9488115 -2.7815146 8.1133518 12814944
7.535707 -3.4768932 10.141689 12879452
2.5451334 -1.1589644 3.380563 12878936
3.8675468 -1.7384466 5.0708447 13206874
3.9173934 -1.7384466 5.0708447 12681814
1.7632179 -0.77264297 2.2537088 12551260
1.7853719 -0.77264297 2.2537088 12419930
3.615052 -1.5452859 4.5074177 12484953
3.6593602 -1.5452859 4.5074177 12484700
2.2222006 -0.92717147 2.7044504 12483926
2.1082366 -0.8692233 2.5354223 12221269
2.1331599 -0.8692233 2.5354223 12156762
2.1580832 -0.8692233 2.5354223 12484701
2.1830065 -0.8692233 2.5354223 12091223
2.2079298 -0.8692233 2.5354223 11827797
0 0 0 12090199
7.224885 -2.7815146 8.1133518 11828053
2.2826998 -0.8692233 2.5354223 11762775
2.1718805 -0.81809253 2.3862798 11893336
2.1953378 -0.81809253 2.3862798 11630677
2.3574698 -0.8692233 2.5354223 11302997
2.5412192 -0.92717147 2.7044504 11564627
2.7512186 -0.99339801 2.8976254 11302740
2.993526 -1.0698134 3.1205199 11760468
4.9143262 -1.7384466 5.0708447 11105105
7.9426765 -2.7815146 8.1133518 11105618
5.0140195 -1.7384466 5.0708447 11170898
3.6828115 -1.2643248 3.687887 10909010
3.7190635 -1.2643248 3.687887 11171155
5.163559 -1.7384466 5.0708447 11104847
5.958178 -1.986796 5.7952509 10908498
0 0 0 10777171
6.072113 -1.986796 5.7952509 10974036
5.3629456 -1.7384466 5.0708447 10776146
5.4127922 -1.7384466 5.0708447 10907987
5.4626389 -1.7384466 5.0708447 10645841
2.0045402 -0.63216239 1.8439435 10580049
2.0226662 -0.63216239 1.8439435 10711377
2.0407922 -0.63216239 1.8439435 10514256
2.0589182 -0.63216239 1.8439435 10580305
2.53861 -0.77264297 2.2537088 10579023
2.8808594 -0.8692233 2.5354223 10317648
0 0 0 10449233
0 0 0 10579022
0 0 0 10448722
0 0 0 10317140
6.010952 -1.7384466 5.0708447 10053968
5.3873768 -1.5452859 4.5074177 10184782
3.0553226 -0.8692233 2.5354223 10316110
3.080246 -0.8692233 2.5354223 10184782
5.5203009 -1.5452859 4.5074177 10315855
0 0 0 10709843
0 0 0 10381391
0 0 0 10120011
0 0 0 10119756
0 0 0 10053710
0 0 0 9987917
0 0 0 9922380
0 0 0 12878684
0 0 0 13077089
-4.0346217 -1.1257333 3.380563 14851955
-4.0013905 -1.1257333 3.380563 15244911
-3.9681594 -1.1257333 3.380563 14982763
-3.9349284 -1.1257333 3.380563 15114351
-3.601567 -1.0391384 3.1205199 15836271
-3.5708921 -1.0391384 3.1205199 15180651
-3.2873445 -0.96491426 2.8976254 15179886
-3.5095425 -1.0391384 3.1205199 15179626
-3.4788675 -1.0391384 3.1205199 15640429
-3.4481928 -1.0391384 3.1205199 15837808
-3.4175179 -1.0391384 3.1205199 15705712
-4.4028959 -1.35088 4.0566759 15639404
-4.3630185 -1.35088 4.0566759 15705453
-4.8034906 -1.5009779 4.5074177 15245417
-4.2832642 -1.35088 4.0566759 14983275
-4.2433867 -1.35088 4.0566759 14720874
-4.2035093 -1.35088 4.0566759 13340253
-4.1636324 -1.35088 4.0566759 12155729
-4.123755 -1.35088 4.0566759 11761742
-3.4032311 -1.1257333 3.380563 11499600
-3.3699999 -1.1257333 3.380563 11630930
-3.3367689 -1.1257333 3.380563 11762001
-3.3035378 -1.1257333 3.380563 11695950
-3.0187449 -1.0391384 3.1205199 11564622
-2.98807 -1.0391384 3.1205199 11301712
-2.9573951 -1.0391384 3.1205199 11367503
-3.1706135 -1.1257333 3.380563 11301453
-3.1373823 -1.1257333 3.380563 11367757
0 0 0 11302220
0 0 0 11367757
-4.0502524 -1.5009779 4.5074177 11694669
-3.60535 -1.35088 4.0566759 11366991
-2.2284203 -0.84429997 2.5354223 11104588
-2.0738795 -0.7946353 2.3862798 11301455
-2.0504222 -0.7946353 2.3862798 11234890
-2.0269649 -0.7946353 2.3862798 11170124
-2.0035079 -0.7946353 2.3862798 11038540
-1.9800506 -0.7946353 2.3862798 10710859
-2.2174723 -0.90058661 2.7044504 10645580
-2.1908875 -0.90058661 2.7044504 10644554
-2.1643026 -0.90058661 2.7044504 10710347
-3.2065768 -1.35088 4.0566759 10710600
-2.1111329 -0.90058661 2.7044504 10710603
-2.084548 -0.90058661 2.7044504 10579019
-1.9293405 -0.84429997 2.5354223 10709575
-1.9044172 -0.84429997 2.5354223 10512968
-1.8794938 -0.84429997 2.5354223 10906697
-1.8545705 -0.84429997 2.5354223 10644039
-1.1259367 -0.51956922 1.5602599 10446918
-1.1550233 -0.54035199 1.6226703 10447688
-1.1865337 -0.56286663 1.6902815 10316618
-1.2762743 -0.61403632 1.8439435 10381384
-1.2581483 -0.61403632 1.8439435 10645067
-1.5155829 -0.75048894 2.2537088 10119751
-1.5812775 -0.7946353 2.3862798 10054211
0 0 0 10251077
0 0 0 10119751
0 0 0 10316102
0 0 0 10512712
0 0 0 10447176
0 0 0 10183490
-0.34913486 -0.1957797 0.587924 10185286
-0.34840488 -0.19865882 0.59656996 10185031
-0.34254059 -0.19865882 0.59656996 10577989
-0.33179691 -0.1957797 0.587924 10446404
-0.31243354 -0.18762223 0.56342721 10447689
-0.30689502 -0.18762223 0.56342721 10120009
-0.30560097 -0.19026479 0.57136279 10119239
-0.30867961 -0.1957797 0.587924 10316102
-0.30290031 -0.1957797 0.587924 10578247
-0.29287642 -0.19298285 0.57952511 10119237
-0.28313488 -0.19026479 0.57136279 10250310
-0.27751836 -0.19026479 0.57136279 9592897
-0.27190182 -0.19026479 0.57136279 8409654
-0.2662853 -0.19026479 0.57136279 7094571
-0.26066878 -0.19026479 0.57136279 3545867
-0.25150988 -0.18762223 0.56342721 2099720
-0.24597137 -0.18762223 0.56342721 3612191
-0.23713924 -0.18505205 0.555709 5976877
-0.22854583 -0.18255134 0.54819942 6108460
-0.22018157 -0.18011732 0.5408901 6107692
-0.21203743 -0.17774737 0.53377312 5713191
-0.20410483 -0.17543896 0.52684098 5647143
-0.19892596 -0.17543896 0.52684098 5712675
-0.19374709 -0.17543896 0.52684098 5449762
-0.18615068 -0.17318974 0.52008665 5187103
-0.17874658 -0.17099747 0.51350325 5251870
-0.17152759 -0.16886 0.50708449 4792604
-0.16865106 -0.17099747 0.51350325 4529943
-0.16570078 -0.17318974 0.52008665 4267033
-0.16267386 -0.17543896 0.52684098 4332826
-0.1595673 -0.17774737 0.53377312 4201237
-0.15432028 -0.17774737 0.53377312 4201493
-0.14907327 -0.17774737 0.53377312 4266773
-0.14382626 -0.17774737 0.53377312 4004117
-0.14232463 -0.18255134 0.54819942 3348245
-0.13881163 -0.18505205 0.555709 2428172
-0.13520107 -0.18762223 0.56342721 1837838
-0.1333672 -0.19298285 0.57952511 1706252
-0.12767044 -0.19298285 0.57952511 1115144
-0.12197368 -0.19298285 0.57952511 918280
-0.11627692 -0.19298285 0.57952511 852489
-0.11218277 -0.1957797 0.587924 787463
-0.10640345 -0.1957797 0.587924 1640717
-0.10362784 -0.20162389 0.605474 1771789
-0.10387765 -0.2144254 0.64391679 1904402
-0.10781612 -0.2369965 0.71169752 2166545
0 0 0 7621423
0 0 0 9394235
0 0 0 9461309
0 0 0 9854784
0 0 0 9396288
0 0 0 9658690
0 0 0 9396288
0 0 0 9264448
0 0 0 9526334
0 0 0 9263162
0 0 0 9133375
-0.056676764 -0.56286663 1.6902815 9461827
-0.03697959 -0.51956922 1.5602599 9659972
-0.020096295 -0.48245713 1.4488127 9856066
-0.0058544013 -0.48245713 1.4488127 10052933
0.0093939919 -0.54035199 1.6226703 10315335
0.048740219 -1.0391384 3.1205199 10250055
0 0 0 10382665
0 0 0 10578759
0 0 0 10776136
0 0 0 10710599
0.52549762 -2.7017601 8.1133518 10841162
0.60525227 -2.7017601 8.1133518 10776905
0.68500686 -2.7017601 8.1133518 10907466
0.76476151 -2.7017601 8.1133518 11104589
0.8445161 -2.7017601 8.1133518 11235401
0.92427069 -2.7017601 8.1133518 11039050
1.0040253 -2.7017601 8.1133518 11366731
1.0837799 -2.7017601 8.1133518 11235917
1.1635345 -2.7017601 8.1133518 11301197
1.2432891 -2.7017601 8.1133518 11104590
0.82690233 -1.6885999 5.0708447 11038287
0.77933246 -1.5009779 4.5074177 11170126
0.61773038 -1.1257333 3.380563 11236431
0.65096146 -1.1257333 3.380563 11564624
0.51314443 -0.84429997 2.5354223 11302478
0.53806776 -0.84429997 2.5354223 11564368
0.56299102 -0.84429997 2.5354223 11563853
0.58791435 -0.84429997 2.5354223 11301969
0.61283767 -0.84429997 2.5354223 11367757
0.5668987 -0.75048894 2.2537088 11629132
0.58905274 -0.75048894 2.2537088 11695695
0.84628636 -1.0391384 3.1205199 11696464
0.87696117 -1.0391384 3.1205199 11630415
0.73745424 -0.84429997 2.5354223 11959383
0.67766899 -0.75048894 2.2537088 12155476
0.74098909 -0.7946353 2.3862798 12024402
0.72197711 -0.75048894 2.2537088 12155731
0.49608743 -0.50032592 1.5024725 12353109
0.51085681 -0.50032592 1.5024725 12419672
0.52562618 -0.50032592 1.5024725 12420184
0.72953403 -0.67544001 2.028338 12812119
0.74947268 -0.67544001 2.028338 12747098
0.76941133 -0.67544001 2.028338 13141338
0.78934997 -0.67544001 2.028338 12813399
0.80928862 -0.67544001 2.028338 13141851
0.8728708 -0.71098948 2.1350925 13272928
0.89385885 -0.71098948 2.1350925 13338715
0.9148469 -0.71098948 2.1350925 13404509
1.111304 -0.84429997 2.5354223 13536096
1.0693904 -0.7946353 2.3862798 13536091
1.0928476 -0.7946353 2.3862798 13405022
1.1860739 -0.84429997 2.5354223 13667936
1.3839968 -0.96491426 2.8976254 13863775
1.2359205 -0.84429997 2.5354223 13864289
1.1866766 -0.7946353 2.3862798 13995358
1.0286138 -0.67544001 2.028338 14192227
1.1037394 -0.71098948 2.1350925 13996130
1.1247275 -0.71098948 2.1350925 13931104
1.1457155 -0.71098948 2.1350925 13930850
1.1667036 -0.71098948 2.1350925 14061922
1.1876916 -0.71098948 2.1350925 13931106
1.2086797 -0.71098948 2.1350925 14126943
1.2296677 -0.71098948 2.1350925 13602909
1.2506558 -0.71098948 2.1350925 14127973
1.2080617 -0.67544001 2.028338 14061665
1.2926319 -0.71098948 2.1350925 13472099
1.9199061 -1.0391384 3.1205199 13603170
1.950581 -1.0391384 3.1205199 14062692
1.9812558 -1.0391384 3.1205199 14128485
2.0119307 -1.0391384 3.1205199 14125919
2.0426054 -1.0391384 3.1205199 13667682
1.2834592 -0.64327615 1.9317503 13799521
1.3024484 -0.64327615 1.9317503 13799009
1.4605364 -0.71098948 2.1350925 13536094
1.6558213 -0.7946353 2.3862798 13207899
1.7842335 -0.84429997 2.5354223 13339742
1.8091568 -0.84429997 2.5354223 13208415
3.260587 -1.5009779 4.5074177 13011553
1.3520025 -0.61403632 1.8439435 13076575
1.4353727 -0.64327615 1.9317503 12945242
1.4543619 -0.64327615 1.9317503 13011035
1.4733511 -0.64327615 1.9317503 12813402
1.4923403 -0.64327615 1.9317503 13143138
1.5113295 -0.64327615 1.9317503 12616795
1.5303187 -0.64327615 1.9317503 12749151
1.5493079 -0.64327615 1.9317503 12616025
1.568297 -0.64327615 1.9317503 12353116
1.8518342 -0.75048894 2.2537088 12352855
1.8739882 -0.75048894 2.2537088 12222809
2.0076799 -0.7946353 2.3862798 12417877
2.0311372 -0.7946353 2.3862798 12221269
2.1830065 -0.84429997 2.5354223 12024918
1.5359511 -0.5873391 1.763772 11959126
1.5532892 -0.5873391 1.763772 11828056
1.5706271 -0.5873391 1.763772 11827798
1.7391998 -0.64327615 1.9317503 11631448
1.758189 -0.64327615 1.9317503 11500121
1.7771782 -0.64327615 1.9317503 11433813
2.2187951 -0.7946353 2.3862798 11763035
2.2422523 -0.7946353 2.3862798 11695443
2.2657096 -0.7946353 2.3862798 11432789
2.2891667 -0.7946353 2.3862798 11696471
1.8721242 -0.64327615 1.9317503 11565142
1.7266687 -0.5873391 1.763772 11433299
1.7440066 -0.5873391 1.763772 11170897
1.7613447 -0.5873391 1.763772 10973778
1.8595318 -0.61403632 1.8439435 11170384
1.7960205 -0.5873391 1.763772 10777427
1.8957839 -0.61403632 1.8439435 11171412
2.3392234 -0.75048894 2.2537088 11302482
2.3613775 -0.75048894 2.2537088 11038288
1.9501621 -0.61403632 1.8439435 10775886
1.8042641 -0.56286663 1.6902815 10710604
1.8208796 -0.56286663 1.6902815 10711118
1.8374952 -0.56286663 1.6902815 10513997
1.8541107 -0.56286663 1.6902815 10645585
1.9520621 -0.5873391 1.763772 10120528
2.0589182 -0.61403632 1.8439435 10120269
2.1759512 -0.64327615 1.9317503 10382157
2.0951705 -0.61403632 1.8439435 10710609
0 0 0 10579536
0 0 0 10382929
0 0 0 10449237
0 0 0 10381645
6.8696589 -1.9298285 5.7952509 10251601
5.3873768 -1.5009779 4.5074177 10317393
2.8755977 -0.7946353 2.3862798 10184784
2.899055 -0.7946353 2.3862798 9988948
5.5203009 -1.5009779 4.5074177 10119506
0 0 0 10250833
0 0 0 10119502
0 0 0 10119757
0 0 0 10315600
0 0 0 9921610
0 0 0 10184780
0 0 0 9987916
0 0 0 12682588
0 0 0 13142882
-4.0346217 -1.0925022 3.380563 14260592
-4.0013905 -1.0925022 3.380563 15309677
-3.9681594 -1.0925022 3.380563 14588781
-3.9349284 -1.0925022 3.380563 14720366
-3.601567 -1.0084636 3.1205199 14589806
-3.5708921 -1.0084636 3.1205199 14916972
-3.5402174 -1.0084636 3.1205199 14918513
-3.5095425 -1.0084636 3.1205199 14524011
-3.4788675 -1.0084636 3.1205199 14852203
-3.4481928 -1.0084636 3.1205199 15179626
-3.7023108 -1.0925022 3.380563 15508333
-3.6690798 -1.0925022 3.380563 14720615
-4.3630185 -1.3110027 4.0566759 14917481
-4.8034906 -1.4566697 4.5074177 15311472
-4.2832642 -1.3110027 4.0566759 14720876
-4.2433867 -1.3110027 4.0566759 14982247
-4.2035093 -1.3110027 4.0566759 13273424
-4.1636324 -1.3110027 4.0566759 11827532
-3.7488678 -1.1918206 3.687887 12287317
-3.4032311 -1.0925022 3.380563 11762260
-3.3699999 -1.0925022 3.380563 11893590
-3.3367689 -1.0925022 3.380563 11762518
-3.3035378 -1.0925022 3.380563 11368272
-3.0187449 -1.0084636 3.1205199 11500113
-2.98807 -1.0084636 3.1205199 11499343
-2.9573951 -1.0084636 3.1205199 11498831
-3.1706135 -1.0925022 3.380563 11367246
-3.1373823 -1.0925022 3.380563 11630672
-3.7249818 -1.3110027 4.0566759 11564877
0 0 0 11630675
-4.0502524 -1.4566697 4.5074177 11433295
-4.0059443 -1.4566697 4.5074177 11367503
-3.5654726 -1.3110027 4.0566759 11498829
-2.0738795 -0.77117807 2.3862798 11366989
-2.0504222 -0.77117807 2.3862798 11235919
-2.0269649 -0.77117807 2.3862798 11105615
-2.0035079 -0.77117807 2.3862798 10973261
-1.9800506 -0.77117807 2.3862798 11104332
-1.9565933 -0.77117807 2.3862798 10973516
-2.053957 -0.81937665 2.5354223 10840904
-2.0290337 -0.81937665 2.5354223 11104334
-2.0041103 -0.81937665 2.5354223 10907722
-1.9791871 -0.81937665 2.5354223 10972747
-1.9542638 -0.81937665 2.5354223 10776651
-1.9293405 -0.81937665 2.5354223 10580044
-1.9044172 -0.81937665 2.5354223 10644552
-1.8794938 -0.81937665 2.5354223 10644809
-1.4130061 -0.62428695 1.9317503 10578759
-1.1259367 -0.50423181 1.5602599 10578759
-1.1550233 -0.52440107 1.6226703 10447434
-1.1390724 -0.52440107 1.6226703 10513229
-1.2762743 -0.59591031 1.8439435 10644298
-1.3839632 -0.65550137 2.028338 10448202
-1.5155829 -0.72833484 2.2537088 10645067
-1.4934288 -0.72833484 2.2537088 10382411
-1.5578202 -0.77117807 2.3862798 10578757
0 0 0 10776138
0 0 0 10644811
0 0 0 10447688
0 0 0 10709318
0 0 0 10381895
-0.35955682 -0.19567205 0.605474 10381891
-0.35360497 -0.19567205 0.605474 10513479
-0.34254059 -0.19279452 0.59656996 10512711
-0.33667627 -0.19279452 0.59656996 10382408
-0.32601759 -0.19000039 0.587924 10447688
-0.30689502 -0.18208371 0.56342721 10841675
-0.30560097 -0.18464828 0.57136279 10776138
-0.30867961 -0.19000039 0.587924 10973004
-0.30290031 -0.19000039 0.587924 10906955
-0.29287642 -0.18728609 0.57952511 10775111
-0.28717965 -0.18728609 0.57952511 10447171
-0.27751836 -0.18464828 0.57136279 9855551
-0.27190182 -0.18464828 0.57136279 9329723
-0.27008939 -0.18728609 0.57952511 8739132
-0.26439261 -0.18728609 0.57952511 3807760
-0.25505227 -0.18464828 0.57136279 1509129
-0.24943574 -0.18464828 0.57136279 3809828
-0.23713924 -0.17958941 0.555709 6173483
-0.23167659 -0.17958941 0.555709 5911598
-0.223157 -0.17716253 0.54819942 5517610
-0.21203743 -0.17250036 0.53377312 5385768
-0.20410483 -0.17026009 0.52684098 5319718
-0.19892596 -0.17026009 0.52684098 5319973
-0.19374709 -0.17026009 0.52684098 4989983
-0.18856822 -0.17026009 0.52684098 4990495
-0.1810382 -0.16807728 0.52008665 4661529
-0.17369881 -0.1659497 0.51350325 4727070
-0.17081326 -0.16807728 0.52008665 4595738
-0.16570078 -0.16807728 0.52008665 4267287
-0.16481431 -0.17250036 0.53377312 4333081
-0.1595673 -0.17250036 0.53377312 4529944
-0.15432028 -0.17250036 0.53377312 4463895
-0.14907327 -0.17250036 0.53377312 4135701
-0.14382626 -0.17250036 0.53377312 4332312
-0.14232463 -0.17716253 0.54819942 3872788
-0.1369358 -0.17716253 0.54819942 3019280
-0.13334899 -0.17958941 0.555709 2231054
-0.1333672 -0.18728609 0.57952511 1640203
-0.12767044 -0.18728609 0.57952511 1246729
-0.12197368 -0.18728609 0.57952511 1115401
-0.11796208 -0.19000039 0.587924 983815
-0.11218277 -0.19000039 0.587924 852742
-0.10640345 -0.19000039 0.587924 1049352
-0.10519795 -0.19863676 0.61464781 1509132
-0.10728347 -0.21491848 0.66502881 1574410
-0.10074621 -0.21491848 0.66502881 2100749
-0.10082011 -0.23000048 0.71169752 5846305
0 0 0 9067321
0 0 0 9067575
0 0 0 9462081
0 0 0 9461311
0 0 0 9198137
0 0 0 8869174
0 0 0 9394748
0 0 0 9592643
0 0 0 9658690
0 0 0 9659460
0 0 0 9658690
-0.034338191 -0.46821523 1.4488127 10052676
-0.020096295 -0.46821523 1.4488127 10315588
-0.0058544013 -0.46821523 1.4488127 10513224
0.008387493 -0.46821523 1.4488127 10512970
0.026400952 -0.54625112 1.6902815 10841414
0 0 0 11105360
0 0 0 10972743
0 0 0 11236426
0 0 0 11432526
0 0 0 11432778
0 0 0 11301711
0 0 0 11367246
0 0 0 11498058
0.8445161 -2.6220055 8.1133518 11171149
0.5134837 -1.4566697 4.5074177 11367503
0.71716088 -1.8728609 5.7952509 11498829
0.7741285 -1.8728609 5.7952509 11433548
0.96961206 -2.1850045 6.761126 11564109
1.2432891 -2.6220055 8.1133518 11302222
0.3891305 -0.77117807 2.3862798 11433550
0.41258773 -0.77117807 2.3862798 11498831
0.49418429 -0.87400174 2.7044504 11498315
0.60088754 -1.0084636 3.1205199 11368016
0.51314443 -0.81937665 2.5354223 11433550
0.53806776 -0.81937665 2.5354223 11564624
0.56299102 -0.81937665 2.5354223 11302221
0.58791435 -0.81937665 2.5354223 11761489
0.57678843 -0.77117807 2.3862798 11760716
0.37793246 -0.48555654 1.5024725 11565136
0.37867674 -0.46821523 1.4488127 11762516
0.64716011 -0.77117807 2.3862798 11828050
0.60002607 -0.69000143 2.1350925 12089425
0.62101412 -0.69000143 2.1350925 12287062
0.58085907 -0.62428695 1.9317503 12090449
0.59984827 -0.62428695 1.9317503 11959635
0.46412811 -0.46821523 1.4488127 12353108
0.47837001 -0.46821523 1.4488127 12222036
0.49261189 -0.46821523 1.4488127 12550743
0.50685376 -0.46821523 1.4488127 12747866
0.54039556 -0.48555654 1.5024725 12747350
0.74947268 -0.65550137 2.028338 12878164
0.76941133 -0.65550137 2.028338 12944988
0.78934997 -0.65550137 2.028338 13076313
0.80928862 -0.65550137 2.028338 13207898
0.8728708 -0.69000143 2.1350925 13470302
0.84916592 -0.65550137 2.028338 13535840
0.9148469 -0.69000143 2.1350925 13602145
1.0459331 -0.77117807 2.3862798 13405793
1.0693904 -0.77117807 2.3862798 13668700
1.0928476 -0.77117807 2.3862798 13537118
1.1163049 -0.77117807 2.3862798 13799266
1.2109972 -0.81937665 2.5354223 13929828
1.0985961 -0.72833484 2.2537088 13798751
1.0086751 -0.65550137 2.028338 13930592
0.97963214 -0.62428695 1.9317503 13997415
1.0485525 -0.65550137 2.028338 13996897
1.0684911 -0.65550137 2.028338 13996641
1.0884298 -0.65550137 2.028338 13799518
1.1083684 -0.65550137 2.028338 14128484
1.1283071 -0.65550137 2.028338 13865570
1.1482457 -0.65550137 2.028338 14192227
1.1681844 -0.65550137 2.028338 13996127
1.188123 -0.65550137 2.028338 13930847
1.2080617 -0.65550137 2.028338 13603167
1.2926319 -0.69000143 2.1350925 14324067
1.31362 -0.69000143 2.1350925 13930079
1.334608 -0.69000143 2.1350925 13864804
1.3555961 -0.69000143 2.1350925 13865573
1.307755 -0.65550137 2.028338 13733216
1.26447 -0.62428695 1.9317503 13799264
1.2834592 -0.62428695 1.9317503 13602401
1.3024484 -0.62428695 1.9317503 13471074
1.3214376 -0.62428695 1.9317503 13799264
1.3404268 -0.62428695 1.9317503 13536096
1.359416 -0.62428695 1.9317503 13535326
1.3157504 -0.59591031 1.8439435 12878941
1.2758818 -0.57000113 1.763772 13077343
1.2932198 -0.57000113 1.763772 12879450
1.3105577 -0.57000113 1.763772 12683358
1.3278956 -0.57000113 1.763772 12749151
1.4063807 -0.59591031 1.8439435 12748379
1.4923403 -0.62428695 1.9317503 12551516
1.4426327 -0.59591031 1.8439435 12551003
1.4607588 -0.59591031 1.8439435 12551515
1.3556443 -0.54625112 1.6902815 12287832
1.37226 -0.54625112 1.6902815 12615512
1.3333205 -0.52440107 1.6226703 12419415
1.533263 -0.59591031 1.8439435 12550746
1.7065281 -0.65550137 2.028338 12352602
1.6442538 -0.62428695 1.9317503 12483674
1.5186132 -0.57000113 1.763772 12090201
1.4719532 -0.54625112 1.6902815 12025433
1.5532892 -0.57000113 1.763772 11828567
1.5706271 -0.57000113 1.763772 11827797
