# .PCD v0.7 - Point Cloud Data file format
VERSION 0.7
FIELDS x y z rgb
SIZE 4 4 4 4
TYPE F F F U
COUNT 1 1 1 1
WIDTH 1316
HEIGHT 1
VIEWPOINT 0 0 0 1 0 0 0
POINTS 1316
DATA ascii
-2.8096251 -1.6339022 4.5074177 9592385
-2.262532 -1.3368289 3.687887 9724740
-2.22628 -1.3368289 3.687887 9395518
-2.6767008 -1.6339022 4.5074177 9461824
-2.6323926 -1.6339022 4.5074177 9527104
-2.5880845 -1.6339022 4.5074177 9396031
-2.5437765 -1.6339022 4.5074177 9395518
-2.4994683 -1.6339022 4.5074177 9198909
-2.4551601 -1.6339022 4.5074177 9198909
-2.7122085 -1.8381399 5.0708447 9264702
-2.6623619 -1.8381399 5.0708447 9396033
-2.9857316 -2.1007311 5.7952509 9068352
-3.4168913 -2.4508531 6.761126 9199167
-4.0205154 -2.9410238 8.1133518 8936510
-3.9407606 -2.9410238 8.1133518 9002303
-3.2175047 -2.4508531 6.761126 8804151
-3.1510427 -2.4508531 6.761126 8935485
-3.0845804 -2.4508531 6.761126 9001530
-3.0181184 -2.4508531 6.761126 8804667
-2.9516561 -2.4508531 6.761126 8673342
-3.4622331 -2.9410238 8.1133518 8475961
-3.3824785 -2.9410238 8.1133518 8541497
-3.3027239 -2.9410238 8.1133518 8738619
-3.2229691 -2.9410238 8.1133518 9066041
-2.2451532 -2.1007311 5.7952509 9198654
-1.9146624 -1.8381399 5.0708447 9395775
-1.8648157 -1.8381399 5.0708447 9462081
-2.9039507 -2.9410238 8.1133518 9592127
-4.7069931 -4.9017062 13.522252 9395516
-4.574069 -4.9017062 13.522252 9986367
-6.6617169 -7.3525596 20.283379 9921344
-4.3082199 -4.9017062 13.522252 9986114
-4.1752958 -4.9017062 13.522252 9855549
-4.0423713 -4.9017062 13.522252 10051647
-3.9094472 -4.9017062 13.522252 9986883
-2.8323922 -3.6762798 10.141689 9986367
-1.8217992 -2.4508531 6.761126 9987137
-1.3165028 -1.8381399 5.0708447 10118210
-0.67554992 -0.9803412 2.7044504 9986882
-1.2168095 -1.8381399 5.0708447 10183488
0 0 0 9328695
0 0 0 9395001
-0.1237414 -0.21311766 0.587924 3282959
-0.11796208 -0.21311766 0.587924 2429202
-0.11058016 -0.21007313 0.57952511 2955286
-0.10057312 -0.20143999 0.555709 6568237
-0.095110483 -0.20143999 0.555709 6699309
-0.08843638 -0.19871782 0.54819942 6633003
-0.083047554 -0.19871782 0.54819942 6042667
-0.076623276 -0.19606826 0.5408901 5647141
-0.071306303 -0.19606826 0.5408901 4858910
-0.065121047 -0.1934884 0.53377312 4661018
-0.059874035 -0.1934884 0.53377312 4266778
-0.054627024 -0.1934884 0.53377312 3939609
-0.049380008 -0.1934884 0.53377312 3281426
-0.043559838 -0.19097556 0.52684098 2362125
-0.038380966 -0.19097556 0.52684098 1574409
-0.033202097 -0.19097556 0.52684098 1181449
-0.028391954 -0.1934884 0.53377312 1771790
-0.02314494 -0.1934884 0.53377312 2231312
-0.017897926 -0.1934884 0.53377312 2559758
-0.012819591 -0.19606826 0.5408901 2953233
-0.0076040039 -0.19871782 0.54819942 3085330
-0.0022151789 -0.19871782 0.54819942 3282451
0.0032171207 -0.20143999 0.555709 2887437
0.0086797653 -0.20143999 0.555709 4004627
0.014540788 -0.20711435 0.57136279 3873301
0.02044527 -0.21007313 0.57952511 2165519
0.026520899 -0.21311766 0.587924 1245704
0.032300219 -0.21311766 0.587924 787207
0.038639531 -0.21625175 0.59656996 983815
0.045168076 -0.2194794 0.605474 984072
0.051119912 -0.2194794 0.605474 1378572
0.057936471 -0.22280481 0.61464781 7819068
0.063978486 -0.22280481 0.61464781 9527618
0.071097746 -0.2262326 0.62410396 9987396
0.077232711 -0.2262326 0.62410396 10118984
0.084670305 -0.22976749 0.63385558 9987655
0.090901129 -0.22976749 0.63385558 10381641
0.09713196 -0.22976749 0.63385558 10579527
0.11025364 -0.2450853 0.67611259 10250055
0.11689986 -0.2450853 0.67611259 10250055
0.11956072 -0.23717934 0.65430254 10381893
0.12599254 -0.23717934 0.65430254 10577989
0.13242437 -0.23717934 0.65430254 10251847
0.13885619 -0.23717934 0.65430254 10512964
0.18383382 -0.30010447 0.82789302 10840909
0 0 0 10907211
0 0 0 10776398
0 0 0 10906697
0 0 0 11170125
0 0 0 10907724
0 0 0 10908238
0.19665445 -0.2450853 0.67611259 11039308
0.27722821 -0.33420724 0.92197174 10973517
0 0 0 11104845
0 0 0 11367758
0 0 0 11433552
0 0 0 11958095
0 0 0 11631186
0 0 0 11959379
0 0 0 12090194
0 0 0 12222552
0.54437923 -0.50707304 1.3988537 12091223
0.55813003 -0.50707304 1.3988537 12550230
0.59230512 -0.52518278 1.4488127 12616282
0 0 0 12485465
0.82771862 -0.70024377 1.9317503 12813656
0.84670776 -0.70024377 1.9317503 13076058
0.90898186 -0.73525596 2.028338 13206876
0.92892057 -0.73525596 2.028338 13338460
0.94885921 -0.73525596 2.028338 13207129
0.96879786 -0.73525596 2.028338 13470300
0.89885128 -0.66841447 1.8439435 13339230
0.84056258 -0.61271328 1.6902815 13273948
0.93510342 -0.66841447 1.8439435 13602401
0.87379366 -0.61271328 1.6902815 13339233
1.0176105 -0.70024377 1.9317503 13601887
1.2805055 -0.86500698 2.3862798 13931620
1.3039628 -0.86500698 2.3862798 13535837
1.32742 -0.86500698 2.3862798 13602398
1.1482457 -0.73525596 2.028338 13668450
1.1125565 -0.70024377 1.9317503 13602911
1.0801117 -0.66841447 1.8439435 13537377
1.1505349 -0.70024377 1.9317503 13733983
1.2280003 -0.73525596 2.028338 13733473
1.3865988 -0.8169511 2.2537088 13733216
1.2678777 -0.73525596 2.028338 13535839
0.95393795 -0.54463404 1.5024725 13733471
0.96870732 -0.54463404 1.5024725 13667934
0.9834767 -0.54463404 1.5024725 13339229
1.4185603 -0.77395362 2.1350925 13339742
1.4395483 -0.77395362 2.1350925 13405279
1.7343869 -0.91906995 2.5354223 13405026
1.0425543 -0.54463404 1.5024725 13601117
0.71369344 -0.36762798 1.014169 13011292
0.50783348 -0.25798455 0.71169752 12814686
0.51482952 -0.25798455 0.71169752 13011292
0.53114384 -0.26259139 0.72440636 12945240
0 0 0 13338715
0 0 0 12747607
0 0 0 12812891
0.65289891 -0.30635664 0.84514076 12616797
0.56674856 -0.26259139 0.72440636 12550747
0.66951442 -0.30635664 0.84514076 12484186
0.67782217 -0.30635664 0.84514076 12419419
0.68612999 -0.30635664 0.84514076 12483155
0.60605478 -0.26736578 0.73757738 12155990
0.80313772 -0.35012189 0.96587515 11762776
0.89817262 -0.38697681 1.0675462 11763031
0 0 0 11828566
0 0 0 11893590
0.65420145 -0.27231702 0.75123626 11959639
0.64955729 -0.26736578 0.73757738 11565137
0.65680766 -0.26736578 0.73757738 11499089
0.66405809 -0.26736578 0.73757738 11762004
0.67130852 -0.26736578 0.73757738 11892820
0.6664418 -0.26259139 0.72440636 11368273
0.67356277 -0.26259139 0.72440636 11302480
0.66874194 -0.25798455 0.71169752 11105616
0.64195102 -0.2450853 0.67611259 11171155
0.68273395 -0.25798455 0.71169752 10973516
0.70204657 -0.26259139 0.72440636 11039823
0 0 0 11301203
1.0028039 -0.36762798 1.014169 11104590
1.0127733 -0.36762798 1.014169 10974287
0.97404045 -0.35012189 0.96587515 10777425
1.5299435 -0.54463404 1.5024725 11039571
0 0 0 10974032
0 0 0 10907725
1.5742517 -0.54463404 1.5024725 10843217
1.0464284 -0.35866144 0.98943311 11039056
1.0561546 -0.35866144 0.98943311 10842446
0 0 0 10710606
0 0 0 10579535
0 0 0 10645073
0 0 0 10579022
0 0 0 10382929
1.0626739 -0.3419795 0.94341296 10906702
1.0719477 -0.3419795 0.94341296 10644815
1.0566483 -0.33420724 0.92197174 10512977
1.1164594 -0.35012189 0.96587515 10382163
0 0 0 10382161
0 0 0 10382160
0 0 0 10447694
0 0 0 10381643
0 0 0 10380872
0 0 0 10250057
0 0 0 10053196
0 0 0 10184784
0 0 0 10118987
0 0 0 10119499
0 0 0 10053708
0 0 0 9790794
0 0 0 9922378
0 0 0 9790794
0 0 0 12550234
0 0 0 13340520
-5.3794961 -1.589594 4.5074177 15705462
-5.3351879 -1.589594 4.5074177 16034418
-5.2908797 -1.589594 4.5074177 16494200
-5.2465715 -1.589594 4.5074177 16626046
-5.2022634 -1.589594 4.5074177 16757635
-5.1579552 -1.589594 4.5074177 15968122
-5.1136475 -1.589594 4.5074177 14523249
-4.5624051 -1.4306346 4.0566759 12880484
-5.0250311 -1.589594 4.5074177 12683360
-4.9807229 -1.589594 4.5074177 12288600
-7.4046216 -2.3843908 6.761126 12090453
-8.8057919 -2.8612692 8.1133518 12090196
-10.907546 -3.5765865 10.141689 11564879
-8.6462831 -2.8612692 8.1133518 11762258
-8.5665283 -2.8612692 8.1133518 11434066
-8.4867735 -2.8612692 8.1133518 11630672
-8.4070187 -2.8612692 8.1133518 11695694
-3.78512 -1.3005769 3.687887 11629646
-3.4364622 -1.1921954 3.380563 11433296
-3.1414442 -1.1004882 3.1205199 11367500
-3.1107693 -1.1004882 3.1205199 11169869
-3.3367689 -1.1921954 3.380563 11039822
-4.4047174 -1.589594 4.5074177 11039565
-4.3604093 -1.589594 4.5074177 10909007
-6.4741511 -2.3843908 6.761126 10907722
-7.6892276 -2.8612692 8.1133518 10972745
-7.6094728 -2.8612692 8.1133518 10908494
-4.183177 -1.589594 4.5074177 10973002
-7.4499636 -2.8612692 8.1133518 10908496
-4.0945606 -1.589594 4.5074177 10776397
-4.0502524 -1.589594 4.5074177 10776651
-4.0059443 -1.589594 4.5074177 10579271
-3.9616363 -1.589594 4.5074177 10579015
-3.9173281 -1.589594 4.5074177 10578761
-6.971436 -2.8612692 8.1133518 10448715
-6.8916812 -2.8612692 8.1133518 10383693
-6.8119268 -2.8612692 8.1133518 10251337
-6.732172 -2.8612692 8.1133518 10315847
-6.6524177 -2.8612692 8.1133518 10512966
-6.5726628 -2.8612692 8.1133518 10251078
-6.4929085 -2.8612692 8.1133518 10447691
-6.4131536 -2.8612692 8.1133518 10316360
-7.9167485 -3.5765865 10.141689 10053447
-7.8170552 -3.5765865 10.141689 10250309
-5.144908 -2.3843908 6.761126 10184261
-4.3529534 -2.0437636 5.7952509 10315335
-3.7589877 -1.7882932 5.0708447 9986883
-4.2390184 -2.0437636 5.7952509 9922372
-4.1820507 -2.0437636 5.7952509 9986372
-3.6094477 -1.7882932 5.0708447 9986883
-3.1640902 -1.589594 4.5074177 9987397
-3.5097547 -1.7882932 5.0708447 9855809
-3.459908 -1.7882932 5.0708447 9724478
-3.4100614 -1.7882932 5.0708447 9790531
-3.8402452 -2.0437636 5.7952509 9790276
-2.6482944 -1.4306346 4.0566759 9854785
-2.8982413 -1.589594 4.5074177 9790019
-2.8539333 -1.589594 4.5074177 9724482
-2.298784 -1.3005769 3.687887 9658690
-2.262532 -1.3005769 3.687887 10053191
-2.0407565 -1.1921954 3.380563 9725503
-2.0075254 -1.1921954 3.380563 9527360
-2.6323926 -1.589594 4.5074177 9527105
-2.5880845 -1.589594 4.5074177 9986629
-2.5437765 -1.589594 4.5074177 9593667
-2.4994683 -1.589594 4.5074177 9592898
-2.4551601 -1.589594 4.5074177 9986370
-2.4108522 -1.589594 4.5074177 9724481
-2.6623619 -1.7882932 5.0708447 9658690
-2.6125152 -1.7882932 5.0708447 9462340
-2.9287641 -2.0437636 5.7952509 9724226
-3.3504291 -2.3843908 6.761126 10051393
-3.283967 -2.3843908 6.761126 9592382
-3.2175047 -2.3843908 6.761126 9461826
-2.7008936 -2.0437636 5.7952509 9264445
-2.6439261 -2.0437636 5.7952509 9265214
-2.5869586 -2.0437636 5.7952509 9461309
-2.5299909 -2.0437636 5.7952509 9723713
-2.4730234 -2.0437636 5.7952509 9132861
-2.4160559 -2.0437636 5.7952509 9263935
-2.3590882 -2.0437636 5.7952509 9132864
-2.3021207 -2.0437636 5.7952509 9067582
-2.2451532 -2.0437636 5.7952509 8738873
-2.5528831 -2.3843908 6.761126 8672824
-3.7296314 -3.5765865 10.141689 8672826
-7.2598763 -7.153173 20.283379 9133114
-7.0604901 -7.153173 20.283379 9067579
-4.574069 -4.7687817 13.522252 9395775
-4.4411445 -4.7687817 13.522252 9461054
-6.4623303 -7.153173 20.283379 9528385
-6.2629437 -7.153173 20.283379 9527872
0 0 0 9855551
-3.9094472 -4.7687817 13.522252 9593407
-2.8323922 -3.5765865 10.141689 10052416
-1.8217992 -2.3843908 6.761126 9921090
-0.70213479 -0.95375633 2.7044504 10117952
-0.67554992 -0.95375633 2.7044504 10183492
0 0 0 10380611
0 0 0 9920833
-0.14414404 -0.23074752 0.65430254 9394746
-0.12556113 -0.21038744 0.59656996 3545873
-0.11796208 -0.20733835 0.587924 2166286
-0.11218277 -0.20733835 0.587924 2363665
-0.10057312 -0.19597735 0.555709 6765616
-0.093825199 -0.19332899 0.54819942 7092778
-0.08843638 -0.19332899 0.54819942 6107944
-0.081940256 -0.19075128 0.5408901 4464409
-0.076623276 -0.19075128 0.5408901 3545881
-0.071306303 -0.19075128 0.5408901 3675669
-0.065121047 -0.18824139 0.53377312 3873047
-0.059874035 -0.18824139 0.53377312 4071195
-0.054627024 -0.18824139 0.53377312 3938070
-0.049380008 -0.18824139 0.53377312 3084562
-0.044132996 -0.18824139 0.53377312 1968654
-0.038885981 -0.18824139 0.53377312 2034703
-0.033202097 -0.18579669 0.52684098 1967626
-0.028391954 -0.18824139 0.53377312 1771532
-0.02314494 -0.18824139 0.53377312 1902346
-0.017897926 -0.18824139 0.53377312 2098698
-0.012819591 -0.19075128 0.5408901 2296329
-0.0076040039 -0.19332899 0.54819942 2427143
-0.0022151789 -0.19332899 0.54819942 2953230
0.0032171207 -0.19597735 0.555709 3282706
0.0086797653 -0.19597735 0.555709 4070167
0.014540788 -0.20149784 0.57136279 4595479
0.02044527 -0.20437637 0.57952511 3479059
0.026142029 -0.20437637 0.57952511 1180680
0.032300219 -0.20733835 0.587924 852742
0.038639531 -0.21038744 0.59656996 918535
0.045168076 -0.21352756 0.605474 984072
0.051119912 -0.21352756 0.605474 1575180
0.057071749 -0.21352756 0.605474 8674118
0.063978486 -0.21676281 0.61464781 10185032
0.071097746 -0.22009763 0.62410396 10184774
0.078439474 -0.22353666 0.63385558 10447176
0.084670305 -0.22353666 0.63385558 10709578
0.090901129 -0.22353666 0.63385558 10250821
0.09713196 -0.22353666 0.63385558 10513222
0.10336279 -0.22353666 0.63385558 10448200
0.11312889 -0.23074752 0.65430254 10644553
0.11956072 -0.23074752 0.65430254 10709574
0.12599254 -0.23074752 0.65430254 10906949
0.13242437 -0.23074752 0.65430254 10776651
0.13885619 -0.23074752 0.65430254 10841931
0.14528802 -0.23074752 0.65430254 11366730
0 0 0 10973515
0 0 0 10776651
0 0 0 11170640
0 0 0 11432526
0 0 0 11301453
0.23751031 -0.29804885 0.84514076 11236172
0.19665445 -0.23843908 0.67611259 11433807
0.27106759 -0.31791878 0.90148348 11629902
0.28629124 -0.32514423 0.92197174 11630418
0 0 0 11499090
0.31149676 -0.33270571 0.94341296 12024405
0 0 0 11893072
0 0 0 12155474
0 0 0 12090194
0 0 0 12353623
0 0 0 12156755
0 0 0 12878166
0 0 0 12746580
0.59230512 -0.51094091 1.4488127 12616536
0.80872941 -0.68125457 1.9317503 12812888
0.62078893 -0.51094091 1.4488127 12812886
0.6585505 -0.52986467 1.5024725 13273177
0.67331988 -0.52986467 1.5024725 13272922
0.88468617 -0.68125457 1.9317503 13338715
0.94885921 -0.71531731 2.028338 13404251
0.77503824 -0.57225382 1.6226703 13208157
0.79098916 -0.57225382 1.6226703 13470814
0.77590394 -0.55024409 1.5602599 13470044
0.85717809 -0.59609771 1.6902815 13667935
0.83884192 -0.57225382 1.6226703 13864541
0.89040917 -0.59609771 1.6902815 13864286
1.0365998 -0.68125457 1.9317503 13668449
1.0555888 -0.68125457 1.9317503 13799009
1.074578 -0.68125457 1.9317503 13734241
1.0935673 -0.68125457 1.9317503 13995874
1.1125565 -0.68125457 1.9317503 13864802
1.0801117 -0.65028846 1.8439435 13799265
1.1505349 -0.68125457 1.9317503 13734497
1.4447062 -0.84154975 2.3862798 13602398
1.31362 -0.75296557 2.1350925 13339999
0.93916857 -0.52986467 1.5024725 13602401
0.91986871 -0.51094091 1.4488127 13537379
0.96870732 -0.52986467 1.5024725 13601884
0.9834767 -0.52986467 1.5024725 13666907
1.4185603 -0.75296557 2.1350925 13273437
1.0130155 -0.52986467 1.5024725 13404252
1.0277848 -0.52986467 1.5024725 13142362
0.70372409 -0.35765865 1.014169 13273437
0.71369344 -0.35765865 1.014169 13338717
0.90457839 -0.44707331 1.2677112 13142621
0 0 0 13010523
0 0 0 13076573
0 0 0 12944988
0 0 0 12878940
0 0 0 12616025
0.54980963 -0.25098854 0.71169752 12747869
0.52896529 -0.23843908 0.67611259 12419157
0.66951442 -0.29804885 0.84514076 12485209
0.72301036 -0.31791878 0.90148348 12551000
0.74850541 -0.32514423 0.92197174 12417878
0.79364312 -0.34062728 0.96587515 12025174
1.163165 -0.49332225 1.3988537 12222808
0.89817262 -0.37648278 1.0675462 12221785
0 0 0 12090710
0.79382056 -0.32514423 0.92197174 11894104
0.80288357 -0.32514423 0.92197174 11565398
0.64955729 -0.26011539 0.73757738 12023892
0.65680766 -0.26011539 0.73757738 11630418
0.66405809 -0.26011539 0.73757738 11499091
0.90053588 -0.34893528 0.98943311 11760721
0 0 0 11630675
0 0 0 11302997
0.68068373 -0.25547045 0.72440636 10975318
0.67573798 -0.25098854 0.71169752 10909007
0.68273395 -0.25098854 0.71169752 11237202
0 0 0 11236177
0 0 0 11105362
0 0 0 11367505
1.0127733 -0.35765865 1.014169 11170898
0.97404045 -0.34062728 0.96587515 10973265
1.0075238 -0.34893528 0.98943311 10908239
1.5447129 -0.52986467 1.5024725 10974290
1.0269761 -0.34893528 0.98943311 11039315
1.5180283 -0.51094091 1.4488127 10842705
0.99775732 -0.33270571 0.94341296 10710606
1.0070311 -0.33270571 0.94341296 10711377
1.016305 -0.33270571 0.94341296 10907986
0 0 0 10973267
0 0 0 10776144
0 0 0 10776401
0 0 0 10514258
0 0 0 10448206
0 0 0 10251597
1.1069648 -0.34062728 0.96587515 10317136
0 0 0 10447954
0 0 0 10186067
0 0 0 10054478
0 0 0 10053966
0 0 0 10185039
0 0 0 10316368
0 0 0 10185038
0 0 0 10053964
0 0 0 10119759
0 0 0 10053965
0 0 0 10118989
0 0 0 9987916
0 0 0 9790793
0 0 0 9987915
0 0 0 10184526
0 0 0 12549721
0 0 0 12814176
-4.4014053 -1.2643248 3.687887 15312246
-5.3351879 -1.5452859 4.5074177 15245679
-5.2908797 -1.5452859 4.5074177 15771763
-5.2465715 -1.5452859 4.5074177 15836781
-5.2022634 -1.5452859 4.5074177 16164979
-5.1579552 -1.5452859 4.5074177 15902318
-4.6022825 -1.3907573 4.0566759 16362610
-4.5624051 -1.3907573 4.0566759 15903088
-4.5225282 -1.3907573 4.0566759 15903604
-4.4826508 -1.3907573 4.0566759 15772794
-7.4046216 -2.3179288 6.761126 16035455
-7.3381596 -2.3179288 6.761126 15772281
-4.3630185 -1.3907573 4.0566759 15246707
-4.3231416 -1.3907573 4.0566759 13800036
-4.2832642 -1.3907573 4.0566759 12879193
-4.2433867 -1.3907573 4.0566759 12090968
-4.2035093 -1.3907573 4.0566759 11762515
-3.78512 -1.2643248 3.687887 11499343
-3.4364622 -1.1589644 3.380563 11696465
-3.1414442 -1.0698134 3.1205199 11630672
-3.1107693 -1.0698134 3.1205199 11630931
-3.3367689 -1.1589644 3.380563 10908489
-3.9642456 -1.3907573 4.0566759 11433291
-3.2703068 -1.1589644 3.380563 11301453
-3.5313554 -1.2643248 3.687887 11368013
-3.4951031 -1.2643248 3.687887 11105100
-3.1706135 -1.1589644 3.380563 10974030
-3.1373823 -1.1589644 3.380563 11038540
-3.3863468 -1.2643248 3.687887 11104328
-3.3500948 -1.2643248 3.687887 11104589
-3.6452272 -1.3907573 4.0566759 11169870
-3.60535 -1.3907573 4.0566759 11104078
-2.9712269 -1.1589644 3.380563 11104331
-2.9379959 -1.1589644 3.380563 11038540
-4.3571472 -1.7384466 5.0708447 10776394
-4.3073006 -1.7384466 5.0708447 10580300
-4.2574539 -1.7384466 5.0708447 10710858
-5.6101432 -2.3179288 6.761126 10512966
-6.6524177 -2.7815146 8.1133518 10710343
-6.5726628 -2.7815146 8.1133518 10578757
-6.4929085 -2.7815146 8.1133518 10513994
-6.4131536 -2.7815146 8.1133518 10512454
-6.3333993 -2.7815146 8.1133518 10250309
-6.2536445 -2.7815146 8.1133518 10381895
-6.1738896 -2.7815146 8.1133518 10382151
-3.8088343 -1.7384466 5.0708447 10184520
-3.3413227 -1.5452859 4.5074177 10381382
-3.2970145 -1.5452859 4.5074177 10315844
-3.6592944 -1.7384466 5.0708447 9987655
-3.2083981 -1.5452859 4.5074177 9987912
-3.1640902 -1.5452859 4.5074177 9856326
-3.119782 -1.5452859 4.5074177 9725253
-3.459908 -1.7384466 5.0708447 10511944
-3.4100614 -1.7384466 5.0708447 9790788
-2.6881719 -1.3907573 4.0566759 9988166
-2.206912 -1.1589644 3.380563 10185031
-2.1736808 -1.1589644 3.380563 10117956
-2.335036 -1.2643248 3.687887 9986883
-2.298784 -1.2643248 3.687887 9920577
-2.0739877 -1.1589644 3.380563 10118469
-2.0407565 -1.1589644 3.380563 9987905
-2.0075254 -1.1589644 3.380563 10119238
-1.9742943 -1.1589644 3.380563 9593665
-2.5880845 -1.5452859 4.5074177 9986883
-2.5437765 -1.5452859 4.5074177 9790274
-2.4994683 -1.5452859 4.5074177 10250310
-2.4551601 -1.5452859 4.5074177 10249283
-2.4108522 -1.5452859 4.5074177 9856066
-2.366544 -1.5452859 4.5074177 9790276
-2.3222358 -1.5452859 4.5074177 10118467
-2.5626686 -1.7384466 5.0708447 9987135
-2.5128219 -1.7384466 5.0708447 9856834
-2.4629753 -1.7384466 5.0708447 10183745
-2.4131286 -1.7384466 5.0708447 9856323
-2.363282 -1.7384466 5.0708447 10185034
-2.3134353 -1.7384466 5.0708447 9921604
-2.2635887 -1.7384466 5.0708447 10052417
-2.2137423 -1.7384466 5.0708447 10380869
-2.4730234 -1.986796 5.7952509 9724482
-2.4160559 -1.986796 5.7952509 9724741
-2.3590882 -1.986796 5.7952509 9527104
-2.3021207 -1.986796 5.7952509 9461827
-2.2451532 -1.986796 5.7952509 9527361
-3.0634599 -2.7815146 8.1133518 9395264
-7.4592628 -6.9537864 20.283379 9199682
-7.2598763 -6.9537864 20.283379 9198908
-7.0604901 -6.9537864 20.283379 9132347
-3.4305518 -3.4768932 10.141689 9132604
-4.4411445 -4.6358576 13.522252 9132864
-6.4623303 -6.9537864 20.283379 9460793
-6.2629437 -6.9537864 20.283379 9395518
0 0 0 9591869
-3.9094472 -4.6358576 13.522252 9462592
-2.8323922 -3.4768932 10.141689 9528128
-2.1861591 -2.7815146 8.1133518 9921603
-0.70213479 -0.92717147 2.7044504 9789757
-0.59607351 -0.81809253 2.3862798 9789504
0 0 0 9987137
-0.16974005 -0.25286496 0.73757738 9724481
-0.14650705 -0.227993 0.66502881 9592382
-0.12936601 -0.21072079 0.61464781 5319194
-0.12148335 -0.20757572 0.605474 3151375
-0.11383252 -0.20452313 0.59656996 1837837
-0.1048834 -0.19867961 0.57952511 6305838
-0.095110483 -0.1905147 0.555709 3347472
-0.08843638 -0.18794017 0.54819942 1771530
-0.081940256 -0.18543431 0.5408901 1377801
-0.076623276 -0.18543431 0.5408901 1574924
-0.071306303 -0.18543431 0.5408901 2099984
-0.06598933 -0.18543431 0.5408901 2955029
-0.059874035 -0.18299438 0.53377312 4333852
-0.054627024 -0.18299438 0.53377312 4003863
-0.049380008 -0.18299438 0.53377312 3346962
-0.044132996 -0.18299438 0.53377312 2756882
-0.038885981 -0.18299438 0.53377312 1901576
-0.033638969 -0.18299438 0.53377312 1639176
-0.028391954 -0.18299438 0.53377312 983559
-0.02314494 -0.18299438 0.53377312 917766
-0.017897926 -0.18299438 0.53377312 1180938
-0.012819591 -0.18543431 0.5408901 1574666
-0.0076040039 -0.18794017 0.54819942 2033162
-0.0022151789 -0.18794017 0.54819942 2165002
0.0032171207 -0.1905147 0.555709 2886668
0.0088003175 -0.19316074 0.56342721 3544850
0.014540788 -0.19588131 0.57136279 4529942
0.020157309 -0.19588131 0.57136279 4464152
0.026142029 -0.19867961 0.57952511 1509130
0.032300219 -0.20155902 0.587924 1115145
0.038639531 -0.20452313 0.59656996 1049351
0.044503842 -0.20452313 0.59656996 2296847
0.050368149 -0.20452313 0.59656996 4200208
0.057071749 -0.20757572 0.605474 6498840
0.064962775 -0.21396266 0.62410396 10512967
0.071097746 -0.21396266 0.62410396 10710599
0.078439474 -0.21730582 0.63385558 10776395
0.084670305 -0.21730582 0.63385558 10447688
0.090901129 -0.21730582 0.63385558 10906953
0.09713196 -0.21730582 0.63385558 10776138
0.10336279 -0.21730582 0.63385558 11169867
0.11312889 -0.22431569 0.65430254 10842445
0.11956072 -0.22431569 0.65430254 11038539
0.12599254 -0.22431569 0.65430254 11104331
0.13242437 -0.22431569 0.65430254 11169354
0.13885619 -0.22431569 0.65430254 11169867
0.18383382 -0.28382802 0.82789302 11104331
0 0 0 11301707
0 0 0 11104585
0 0 0 11301709
0 0 0 11563339
0 0 0 11236687
0.25334433 -0.30905718 0.90148348 11892302
0.26220596 -0.30905718 0.90148348 12089422
0.27722821 -0.3160812 0.92197174 12088908
0.28629124 -0.3160812 0.92197174 11827538
0.29535425 -0.3160812 0.92197174 11761488
0.30441728 -0.3160812 0.92197174 12155472
0 0 0 12353881
0 0 0 12156242
0 0 0 12483924
0 0 0 12353108
0 0 0 12747349
0 0 0 12813401
0 0 0 13076313
0 0 0 12945242
0.80872941 -0.66226536 1.9317503 13141337
0.62078893 -0.49669901 1.4488127 13273175
0.84670776 -0.66226536 1.9317503 13405278
0.86569697 -0.66226536 1.9317503 13469533
0.92892057 -0.69537866 2.028338 13536606
0.94885921 -0.69537866 2.028338 14126688
0.77503824 -0.55630291 1.6226703 13733216
0.98873651 -0.69537866 2.028338 13799263
0.74716675 -0.51509529 1.5024725 13537118
0.79124135 -0.53490669 1.5602599 13929313
0.80657881 -0.53490669 1.5602599 13733985
0.82191622 -0.53490669 1.5602599 13929310
0.87074375 -0.55630291 1.6226703 13994848
1.0555888 -0.66226536 1.9317503 14061663
0.90264559 -0.55630291 1.6226703 13601632
1.0935673 -0.66226536 1.9317503 13799009
1.1125565 -0.66226536 1.9317503 13733727
1.188123 -0.69537866 2.028338 13865058
1.4212489 -0.81809253 2.3862798 14193249
1.4447062 -0.81809253 2.3862798 13733472
1.4681635 -0.81809253 2.3862798 13602659
0.97529048 -0.53490669 1.5602599 13930338
0.95393795 -0.51509529 1.5024725 13601885
1.0059654 -0.53490669 1.5602599 13602654
1.5619924 -0.81809253 2.3862798 13602911
1.5854496 -0.81809253 2.3862798 13667167
1.0130155 -0.51509529 1.5024725 13470303
1.0277848 -0.51509529 1.5024725 13537118
0.70372409 -0.34768933 1.014169 13142367
1.4273869 -0.69537866 2.028338 13076828
1.4473255 -0.69537866 2.028338 13273693
0 0 0 12551772
0 0 0 12813659
0 0 0 13010780
0 0 0 12812119
0 0 0 12747609
0.54980963 -0.24399251 0.71169752 12091477
0.48087755 -0.21072079 0.61464781 12222807
0.66951442 -0.2897411 0.84514076 12353624
0.72301036 -0.30905718 0.90148348 12484696
0.74850541 -0.3160812 0.92197174 12287062
1.1494142 -0.47957146 1.3988537 12352855
0 0 0 12090710
0 0 0 12025430
1.2331904 -0.49669901 1.4488127 12091480
1.2474322 -0.49669901 1.4488127 12155992
1.2616742 -0.49669901 1.4488127 12155224
0.64955729 -0.25286496 0.73757738 11893594
0.65680766 -0.25286496 0.73757738 12221014
0.66405809 -0.25286496 0.73757738 11827798
1.3186418 -0.49669901 1.4488127 11630167
0.91026205 -0.33920911 0.98943311 11433300
1.3471255 -0.49669901 1.4488127 11170898
0.68068373 -0.2483495 0.72440636 11170638
0.68780464 -0.2483495 0.72440636 11236690
0 0 0 11499093
0 0 0 11368275
0 0 0 11367507
1.0028039 -0.34768933 1.014169 11105104
0.98807138 -0.33920911 0.98943311 11170642
0.99779761 -0.33920911 0.98943311 11039058
0.98353505 -0.33113268 0.96587515 11038805
0 0 0 11039317
0.97920978 -0.32343194 0.94341296 10776655
1.5180283 -0.49669901 1.4488127 10842961
0.99775732 -0.32343194 0.94341296 10712145
0.98414403 -0.3160812 0.92197174 10646354
1.016305 -0.32343194 0.94341296 10645328
1.0756069 -0.33920911 0.98943311 10841681
0 0 0 10907474
1.0203961 -0.3160812 0.92197174 10841423
0 0 0 10513229
0 0 0 10185805
0 0 0 10186063
0 0 0 10317393
0 0 0 10579534
0 0 0 10251597
0 0 0 10120272
0 0 0 10119759
0 0 0 10382161
0 0 0 10316110
0 0 0 10250572
0 0 0 10251084
0 0 0 9988425
0 0 0 9922380
0 0 0 9791309
0 0 0 9725516
0 0 0 9922638
0 0 0 9791052
0 0 0 9922382
0 0 0 12681820
0 0 0 13273954
-3.7242663 -1.0391384 3.1205199 14458223
-4.3651533 -1.2280726 3.687887 14458731
-4.3289013 -1.2280726 3.687887 15376753
-4.2926493 -1.2280726 3.687887 14983533
-4.6820374 -1.35088 4.0566759 15705455
-4.6421599 -1.35088 4.0566759 15443053
-4.6022825 -1.35088 4.0566759 15115117
-4.5624051 -1.35088 4.0566759 15377003
-4.5225282 -1.35088 4.0566759 15377773
-4.4826508 -1.35088 4.0566759 15771761
-4.4427733 -1.35088 4.0566759 15509103
-4.4028959 -1.35088 4.0566759 15377261
-4.3630185 -1.35088 4.0566759 15377003
-4.3231416 -1.35088 4.0566759 15310954
-4.2832642 -1.35088 4.0566759 15114089
-4.2433867 -1.35088 4.0566759 15049065
-3.821372 -1.2280726 3.687887 13273944
-3.78512 -1.2280726 3.687887 12024654
-3.4364622 -1.1257333 3.380563 11696464
-3.4032311 -1.1257333 3.380563 11827280
-3.1107693 -1.0391384 3.1205199 11958095
-3.3367689 -1.1257333 3.380563 11499343
-3.0494196 -1.0391384 3.1205199 11564878
-3.0187449 -1.0391384 3.1205199 11564624
-3.2370756 -1.1257333 3.380563 11629650
-3.2038445 -1.1257333 3.380563 11760718
-3.1706135 -1.1257333 3.380563 11564625
-3.1373823 -1.1257333 3.380563 11170893
-3.3863468 -1.2280726 3.687887 11171150
-3.3500948 -1.2280726 3.687887 11236687
-3.3138428 -1.2280726 3.687887 11170124
-3.004458 -1.1257333 3.380563 11039308
-2.9712269 -1.1257333 3.380563 11301711
-2.9379959 -1.1257333 3.380563 11039051
-3.8730199 -1.5009779 4.5074177 11366730
-3.8287117 -1.5009779 4.5074177 10842442
-4.2574539 -1.6885999 5.0708447 10776649
-4.2076073 -1.6885999 5.0708447 10579786
-5.5436807 -2.2514665 6.761126 10776139
-5.4772186 -2.2514665 6.761126 10972492
-5.4107566 -2.2514665 6.761126 10710347
-5.3442945 -2.2514665 6.761126 10775624
-6.3333993 -2.7017601 8.1133518 10447686
-5.21137 -2.2514665 6.761126 10447431
-5.144908 -2.2514665 6.761126 10316872
-3.3856306 -1.5009779 4.5074177 10316615
-3.3413227 -1.5009779 4.5074177 10447175
-3.2970145 -1.5009779 4.5074177 10447687
-3.2527063 -1.5009779 4.5074177 10250565
-3.2083981 -1.5009779 4.5074177 10250055
-3.1640902 -1.5009779 4.5074177 10447173
-3.119782 -1.5009779 4.5074177 10381383
-3.0754738 -1.5009779 4.5074177 10643782
-3.0311658 -1.5009779 4.5074177 10381382
-2.6881719 -1.35088 4.0566759 10512712
-2.4075403 -1.2280726 3.687887 10381641
-2.3712883 -1.2280726 3.687887 10250312
-2.335036 -1.2280726 3.687887 10185286
-2.298784 -1.2280726 3.687887 10446660
-2.0739877 -1.1257333 3.380563 10381125
-2.0407565 -1.1257333 3.380563 10315846
-2.0075254 -1.1257333 3.380563 10643527
-1.9742943 -1.1257333 3.380563 10775369
-2.5880845 -1.5009779 4.5074177 10118721
-2.5437765 -1.5009779 4.5074177 10447173
-2.4994683 -1.5009779 4.5074177 10118209
-2.4551601 -1.5009779 4.5074177 10315846
-2.4108522 -1.5009779 4.5074177 10381382
-2.366544 -1.5009779 4.5074177 9987907
-2.3222358 -1.5009779 4.5074177 10184259
-2.2779276 -1.5009779 4.5074177 10381896
-2.2336197 -1.5009779 4.5074177 10315844
-2.4629753 -1.6885999 5.0708447 10841159
-2.4131286 -1.6885999 5.0708447 10054468
-2.363282 -1.6885999 5.0708447 10577987
-2.3134353 -1.6885999 5.0708447 10446401
-2.2635887 -1.6885999 5.0708447 10774598
-2.2137423 -1.6885999 5.0708447 10578502
-2.1638956 -1.6885999 5.0708447 10118469
-2.4160559 -1.9298285 5.7952509 10249026
-2.0642023 -1.6885999 5.0708447 10250307
-2.0143557 -1.6885999 5.0708447 9856577
-1.964509 -1.6885999 5.0708447 9791044
-3.0634599 -2.7017601 8.1133518 9856839
-2.9837053 -2.7017601 8.1133518 9921090
-3.6299381 -3.3771999 10.141689 9724738
-3.5302451 -3.3771999 10.141689 9593409
-3.4305518 -3.3771999 10.141689 9723711
-4.4411445 -4.502933 13.522252 9264961
-6.4623303 -6.7543998 20.283379 9067323
-6.2629437 -6.7543998 20.283379 9460543
0 0 0 9133375
0 0 0 9067579
0 0 0 9198653
-2.7326989 -3.3771999 10.141689 9527614
-0.70213479 -0.90058661 2.7044504 9790274
-0.40532997 -0.54035199 1.6226703 9593149
-0.21632169 -0.30019554 0.90148348 9987136
-0.16378428 -0.2369965 0.71169752 9855548
-0.14650705 -0.22145574 0.66502881 9461055
-0.13340871 -0.21107499 0.63385558 9068350
-0.123324 -0.20467877 0.61464781 4858644
-0.11553151 -0.20162389 0.605474 1575436
-0.10640345 -0.1957797 0.587924 2823955
-0.097789653 -0.19026479 0.57136279 2166289
-0.087257229 -0.18011732 0.5408901 2035988
-0.081940256 -0.18011732 0.5408901 1903889
-0.077658728 -0.18255134 0.54819942 2165518
-0.072269902 -0.18255134 0.54819942 2165518
-0.06598933 -0.18011732 0.5408901 2625553
-0.059874035 -0.17774737 0.53377312 4464925
-0.054627024 -0.17774737 0.53377312 4464925
-0.049380008 -0.17774737 0.53377312 3807765
-0.044721436 -0.18011732 0.5408901 2625294
-0.038885981 -0.17774737 0.53377312 1771534
-0.033638969 -0.17774737 0.53377312 1246473
-0.028391954 -0.17774737 0.53377312 1312266
-0.02314494 -0.17774737 0.53377312 1049868
-0.017897926 -0.17774737 0.53377312 1508876
-0.012819591 -0.18011732 0.5408901 2822932
-0.0076040039 -0.18255134 0.54819942 2427920
-0.0022455237 -0.18505205 0.555709 1837325
0.003261803 -0.18762223 0.56342721 2822160
0.0088003175 -0.18762223 0.56342721 3544080
0.014540788 -0.19026479 0.57136279 4595995
0.020157309 -0.19026479 0.57136279 4660759
0.026142029 -0.19298285 0.57952511 2231052
0.032300219 -0.1957797 0.587924 1181194
0.038639531 -0.19865882 0.59656996 1114888
0.044503842 -0.19865882 0.59656996 2165005
0.050368149 -0.19865882 0.59656996 2952463
0.05623246 -0.19865882 0.59656996 3410443
0.063978486 -0.20467877 0.61464781 10316361
0.071097746 -0.20782769 0.62410396 11104330
0.078439474 -0.21107499 0.63385558 11170121
0.084670305 -0.21107499 0.63385558 11104072
0.090901129 -0.21107499 0.63385558 11170376
0.09713196 -0.21107499 0.63385558 11038796
0.10336279 -0.21107499 0.63385558 11301196
0.1113332 -0.2144254 0.64391679 11300684
0.11956072 -0.21788387 0.65430254 11038283
0.12599254 -0.21788387 0.65430254 11366733
0.13242437 -0.21788387 0.65430254 11236171
0.13885619 -0.21788387 0.65430254 11301964
0.14528802 -0.21788387 0.65430254 11366474
0 0 0 11366728
0.20427923 -0.28143331 0.84514076 11499084
0.212587 -0.28143331 0.84514076 11367245
0.24097611 -0.30701816 0.92197174 11499341
0 0 0 11893072
0 0 0 11695949
0 0 0 12023888
0 0 0 12089936
0 0 0 12024660
0.30222297 -0.31415814 0.94341296 12155987
0.31149676 -0.31415814 0.94341296 12288339
0.33641788 -0.32948291 0.98943311 12288088
0 0 0 12157273
0 0 0 13009495
0 0 0 12353621
0 0 0 12943959
0 0 0 12812631
0 0 0 13010261
0 0 0 13207131
0.89385885 -0.71098948 2.1350925 13272922
0.64378113 -0.50032592 1.5024725 13141595
0.6585505 -0.50032592 1.5024725 13274207
0.67331988 -0.50032592 1.5024725 13404508
0.68808925 -0.50032592 1.5024725 13405017
0.70285863 -0.50032592 1.5024725 13798750
0.717628 -0.50032592 1.5024725 14192735
0.94165373 -0.64327615 1.9317503 13864542
0.74716675 -0.50032592 1.5024725 13733984
0.79124135 -0.51956922 1.5602599 13734497
0.80657881 -0.51956922 1.5602599 13931361
0.82191622 -0.51956922 1.5602599 13733469
1.0365998 -0.64327615 1.9317503 14127199
1.0555888 -0.64327615 1.9317503 14127201
1.074578 -0.64327615 1.9317503 13735008
1.4353071 -0.84429997 2.5354223 13799518
1.3743345 -0.7946353 2.3862798 13864286
1.3977917 -0.7946353 2.3862798 14061150
1.4212489 -0.7946353 2.3862798 13865054
1.4447062 -0.7946353 2.3862798 13930849
1.4681635 -0.7946353 2.3862798 13865313
1.2678777 -0.67544001 2.028338 13667932
1.2878163 -0.67544001 2.028338 14128226
1.4530611 -0.75048894 2.2537088 13995102
1.4752151 -0.75048894 2.2537088 14126688
1.3476323 -0.67544001 2.028338 13864032
1.0130155 -0.50032592 1.5024725 13471586
0.69375479 -0.33772001 1.014169 13274207
0.70372409 -0.33772001 1.014169 13338717
1.4273869 -0.67544001 2.028338 13338717
0 0 0 13470814
0 0 0 13207647
0 0 0 12945503
0 0 0 13076315
0 0 0 12879452
0 0 0 12551515
0.60267591 -0.25978461 0.78012997 12747868
0.48087755 -0.20467877 0.61464781 12549980
0.69862378 -0.29366955 0.88188601 12812893
0.72301036 -0.30019554 0.90148348 12419673
0.73187196 -0.30019554 0.90148348 12354136
0.92591709 -0.37524447 1.1268544 11960662
0 0 0 12091478
0 0 0 12156503
1.2331904 -0.48245713 1.4488127 11763031
1.2474322 -0.48245713 1.4488127 11894103
0.80288357 -0.30701816 0.92197174 12091480
0.61595947 -0.23291034 0.69942683 11828308
0.60207373 -0.22514665 0.67611259 11696727
0.59874094 -0.22145574 0.66502881 11828057
0.85865045 -0.31415814 0.94341296 11499349
0.91026205 -0.32948291 0.98943311 11500118
0 0 0 11566165
0 0 0 11499089
0 0 0 11367507
0 0 0 11498580
0 0 0 11368019
0.65103906 -0.22145574 0.66502881 11236432
0.97834522 -0.32948291 0.98943311 11236433
0.98807138 -0.32948291 0.98943311 11040084
1.4610606 -0.48245713 1.4488127 11170389
0.6771881 -0.22145574 0.66502881 11105620
0.68372536 -0.22145574 0.66502881 11237206
0.95695496 -0.30701816 0.92197174 10842192
0.98848355 -0.31415814 0.94341296 10972749
0.97508103 -0.30701816 0.92197174 10907474
0.70987439 -0.22145574 0.66502881 10579536
0.71641165 -0.22145574 0.66502881 10448724
0.78749794 -0.24122857 0.72440636 10514000
1.0113331 -0.30701816 0.92197174 10710608
1.0203961 -0.30701816 0.92197174 10448723
0 0 0 10251856
0 0 0 10645586
0 0 0 10579792
0 0 0 10448975
0 0 0 10251082
0 0 0 10578509
0 0 0 10446925
0 0 0 10316111
0 0 0 10184780
0 0 0 10184780
0 0 0 10118726
0 0 0 10118984
0 0 0 9922635
0 0 0 9857358
0 0 0 10118989
0 0 0 10053196
0 0 0 9791309
0 0 0 9790793
0 0 0 9987915
0 0 0 12681819
0 0 0 13405026
-3.7242663 -1.0084636 3.1205199 14654576
-4.3651533 -1.1918206 3.687887 14785386
-4.3289013 -1.1918206 3.687887 14719593
-4.2926493 -1.1918206 3.687887 14457192
-4.6820374 -1.3110027 4.0566759 14916202
-4.6421599 -1.3110027 4.0566759 14785384
-4.6022825 -1.3110027 4.0566759 14786413
-4.5624051 -1.3110027 4.0566759 14851692
-4.5225282 -1.3110027 4.0566759 14917228
-4.4826508 -1.3110027 4.0566759 15114093
-4.4427733 -1.3110027 4.0566759 15310187
-4.4028959 -1.3110027 4.0566759 15048298
-4.3630185 -1.3110027 4.0566759 15049323
-4.3231416 -1.3110027 4.0566759 15048296
-4.2832642 -1.3110027 4.0566759 15114349
-4.2433867 -1.3110027 4.0566759 14589029
-3.821372 -1.1918206 3.687887 13403984
-3.4696932 -1.0925022 3.380563 11367754
-3.4364622 -1.0925022 3.380563 11368788
-3.4032311 -1.0925022 3.380563 11499859
-3.3699999 -1.0925022 3.380563 11696209
-3.3367689 -1.0925022 3.380563 11762515
-3.0494196 -1.0084636 3.1205199 11565137
-3.0187449 -1.0084636 3.1205199 11565138
-2.98807 -1.0084636 3.1205199 11368016
-3.2038445 -1.0925022 3.380563 11368529
-3.1706135 -1.0925022 3.380563 11433041
-3.1373823 -1.0925022 3.380563 11499089
-3.3863468 -1.1918206 3.687887 11630672
-3.3500948 -1.1918206 3.687887 11564625
-3.0376892 -1.0925022 3.380563 11301964
-3.004458 -1.0925022 3.380563 11301710
-2.9712269 -1.0925022 3.380563 11235918
-3.2050865 -1.1918206 3.687887 11498319
-3.8730199 -1.4566697 4.5074177 11301453
-3.8287117 -1.4566697 4.5074177 11170124
-3.7844038 -1.4566697 4.5074177 11235660
-2.8050716 -1.0925022 3.380563 11038797
-3.6957874 -1.4566697 4.5074177 10842700
-3.6514795 -1.4566697 4.5074177 10842442
-5.4107566 -2.1850045 6.761126 10973515
-5.3442945 -2.1850045 6.761126 10907464
-5.277832 -2.1850045 6.761126 10775879
-5.21137 -2.1850045 6.761126 10972745
-5.144908 -2.1850045 6.761126 10972747
-3.3856306 -1.4566697 4.5074177 10578761
-3.3413227 -1.4566697 4.5074177 10775624
-3.2970145 -1.4566697 4.5074177 10645579
-3.2527063 -1.4566697 4.5074177 10710344
-3.2083981 -1.4566697 4.5074177 10381640
-3.1640902 -1.4566697 4.5074177 10579274
-3.119782 -1.4566697 4.5074177 10644809
-3.0754738 -1.4566697 4.5074177 10316614
-2.7280493 -1.3110027 4.0566759 10448458
-2.4437923 -1.1918206 3.687887 10446664
-2.4075403 -1.1918206 3.687887 10447434
-2.1736808 -1.0925022 3.380563 10447433
-1.9757999 -1.0084636 3.1205199 10316102
-1.9451251 -1.0084636 3.1205199 10250822
-2.0739877 -1.0925022 3.380563 10381382
-2.0407565 -1.0925022 3.380563 10447946
-2.0075254 -1.0925022 3.380563 10447173
-1.9742943 -1.0925022 3.380563 10775882
-1.9410633 -1.0925022 3.380563 10184512
-2.5437765 -1.4566697 4.5074177 10512965
-1.8746011 -1.0925022 3.380563 10578759
-1.84137 -1.0925022 3.380563 10709066
-1.808139 -1.0925022 3.380563 10710860
-2.366544 -1.4566697 4.5074177 10841417
-2.3222358 -1.4566697 4.5074177 10775880
-2.2779276 -1.4566697 4.5074177 10710602
-2.2336197 -1.4566697 4.5074177 10577988
-2.1893115 -1.4566697 4.5074177 10579272
-2.1450033 -1.4566697 4.5074177 11038535
-2.1006951 -1.4566697 4.5074177 10907723
-2.3134353 -1.6387533 5.0708447 10907210
-2.2635887 -1.6387533 5.0708447 10841674
-2.2137423 -1.6387533 5.0708447 10711116
-2.1638956 -1.6387533 5.0708447 11168329
-1.8791547 -1.4566697 4.5074177 10841161
-1.8348465 -1.4566697 4.5074177 10710345
-1.7905384 -1.4566697 4.5074177 10709830
-1.964509 -1.6387533 5.0708447 10447687
-3.0634599 -2.6220055 8.1133518 10447429
-2.9837053 -2.6220055 8.1133518 10052930
-2.9039507 -2.6220055 8.1133518 10512197
-1.7651225 -1.6387533 5.0708447 10249022
-1.5246897 -1.4566697 4.5074177 10380612
-1.6654292 -1.6387533 5.0708447 10118721
-4.3082199 -4.3700089 13.522252 10184516
-6.2629437 -6.5550132 20.283379 9724223
0 0 0 9658687
0 0 0 9921087
0 0 0 9461056
0 0 0 9132864
-0.50152487 -0.62428695 1.9317503 9198909
-0.22518331 -0.29133391 0.90148348 9002555
-0.18366936 -0.24735899 0.76541048 9133882
-0.16378428 -0.23000048 0.71169752 9264441
-0.14650705 -0.21491848 0.66502881 9395517
-0.13771221 -0.21145205 0.65430254 9131829
-0.1252213 -0.20169272 0.62410396 9066550
-0.11553151 -0.19567205 0.605474 3083782
-0.10640345 -0.19000039 0.587924 3152153
-0.097789653 -0.18464828 0.57136279 3282969
-0.08843638 -0.17716253 0.54819942 2231565
-0.083047554 -0.17716253 0.54819942 1442567
-0.077658728 -0.17716253 0.54819942 1311496
-0.072269902 -0.17716253 0.54819942 1180937
-0.06598933 -0.17480035 0.5408901 1574668
-0.059874035 -0.17250036 0.53377312 5057062
-0.054627024 -0.17250036 0.53377312 6238245
-0.049380008 -0.17250036 0.53377312 4660246
-0.044721436 -0.17480035 0.5408901 2822671
-0.038885981 -0.17250036 0.53377312 2362381
-0.033638969 -0.17250036 0.53377312 1836555
-0.028391954 -0.17250036 0.53377312 1836555
-0.023453539 -0.17480035 0.5408901 2493715
-0.018136565 -0.17480035 0.5408901 2691090
-0.012819591 -0.17480035 0.5408901 2625295
-0.0076040039 -0.17716253 0.54819942 3084560
-0.0022455237 -0.17958941 0.555709 3019280
0.003261803 -0.18208371 0.56342721 3348499
0.0088003175 -0.18208371 0.56342721 3807506
0.014540788 -0.18464828 0.57136279 4333080
0.02044527 -0.18728609 0.57952511 4660505
0.026142029 -0.18728609 0.57952511 3807253
0.032300219 -0.19000039 0.587924 1443080
0.038079537 -0.19000039 0.587924 1378059
0.044503842 -0.19279452 0.59656996 1705739
0.050368149 -0.19279452 0.59656996 4528664
0.05623246 -0.19279452 0.59656996 3410956
0.064962775 -0.20169272 0.62410396 10446152
0.071097746 -0.20169272 0.62410396 11367500
0 0 0 11235915
0.084670305 -0.20484416 0.63385558 11301707
0.090901129 -0.20484416 0.63385558 11497802
0.09713196 -0.20484416 0.63385558 11367500
0.10336279 -0.20484416 0.63385558 11170122
0.11312889 -0.21145205 0.65430254 11301706
0.11956072 -0.21145205 0.65430254 11104331
0.128058 -0.21491848 0.66502881 11301710
0.12828611 -0.20484416 0.63385558 11301964
0.13885619 -0.21145205 0.65430254 11760717
0.14074776 -0.20484416 0.63385558 11236941
0.15171984 -0.21145205 0.65430254 11367757
0.15815166 -0.21145205 0.65430254 11302219
0.16458349 -0.21145205 0.65430254 11825996
0.17101531 -0.21145205 0.65430254 11826509
0 0 0 11630672
0 0 0 11893330
0 0 0 12221265
0 0 0 11827277
0 0 0 12352853
0 0 0 12287057
0 0 0 12156242
0 0 0 12550488
0 0 0 12681816
0 0 0 12747350
0 0 0 12747863
0 0 0 13271895
0 0 0 13075798
0 0 0 12813653
0 0 0 13010268
0 0 0 13404252
0.9148469 -0.69000143 2.1350925 13273951
0.93583494 -0.69000143 2.1350925 13208929
0.95682299 -0.69000143 2.1350925 13863262
0.88468617 -0.62428695 1.9317503 13799261
0.90367538 -0.62428695 1.9317503 13799264
0.92266452 -0.62428695 1.9317503 13995357
0.94165373 -0.62428695 1.9317503 13995360
0.96064293 -0.62428695 1.9317503 13930336
0.79124135 -0.50423181 1.5602599 14128228
0.80657881 -0.50423181 1.5602599 13930849
1.0176105 -0.62428695 1.9317503 14126947
0 0 0 14323552
1.7051822 -1.0084636 3.1205199 13668447
1.6118671 -0.93643045 2.8976254 14062689
1.6403509 -0.93643045 2.8976254 14192481
1.557579 -0.87400174 2.7044504 14128226
1.5841639 -0.87400174 2.7044504 13931104
1.6107488 -0.87400174 2.7044504 13734240
1.4447062 -0.77117807 2.3862798 13930848
1.4681635 -0.77117807 2.3862798 13996895
1.2678777 -0.65550137 2.028338 13930075
1.430907 -0.72833484 2.2537088 13667679
1.307755 -0.65550137 2.028338 14060893
1.4752151 -0.72833484 2.2537088 13733470
1.3476323 -0.65550137 2.028338 13798750
1.3024484 -0.62428695 1.9317503 13733472
1.3214376 -0.62428695 1.9317503 13733218
1.3404268 -0.62428695 1.9317503 13143391
1.4273869 -0.65550137 2.028338 13273438
0 0 0 13076828
0 0 0 13338975
0 0 0 13077087
0 0 0 12813404
0 0 0 13010783
1.6284407 -0.69000143 2.1350925 13010268
0.60267591 -0.25211591 0.78012997 12485211
0.48087755 -0.19863676 0.61464781 12682077
0.66951442 -0.27312556 0.84514076 12879197
0.67782217 -0.27312556 0.84514076 12550234
0.51459748 -0.20484416 0.63385558 12287832
0.52082831 -0.20484416 0.63385558 12156249
0.78446013 -0.30488434 0.94341296 12419163
1.2189485 -0.46821523 1.4488127 12156505
1.2331904 -0.46821523 1.4488127 12222814
1.2474322 -0.46821523 1.4488127 11959383
0.65420145 -0.24277827 0.75123626 11828051
0.61595947 -0.22603494 0.69942683 11959384
0.59220368 -0.21491848 0.66502881 11762260
0.59874094 -0.21491848 0.66502881 11763031
0.60527819 -0.21491848 0.66502881 11434068
0.61181545 -0.21491848 0.66502881 11697240
1.3471255 -0.46821523 1.4488127 11695441
0.65721184 -0.22603494 0.69942683 11630421
0.8024388 -0.27312556 0.84514076 11498840
0.81074655 -0.27312556 0.84514076 11564631
0 0 0 11368019
0.65103906 -0.21491848 0.66502881 11237202
0.65757632 -0.21491848 0.66502881 11105618
0.84397763 -0.27312556 0.84514076 11039568
0.85228539 -0.27312556 0.84514076 10974548
0.6771881 -0.21491848 0.66502881 10777687
0.94789195 -0.29795516 0.92197174 10712148
0.97920978 -0.30488434 0.94341296 10711373
0.96601802 -0.29795516 0.92197174 10842449
0.70333713 -0.21491848 0.66502881 10974296
0.70987439 -0.21491848 0.66502881 10908757
0.71641165 -0.21491848 0.66502881 10777171
0.9799974 -0.29133391 0.90148348 10710608
1.0113331 -0.29795516 0.92197174 10316880
0 0 0 10317396
0 0 0 10185552
0 0 0 10579279
0 0 0 10251341
0 0 0 10119756
0 0 0 10448208
0 0 0 10447951
0 0 0 10250828
0 0 0 10382159
0 0 0 10119241
0 0 0 10250827
0 0 0 10250059
0 0 0 10119503
0 0 0 10185552
0 0 0 9988687
0 0 0 9988431
0 0 0 10184782
0 0 0 9856844
0 0 0 9659467
0 0 0 9857359
0 0 0 12485466
0 0 0 13208161
-3.4582472 -0.90794665 2.8976254 14325869
-3.6935916 -0.97778875 3.1205199 14785386
-3.9681594 -1.0592711 3.380563 14522986
-4.2926493 -1.1555685 3.687887 14588779
-4.2563972 -1.1555685 3.687887 14325864
-4.6421599 -1.2711254 4.0566759 14391914
-4.1838932 -1.1555685 3.687887 14589034
-4.1476407 -1.1555685 3.687887 14720619
-4.1113887 -1.1555685 3.687887 14325607
-4.4826508 -1.2711254 4.0566759 14588777
-4.4427733 -1.2711254 4.0566759 14589292
-4.4028959 -1.2711254 4.0566759 14720105
-4.3630185 -1.2711254 4.0566759 14654568
-4.3231416 -1.2711254 4.0566759 14523239
-4.2832642 -1.2711254 4.0566759 14457448
-4.2433867 -1.2711254 4.0566759 14523239
-3.821372 -1.1555685 3.687887 12944724
-3.78512 -1.1555685 3.687887 10776647
-3.4364622 -1.0592711 3.380563 11893592
-3.4032311 -1.0592711 3.380563 12024660
-3.3699999 -1.0592711 3.380563 11696465
-3.3367689 -1.0592711 3.380563 12025430
-3.0494196 -0.97778875 3.1205199 11696464
-3.0187449 -0.97778875 3.1205199 11630671
-2.98807 -0.97778875 3.1205199 11630672
-3.2038445 -1.0592711 3.380563 11630929
-3.1706135 -1.0592711 3.380563 11631186
-3.1373823 -1.0592711 3.380563 11368015
-3.1041512 -1.0592711 3.380563 11630929
-3.0709202 -1.0592711 3.380563 11827281
-3.0376892 -1.0592711 3.380563 11564109
-3.004458 -1.0592711 3.380563 11499089
-2.9712269 -1.0592711 3.380563 11564882
-3.2050865 -1.1555685 3.687887 11432783
-3.485718 -1.2711254 4.0566759 11367244
-3.4458406 -1.2711254 4.0566759 11236687
-3.0963302 -1.1555685 3.687887 11235917
-3.0600781 -1.1555685 3.687887 11170126
-3.3262088 -1.2711254 4.0566759 11105101
-3.2863314 -1.2711254 4.0566759 11105103
-3.2464542 -1.2711254 4.0566759 11170121
-3.2065768 -1.2711254 4.0566759 11235660
-3.5185549 -1.4123616 4.5074177 10907723
-5.21137 -2.1185422 6.761126 10709828
-5.144908 -2.1185422 6.761126 11235658
-3.3856306 -1.4123616 4.5074177 10776141
-2.5059917 -1.0592711 3.380563 10907466
-3.2970145 -1.4123616 4.5074177 10710347
-3.2527063 -1.4123616 4.5074177 10711630
-3.2083981 -1.4123616 4.5074177 10776140
-3.1640902 -1.4123616 4.5074177 10775883
-3.119782 -1.4123616 4.5074177 10906954
-3.0754738 -1.4123616 4.5074177 10709830
-2.7280493 -1.2711254 4.0566759 10710343
-2.4437923 -1.1555685 3.687887 10973004
-2.4075403 -1.1555685 3.687887 10448715
-2.0064747 -0.97778875 3.1205199 10579018
-1.9757999 -0.97778875 3.1205199 10447684
-1.9451251 -0.97778875 3.1205199 10776140
-2.0739877 -1.0592711 3.380563 11038540
-2.0407565 -1.0592711 3.380563 10710858
-2.0075254 -1.0592711 3.380563 10907211
-1.9742943 -1.0592711 3.380563 10775885
-1.9410633 -1.0592711 3.380563 10776653
-1.9078321 -1.0592711 3.380563 10578761
-1.8746011 -1.0592711 3.380563 10972747
-1.84137 -1.0592711 3.380563 10644295
-1.808139 -1.0592711 3.380563 11169608
-2.1298895 -1.2711254 4.0566759 10841413
-2.3222358 -1.4123616 4.5074177 10842183
-2.2779276 -1.4123616 4.5074177 10710343
-2.0102577 -1.2711254 4.0566759 11169867
-2.1893115 -1.4123616 4.5074177 10907206
-2.1450033 -1.4123616 4.5074177 11235657
-2.1006951 -1.4123616 4.5074177 11104331
-2.0563872 -1.4123616 4.5074177 11170120
-2.2635887 -1.5889068 5.0708447 11104331
-1.9677709 -1.4123616 4.5074177 11236174
-1.7311165 -1.2711254 4.0566759 11301964
-1.6912392 -1.2711254 4.0566759 11235917
-1.8348465 -1.4123616 4.5074177 11104072
-1.7905384 -1.4123616 4.5074177 11235143
-1.964509 -1.5889068 5.0708447 11235143
-1.9146624 -1.5889068 5.0708447 11038538
-1.8648157 -1.5889068 5.0708447 10972998
-1.6133059 -1.4123616 4.5074177 10973259
-1.0862292 -0.97778875 3.1205199 10972745
-0.98015761 -0.90794665 2.8976254 10709827
-0.83271462 -0.79445338 2.5354223 10842183
-0.86164403 -0.84741688 2.7044504 10513224
0 0 0 10447174
0 0 0 10250309
0 0 0 9922114
0 0 0 10052417
