# .PCD v0.7 - Point Cloud Data file format
VERSION 0.7
FIELDS x y z rgb
SIZE 4 4 4 4
TYPE F F F U
COUNT 1 1 1 1
WIDTH 1223
HEIGHT 1
VIEWPOINT 0 0 0 1 0 0 0
POINTS 1223
DATA ascii
-3.4833536 -0.19113922 6.761126 12484696
-3.4168913 -0.19113922 6.761126 12681557
-3.3504291 -0.19113922 6.761126 12484439
-3.283967 -0.19113922 6.761126 12747609
-3.2175047 -0.19113922 6.761126 13075543
-3.7812514 -0.22936709 8.1133518 12615762
-3.0845804 -0.19113922 6.761126 12748892
-3.0181184 -0.19113922 6.761126 13207126
-3.5419877 -0.22936709 8.1133518 12878936
-3.4622331 -0.22936709 8.1133518 13207129
-3.3824785 -0.22936709 8.1133518 12551511
-2.7522695 -0.19113922 6.761126 10248246
-2.3021207 -0.16383362 5.7952509 11827281
-1.964509 -0.14335443 5.0708447 13142619
-1.9146624 -0.14335443 5.0708447 13470044
-1.8648157 -0.14335443 5.0708447 13799266
-1.8149691 -0.14335443 5.0708447 13404507
-1.7651225 -0.14335443 5.0708447 13732957
-1.9603152 -0.16383362 5.7952509 13536348
-1.9033476 -0.16383362 5.7952509 13273946
-1.84638 -0.16383362 5.7952509 13207644
-2.0876479 -0.19113922 6.761126 13799259
-2.4254231 -0.22936709 8.1133518 13273176
-2.3456683 -0.22936709 8.1133518 13338714
-2.2659137 -0.22936709 8.1133518 13536347
-2.1861591 -0.22936709 8.1133518 13273431
-2.1064045 -0.22936709 8.1133518 12156244
-2.5333123 -0.28670886 10.141689 9399131
-2.433619 -0.28670886 10.141689 9071453
-1.8671408 -0.22936709 8.1133518 9334369
-1.4894884 -0.19113922 6.761126 9138016
-0.50224453 -0.067460902 2.3862798 9531490
-0.35388625 -0.049862407 1.763772 9991781
-0.2764504 -0.040958405 1.4488127 9926242
-0.24472792 -0.038227845 1.3522252 9795426
-0.1876504 -0.030995551 1.0963988 8610130
-0.15961687 -0.027971596 0.98943311 4071443
-0.14989071 -0.027971596 0.98943311 2625804
-0.13682728 -0.027305603 0.96587515 1772302
-0.12733269 -0.027305603 0.96587515 1444623
-0.10998221 -0.025485231 0.90148348 1378572
-0.09892232 -0.024931204 0.88188601 1443852
-0.088333055 -0.024400752 0.86312246 1444109
-0.07984852 -0.024400752 0.86312246 1246987
-0.071363986 -0.024400752 0.86312246 1378830
-0.061569467 -0.023892403 0.84514076 6370091
-0.052174725 -0.023404805 0.82789302 4136988
-0.0440365 -0.023404805 0.82789302 3874074
-0.035898276 -0.023404805 0.82789302 3282712
-0.027760049 -0.023404805 0.82789302 2954521
-0.018489795 -0.022054527 0.78012997 2954005
-0.010616911 -0.021638403 0.76541048 3085846
-0.0030928911 -0.021638403 0.76541048 3414041
0.0044311285 -0.021638403 0.76541048 3150869
0.011955148 -0.021638403 0.76541048 3346963
0.019479167 -0.021638403 0.76541048 3413268
0.02752248 -0.022054527 0.78012997 3610646
0.035881214 -0.022486968 0.79542661 4003861
0.044574302 -0.022936707 0.81133515 3938583
0.052549761 -0.022936707 0.81133515 4004629
0.060525224 -0.022936707 0.81133515 4135447
0.068500683 -0.022936707 0.81133515 4398103
0.078036882 -0.023404805 0.82789302 3610131
0 0 0 1442051
0 0 0 590087
0 0 0 721673
0 0 0 786698
0 0 0 590345
0 0 0 918024
0 0 0 787465
0 0 0 1312263
0.57021266 -0.088218108 3.1205199 2100236
0.60088754 -0.088218108 3.1205199 1510158
0.58645076 -0.081916809 2.8976254 1312779
0.61493456 -0.081916809 2.8976254 1247245
0.64341831 -0.081916809 2.8976254 1181451
0.67190212 -0.081916809 2.8976254 3350817
0.75426179 -0.088218108 3.1205199 8083011
1.0204177 -0.11468355 4.0566759 8148542
1.1781055 -0.12742616 4.5074177 9067846
1.5716746 -0.16383362 5.7952509 9462600
1.6286421 -0.16383362 5.7952509 9726028
1.1799269 -0.11468355 4.0566759 10381905
1.2198042 -0.11468355 4.0566759 10775629
1.145165 -0.10425776 3.687887 11106131
1.181417 -0.10425776 3.687887 12156760
1.2176691 -0.10425776 3.687887 12419931
1.1494278 -0.095569611 3.380563 12879454
1.0916852 -0.088218108 3.1205199 13141855
1.12236 -0.088218108 3.1205199 13207902
1.1530348 -0.088218108 3.1205199 13207906
1.0991589 -0.081916809 2.8976254 13142624
1.1276428 -0.081916809 2.8976254 13535840
1.0790514 -0.07645569 2.7044504 12815200
1.1056362 -0.07645569 2.7044504 13339491
0.94351768 -0.063713081 2.2537088 13798755
0.96567178 -0.063713081 2.2537088 13536352
0.98782581 -0.063713081 2.2537088 13207390
1.0099798 -0.063713081 2.2537088 13142108
1.0321339 -0.063713081 2.2537088 13601892
1.054288 -0.063713081 2.2537088 13404508
1.1397622 -0.067460902 2.3862798 13272924
1.5211331 -0.088218108 3.1205199 13142621
1.5518079 -0.088218108 3.1205199 13207129
1.7143562 -0.095569611 3.380563 12813402
1.497932 -0.081916809 2.8976254 12681818
1.5264157 -0.081916809 2.8976254 12944992
1.5548996 -0.081916809 2.8976254 12614740
1.5833833 -0.081916809 2.8976254 4201494
1.6118671 -0.081916809 2.8976254 1509903
1.5309942 -0.07645569 2.7044504 1378316
1.3743345 -0.067460902 2.3862798 1312523
1.3201367 -0.063713081 2.2537088 1247500
1.2716439 -0.060359757 2.1350925 1246729
1.2926319 -0.060359757 2.1350925 1312521
1.247939 -0.057341773 2.028338 1378316
1.2678777 -0.057341773 2.028338 786950
1.2878163 -0.057341773 2.028338 786695
1.307755 -0.057341773 2.028338 852743
1.3276936 -0.057341773 2.028338 721671
1.3476323 -0.057341773 2.028338 721673
1.4395483 -0.060359757 2.1350925 721673
1.3875096 -0.057341773 2.028338 655628
1.4074482 -0.057341773 2.028338 590348
1.4273869 -0.057341773 2.028338 655882
1.4473255 -0.057341773 2.028338 590089
1.5444885 -0.060359757 2.1350925 655881
1.5654767 -0.060359757 2.1350925 852491
1.6746017 -0.063713081 2.2537088 721675
1.7965648 -0.067460902 2.3862798 655881
1.820022 -0.067460902 2.3862798 721673
1.7410638 -0.063713081 2.2537088 721675
1.7632179 -0.063713081 2.2537088 721674
1.7853719 -0.063713081 2.2537088 590089
1.807526 -0.063713081 2.2537088 655881
1.8296801 -0.063713081 2.2537088 590602
1.6666507 -0.057341773 2.028338 590345
1.6865894 -0.057341773 2.028338 656395
1.7065281 -0.057341773 2.028338 721675
1.7264667 -0.057341773 2.028338 655882
2.1830065 -0.071677215 2.5354223 721161
2.2079298 -0.071677215 2.5354223 786697
2.2328532 -0.071677215 2.5354223 655881
2.2577765 -0.071677215 2.5354223 655881
2.1484234 -0.067460902 2.3862798 655881
1.9432616 -0.060359757 2.1350925 590602
1.5550309 -0.047784805 1.6902815 721673
1.4507507 -0.044109054 1.5602599 721417
1.4660881 -0.044109054 1.5602599 786953
1.4814255 -0.044109054 1.5602599 721674
1.6214931 -0.047784805 1.6902815 917768
1.6381086 -0.047784805 1.6902815 918539
1.5885353 -0.045873415 1.6226703 1707787
1.5427752 -0.044109054 1.5602599 8410432
1.5004047 -0.042475387 1.5024725 9264965
1.4610606 -0.040958405 1.4488127 9397576
1.4753026 -0.040958405 1.4488127 9593671
1.4895445 -0.040958405 1.4488127 9396036
1.4519317 -0.039546046 1.3988537 9067846
1.5180283 -0.040958405 1.4488127 9462088
1.5322702 -0.040958405 1.4488127 9658440
1.546512 -0.040958405 1.4488127 9593676
1.5607539 -0.040958405 1.4488127 9199432
1.5749959 -0.040958405 1.4488127 9330504
1.5892377 -0.040958405 1.4488127 9658186
1.7958972 -0.045873415 1.6226703 9527370
1.8118482 -0.045873415 1.6226703 9134922
1.7574992 -0.044109054 1.5602599 9528135
1.5894396 -0.039546046 1.3988537 9331783
1.4997588 -0.036994688 1.3086051 9462602
1.4209483 -0.034752585 1.2292956 9593932
1.5254861 -0.036994688 1.3086051 9594187
1.5383497 -0.036994688 1.3086051 9725001
1.6581936 -0.039546046 1.3988537 9594444
0 0 0 9594190
0 0 0 9462604
0 0 0 9528399
0 0 0 9528656
0 0 0 9528655
0 0 0 9659983
0 0 0 9791055
0 0 0 9790542
0 0 0 9398096
0 0 0 9463889
0 0 0 9332046
0 0 0 9199172
0 0 0 9264710
-4.0346217 -0.062338527 3.380563 9659724
-4.8016691 -0.074806236 4.0566759 10777946
-4.7617917 -0.074806236 4.0566759 11303515
-5.9023929 -0.093507797 5.0708447 11302491
-5.8525462 -0.093507797 5.0708447 11499609
-4.2201452 -0.068005666 3.687887 11631449
-4.1838932 -0.068005666 3.687887 11499861
-4.1476407 -0.068005666 3.687887 11631962
-4.5225282 -0.074806236 4.0566759 11631447
-4.4826508 -0.074806236 4.0566759 11500634
-4.4427733 -0.074806236 4.0566759 11565914
-4.4028959 -0.074806236 4.0566759 11763035
-3.9663804 -0.068005666 3.687887 11632475
-3.6026175 -0.062338527 3.380563 11763548
-3.2948184 -0.057543259 3.1205199 11763546
-3.2641437 -0.057543259 3.1205199 11829339
-3.2334688 -0.057543259 3.1205199 11500374
-3.2027938 -0.057543259 3.1205199 11237200
-4.123755 -0.074806236 4.0566759 8738610
-4.0838776 -0.074806236 4.0566759 7225380
-4.0440001 -0.074806236 4.0566759 2492928
-4.0041227 -0.074806236 4.0566759 1511442
-3.9642456 -0.074806236 4.0566759 1772558
-3.9243684 -0.074806236 4.0566759 3415067
-3.884491 -0.074806236 4.0566759 4136471
-4.2717929 -0.083118044 4.5074177 4005143
-4.2274847 -0.083118044 4.5074177 3874072
-4.183177 -0.083118044 4.5074177 3808536
-4.1388688 -0.083118044 4.5074177 4071449
-4.6063805 -0.093507797 5.0708447 3874068
-4.5565338 -0.093507797 5.0708447 4005655
-4.5066872 -0.093507797 5.0708447 4005399
-4.4568405 -0.093507797 5.0708447 3940121
-4.4069939 -0.093507797 5.0708447 4070936
-4.3571472 -0.093507797 5.0708447 4071190
-4.3073006 -0.093507797 5.0708447 4005655
-4.2574539 -0.093507797 5.0708447 3939350
-3.7400956 -0.083118044 4.5074177 3285793
-3.6957874 -0.083118044 4.5074177 5846830
-3.6514795 -0.083118044 4.5074177 6307117
-4.0580673 -0.093507797 5.0708447 8015927
-4.0082207 -0.093507797 5.0708447 8015670
-3.9583743 -0.093507797 5.0708447 5911065
-3.9085276 -0.093507797 5.0708447 1573638
-3.858681 -0.093507797 5.0708447 984329
-3.8088343 -0.093507797 5.0708447 918537
-3.7589877 -0.093507797 5.0708447 1049868
-3.709141 -0.093507797 5.0708447 2559768
-3.6592944 -0.093507797 5.0708447 9133133
-3.2083981 -0.083118044 4.5074177 9527104
-3.5596011 -0.093507797 5.0708447 9659458
-3.5097547 -0.093507797 5.0708447 9659201
-3.459908 -0.093507797 5.0708447 10117956
-3.4100614 -0.093507797 5.0708447 10512198
-3.8402452 -0.10686605 5.7952509 10381383
-3.7832778 -0.10686605 5.7952509 10447688
-3.72631 -0.10686605 5.7952509 10776142
-3.2106748 -0.093507797 5.0708447 10841933
-3.1608281 -0.093507797 5.0708447 10972746
-2.765317 -0.083118044 4.5074177 11039825
-2.721009 -0.083118044 4.5074177 11302225
-3.4414723 -0.10686605 5.7952509 11302480
-4.738307 -0.14961247 8.1133518 11695696
-4.6585522 -0.14961247 8.1133518 11826511
-4.5787973 -0.14961247 8.1133518 12024149
-3.7492023 -0.12467705 6.761126 11630670
-3.68274 -0.12467705 6.761126 11631699
-3.6162779 -0.12467705 6.761126 11893842
-3.5498157 -0.12467705 6.761126 12090453
-3.4833536 -0.12467705 6.761126 12353363
-3.4168913 -0.12467705 6.761126 12222035
-3.3504291 -0.12467705 6.761126 12419668
-3.283967 -0.12467705 6.761126 12549713
-3.2175047 -0.12467705 6.761126 12943957
-3.7812514 -0.14961247 8.1133518 12549969
-3.7014968 -0.14961247 8.1133518 12616025
-3.6217422 -0.14961247 8.1133518 12878681
-4.4274845 -0.18701559 10.141689 12747863
-3.4622331 -0.14961247 8.1133518 12943702
-3.3824785 -0.14961247 8.1133518 12484433
-2.7522695 -0.12467705 6.761126 8870202
-2.6858075 -0.12467705 6.761126 11105364
-2.2451532 -0.10686605 5.7952509 12746321
-2.1881855 -0.10686605 5.7952509 13536089
-2.131218 -0.10686605 5.7952509 13338457
-1.8149691 -0.093507797 5.0708447 12155216
-1.7651225 -0.093507797 5.0708447 11761486
-1.9603152 -0.10686605 5.7952509 12091223
-1.9033476 -0.10686605 5.7952509 12418901
-1.84638 -0.10686605 5.7952509 11696208
-2.0876479 -0.12467705 6.761126 13141853
-2.0211856 -0.12467705 6.761126 12025426
-1.9547236 -0.12467705 6.761126 11236171
-2.2659137 -0.14961247 8.1133518 13077083
-2.1861591 -0.14961247 8.1133518 13273433
-2.1064045 -0.14961247 8.1133518 11826253
-2.02665 -0.14961247 8.1133518 9596254
-1.9468954 -0.14961247 8.1133518 9268059
-1.8671408 -0.14961247 8.1133518 9137503
-1.7873862 -0.14961247 8.1133518 9268831
-0.42690787 -0.037403118 2.028338 9925731
-0.28066841 -0.025795253 1.3988537 9925987
-0.25802037 -0.024935411 1.3522252 9531739
-0.17906922 -0.018245423 0.98943311 3743511
-0.16934305 -0.018245423 0.98943311 2099983
-0.15961687 -0.018245423 0.98943311 1444109
-0.14989071 -0.018245423 0.98943311 1247243
-0.13682728 -0.017811008 0.96587515 1378317
-0.11884384 -0.016623607 0.90148348 1247501
-0.10759129 -0.016262224 0.88188601 1378316
-0.09892232 -0.016262224 0.88188601 1180937
-0.088333055 -0.015916219 0.86312246 1378572
-0.078185014 -0.015584632 0.84514076 1312523
-0.069877237 -0.015584632 0.84514076 1444623
-0.060312953 -0.015266579 0.82789302 4597285
-0.052174725 -0.015266579 0.82789302 4596511
-0.0440365 -0.015266579 0.82789302 3873820
-0.035898276 -0.015266579 0.82789302 3414811
-0.027760049 -0.015266579 0.82789302 3085849
-0.01885234 -0.014667889 0.79542661 3020310
-0.010821083 -0.014385815 0.78012997 3414298
-0.00315237 -0.014385815 0.78012997 3742491
0.0045163427 -0.014385815 0.78012997 3281940
0.011955148 -0.014114384 0.76541048 3347990
0.019853767 -0.014385815 0.78012997 3348247
0.02752248 -0.014385815 0.78012997 3545112
0.035881214 -0.014667889 0.79542661 3676954
0.044574302 -0.014961247 0.81133515 3872794
0.052549761 -0.014961247 0.81133515 3938839
0.060525224 -0.014961247 0.81133515 4004890
0.068500683 -0.014961247 0.81133515 2362378
0.078036882 -0.015266579 0.82789302 983303
0 0 0 655880
0 0 0 590343
0 0 0 721416
0 0 0 852489
0 0 0 721416
0 0 0 852489
0 0 0 721416
0 0 0 853256
0.5294832 -0.053433023 2.8976254 1115659
0.55796695 -0.053433023 2.8976254 1115402
0.48295945 -0.044003665 2.3862798 1444108
0.57393891 -0.049870823 2.7044504 1707281
0.60052377 -0.049870823 2.7044504 1378059
0.62710863 -0.049870823 2.7044504 3087387
0.75426179 -0.057543259 3.1205199 7623232
0.850348 -0.062338527 3.380563 8081983
1.060295 -0.074806236 4.0566759 8936515
1.2224137 -0.083118044 4.5074177 8805700
1.4250619 -0.093507797 5.0708447 9265991
1.6856097 -0.10686605 5.7952509 9398091
1.5247551 -0.093507797 5.0708447 10120268
0.78730088 -0.046753898 2.5354223 10711377
0.81222421 -0.046753898 2.5354223 11303000
1.1161966 -0.062338527 3.380563 12157021
1.1494278 -0.062338527 3.380563 12879198
1.0916852 -0.057543259 3.1205199 12813661
1.12236 -0.057543259 3.1205199 12945761
1.0706751 -0.053433023 2.8976254 13076574
1.0991589 -0.053433023 2.8976254 13338977
1.0524665 -0.049870823 2.7044504 13207902
1.0116107 -0.046753898 2.5354223 13208161
0.97556144 -0.044003665 2.3862798 13471075
0.94351768 -0.041559022 2.2537088 13470304
0.96567178 -0.041559022 2.2537088 13470049
0.98782581 -0.041559022 2.2537088 13076574
1.0099798 -0.041559022 2.2537088 13273441
1.0321339 -0.041559022 2.2537088 13470562
1.054288 -0.041559022 2.2537088 13404256
1.1397622 -0.044003665 2.3862798 12813403
1.5211331 -0.057543259 3.1205199 12945503
1.5518079 -0.057543259 3.1205199 12879965
1.371485 -0.049870823 2.7044504 12550232
1.3980699 -0.049870823 2.7044504 12812890
1.4246547 -0.049870823 2.7044504 12681562
1.4512396 -0.049870823 2.7044504 12419417
1.5833833 -0.053433023 2.8976254 4201495
1.5044093 -0.049870823 2.7044504 1509646
1.4353071 -0.046753898 2.5354223 1378317
1.2979827 -0.041559022 2.2537088 1246731
1.2506558 -0.039371703 2.1350925 1247501
1.2080617 -0.037403118 2.028338 1246729
1.2280003 -0.037403118 2.028338 1115915
1.247939 -0.037403118 2.028338 1312780
1.334608 -0.039371703 2.1350925 721159
1.2878163 -0.037403118 2.028338 655366
1.307755 -0.037403118 2.028338 786696
1.3276936 -0.037403118 2.028338 656137
1.3476323 -0.037403118 2.028338 656395
1.3675709 -0.037403118 2.028338 655882
1.3875096 -0.037403118 2.028338 655628
1.4074482 -0.037403118 2.028338 590089
1.5025125 -0.039371703 2.1350925 655368
1.5235004 -0.039371703 2.1350925 590089
1.6302935 -0.041559022 2.2537088 590089
1.6524476 -0.041559022 2.2537088 786696
1.7731075 -0.044003665 2.3862798 524552
1.7965648 -0.044003665 2.3862798 786697
1.820022 -0.044003665 2.3862798 655882
1.7410638 -0.041559022 2.2537088 655882
1.7632179 -0.041559022 2.2537088 720905
1.7853719 -0.041559022 2.2537088 786696
1.807526 -0.041559022 2.2537088 590087
1.6467121 -0.037403118 2.028338 590087
1.6666507 -0.037403118 2.028338 655881
1.6865894 -0.037403118 2.028338 524807
1.7065281 -0.037403118 2.028338 655880
1.8173332 -0.039371703 2.1350925 590602
2.1830065 -0.046753898 2.5354223 590089
2.2079298 -0.046753898 2.5354223 721160
2.2328532 -0.046753898 2.5354223 590600
2.2577765 -0.046753898 2.5354223 590600
2.1484234 -0.044003665 2.3862798 524807
2.1718805 -0.044003665 2.3862798 655882
1.9642496 -0.039371703 2.1350925 786950
1.5087806 -0.029922495 1.6226703 918025
1.8151566 -0.035622016 1.9317503 852232
1.9258533 -0.037403118 2.028338 655625
1.9457918 -0.037403118 2.028338 720903
1.8721242 -0.035622016 1.9317503 918282
1.5274378 -0.02877163 1.5602599 1641738
1.5427752 -0.02877163 1.5602599 8409664
1.5581126 -0.02877163 1.5602599 9068100
1.5151742 -0.027706014 1.5024725 9198914
1.4753026 -0.026716512 1.4488127 9068098
1.4895445 -0.026716512 1.4488127 9265220
1.4519317 -0.025795253 1.3988537 9133638
1.5180283 -0.026716512 1.4488127 9462343
1.5322702 -0.026716512 1.4488127 9526852
1.546512 -0.026716512 1.4488127 9067587
1.5607539 -0.026716512 1.4488127 9199688
1.5749959 -0.026716512 1.4488127 9330503
1.5892377 -0.026716512 1.4488127 9330248
1.7268243 -0.02877163 1.5602599 9265482
1.7421618 -0.02877163 1.5602599 9067843
1.7574992 -0.02877163 1.5602599 9331016
1.7728366 -0.02877163 1.5602599 9395782
1.6031904 -0.025795253 1.3988537 9527625
1.465353 -0.023376949 1.2677112 9593930
1.4778147 -0.023376949 1.2677112 9527880
1.5383497 -0.024131043 1.3086051 9396809
1.6581936 -0.025795253 1.3988537 9331530
0 0 0 9462862
0 0 0 9462349
0 0 0 9527885
0 0 0 9790799
0 0 0 9659213
0 0 0 9659471
0 0 0 9725777
0 0 0 9659982
0 0 0 9659213
0 0 0 9922384
0 0 0 9856591
0 0 0 8739648
0 0 0 8805700
-4.0346217 -0.02910744 3.380563 9200201
-4.3651533 -0.031753574 3.687887 10580825
-4.7617917 -0.034928933 4.0566759 11237466
-4.7219143 -0.034928933 4.0566759 11434588
-5.2022634 -0.038809925 4.5074177 11499096
-4.6421599 -0.034928933 4.0566759 11302997
-4.1838932 -0.031753574 3.687887 11368024
-4.1476407 -0.031753574 3.687887 11303000
-4.5225282 -0.034928933 4.0566759 11303769
-4.4826508 -0.034928933 4.0566759 11435611
-4.0388846 -0.031753574 3.687887 11632220
-4.0026326 -0.031753574 3.687887 11500377
-3.6358488 -0.02910744 3.380563 11698012
-3.6026175 -0.02910744 3.380563 11763291
-3.2948184 -0.026868409 3.1205199 11698011
-2.8289242 -0.023285951 2.7044504 11500887
-3.0025065 -0.024949236 2.8976254 11696982
-2.9740229 -0.024949236 2.8976254 11302734
-4.123755 -0.034928933 4.0566759 8934448
-4.0838776 -0.034928933 4.0566759 6700578
-4.0440001 -0.034928933 4.0566759 2623744
-3.6401114 -0.031753574 3.687887 1378830
-3.6038594 -0.031753574 3.687887 1575180
-3.5676074 -0.031753574 3.687887 3218202
-3.5313554 -0.031753574 3.687887 3808535
-3.8446138 -0.034928933 4.0566759 3874327
-4.2274847 -0.038809925 4.5074177 3873812
-4.183177 -0.038809925 4.5074177 4005399
-4.1388688 -0.038809925 4.5074177 4005398
-4.0945606 -0.038809925 4.5074177 3874582
-4.5565338 -0.043661162 5.0708447 4005398
-4.5066872 -0.043661162 5.0708447 4005398
-4.4568405 -0.043661162 5.0708447 4136984
-4.4069939 -0.043661162 5.0708447 4268059
-4.3571472 -0.043661162 5.0708447 4399386
-4.3073006 -0.043661162 5.0708447 4071191
-3.4059634 -0.034928933 4.0566759 3873812
-3.366086 -0.034928933 4.0566759 2825755
-3.6957874 -0.038809925 4.5074177 5518122
-3.6514795 -0.038809925 4.5074177 5583655
-4.0580673 -0.043661162 5.0708447 6109225
-4.0082207 -0.043661162 5.0708447 6831915
-3.9583743 -0.043661162 5.0708447 4465681
-3.9085276 -0.043661162 5.0708447 1246985
-3.858681 -0.043661162 5.0708447 984329
-3.8088343 -0.043661162 5.0708447 918282
-3.7589877 -0.043661162 5.0708447 1115401
-3.709141 -0.043661162 5.0708447 1707798
-3.6592944 -0.043661162 5.0708447 8082765
-3.6094477 -0.043661162 5.0708447 8541496
-3.5596011 -0.043661162 5.0708447 7685929
-3.5097547 -0.043661162 5.0708447 5778198
-3.459908 -0.043661162 5.0708447 5581597
-3.4100614 -0.043661162 5.0708447 5647645
-3.8402452 -0.049898472 5.7952509 5582108
-3.7832778 -0.049898472 5.7952509 5517088
-3.72631 -0.049898472 5.7952509 5516574
-3.2106748 -0.043661162 5.0708447 5778460
-3.1608281 -0.043661162 5.0708447 5713184
-2.765317 -0.038809925 4.5074177 7158824
-2.721009 -0.038809925 4.5074177 10973008
-3.4414723 -0.049898472 5.7952509 11301710
-3.9485886 -0.058214881 6.761126 11498574
-4.6585522 -0.069857866 8.1133518 11760718
-3.2705696 -0.049898472 5.7952509 11498573
-3.2136018 -0.049898472 5.7952509 11761234
-3.1566343 -0.049898472 5.7952509 11368786
-3.6162779 -0.058214881 6.761126 11696465
-3.5498157 -0.058214881 6.761126 12220752
-3.4833536 -0.058214881 6.761126 12090450
-3.4168913 -0.058214881 6.761126 12156242
-3.3504291 -0.058214881 6.761126 12091219
-3.9407606 -0.069857866 8.1133518 12484438
-3.2175047 -0.058214881 6.761126 12812373
-3.7812514 -0.069857866 8.1133518 12878166
-3.7014968 -0.069857866 8.1133518 12812374
-3.6217422 -0.069857866 8.1133518 12813143
-3.5419877 -0.069857866 8.1133518 12878166
-3.4622331 -0.069857866 8.1133518 12617047
-2.8187318 -0.058214881 6.761126 12286544
-2.7522695 -0.058214881 6.761126 7357995
-2.6858075 -0.058214881 6.761126 10054995
-2.6193452 -0.058214881 6.761126 12943957
-2.1881855 -0.049898472 5.7952509 13142619
-2.131218 -0.049898472 5.7952509 11301451
-1.8149691 -0.043661162 5.0708447 10973255
-1.7651225 -0.043661162 5.0708447 10973515
-1.9603152 -0.049898472 5.7952509 11171407
-1.9033476 -0.049898472 5.7952509 11499342
-1.84638 -0.049898472 5.7952509 11959894
-1.7894125 -0.049898472 5.7952509 11631442
-1.7324449 -0.049898472 5.7952509 11695435
-1.9547236 -0.058214881 6.761126 12419413
-1.8882613 -0.058214881 6.761126 12813142
-2.1861591 -0.069857866 8.1133518 13141337
-2.1064045 -0.069857866 8.1133518 11959116
-2.02665 -0.069857866 8.1133518 8874330
-2.433619 -0.087322325 10.141689 9202268
-2.3339257 -0.087322325 10.141689 8743262
-2.2342327 -0.087322325 10.141689 9663074
-0.2944192 -0.012044459 1.3988537 9794403
-0.25435576 -0.010915291 1.2677112 9859937
-0.18879539 -0.0085192509 0.98943311 2494989
-0.17480567 -0.0083164116 0.96587515 1509645
-0.16531107 -0.0083164116 0.96587515 1049866
-0.15219283 -0.0081230067 0.94341296 984072
-0.13656709 -0.0077619841 0.90148348 1181707
-0.12770545 -0.0077619841 0.90148348 1115145
-0.11626028 -0.0075932452 0.88188601 1246730
-0.10759129 -0.0075932452 0.88188601 1378316
-0.09892232 -0.0075932452 0.88188601 1246987
-0.086492784 -0.0072768601 0.84514076 1246987
-0.078185014 -0.0072768601 0.84514076 1181452
-0.068451174 -0.0071283532 0.82789302 1181451
-0.059106693 -0.0069857859 0.81133515 1378573
-0.05113123 -0.0069857859 0.81133515 3414809
-0.0440365 -0.0071283532 0.82789302 4005917
-0.035898276 -0.0071283532 0.82789302 3545113
-0.027204847 -0.0069857859 0.81133515 3086104
-0.018489795 -0.0067171021 0.78012997 3151383
-0.010821083 -0.0067171021 0.78012997 3545883
-0.00315237 -0.0067171021 0.78012997 3939354
0.0045163427 -0.0067171021 0.78012997 3610388
0.012185055 -0.0067171021 0.78012997 3413525
0.019853767 -0.0067171021 0.78012997 3610905
0.02752248 -0.0067171021 0.78012997 3807513
0.036598839 -0.0069857859 0.81133515 3939353
0.044574302 -0.0069857859 0.81133515 3807769
0.052549761 -0.0069857859 0.81133515 2362123
0.060525224 -0.0069857859 0.81133515 1180167
0.068500683 -0.0069857859 0.81133515 917767
0.078036882 -0.0071283532 0.82789302 918024
0 0 0 655623
0 0 0 655624
0 0 0 786697
0 0 0 721416
0 0 0 721159
0 0 0 721671
0 0 0 786695
0 0 0 590344
0.33694384 -0.015876787 1.8439435 852744
0.35506988 -0.015876787 1.8439435 984074
0.41051555 -0.017464466 2.028338 1115403
0.43045419 -0.017464466 2.028338 1246731
0.47409773 -0.018383648 2.1350925 1443851
0.55333114 -0.020546429 2.3862798 2101778
0.70038593 -0.024949236 2.8976254 6045748
0.78493661 -0.026868409 3.1205199 5716012
0.81561148 -0.026868409 3.1205199 5913901
0.91681015 -0.02910744 3.380563 7622458
1.2667217 -0.038809925 4.5074177 9067841
1.6856097 -0.049898472 5.7952509 9396294
2.4396083 -0.069857866 8.1133518 9725514
2.5193629 -0.069857866 8.1133518 10579532
0.81222421 -0.021830581 2.5354223 11172179
0.83714753 -0.021830581 2.5354223 12156249
1.0610102 -0.026868409 3.1205199 12879712
1.0916852 -0.026868409 3.1205199 12748126
1.12236 -0.026868409 3.1205199 13010784
1.1530348 -0.026868409 3.1205199 13010783
1.0991589 -0.024949236 2.8976254 13142881
1.0524665 -0.023285951 2.7044504 13535585
0.95210421 -0.020546429 2.3862798 13273441
0.92136365 -0.019404963 2.2537088 13273697
0.94351768 -0.019404963 2.2537088 13471329
0.96567178 -0.019404963 2.2537088 13011039
0.98782581 -0.019404963 2.2537088 13010269
1.0099798 -0.019404963 2.2537088 13207392
1.0321339 -0.019404963 2.2537088 13010783
1.054288 -0.019404963 2.2537088 13206877
1.2109972 -0.021830581 2.5354223 12747098
1.4124806 -0.024949236 2.8976254 13010528
1.3449001 -0.023285951 2.7044504 12747609
1.2857672 -0.021830581 2.5354223 12681818
1.3106905 -0.021830581 2.5354223 12681818
1.3356138 -0.021830581 2.5354223 12681050
1.4512396 -0.023285951 2.7044504 12484695
1.4778244 -0.023285951 2.7044504 4332568
1.4103838 -0.021830581 2.5354223 918279
1.2758286 -0.019404963 2.2537088 1049352
1.2979827 -0.019404963 2.2537088 1312523
1.2506558 -0.018383648 2.1350925 1312523
1.2080617 -0.017464466 2.028338 1247244
1.2280003 -0.017464466 2.028338 1378059
1.31362 -0.018383648 2.1350925 1378315
1.334608 -0.018383648 2.1350925 720903
1.3555961 -0.018383648 2.1350925 655367
1.307755 -0.017464466 2.028338 721673
1.3276936 -0.017464466 2.028338 590087
1.3476323 -0.017464466 2.028338 655882
1.3024484 -0.016632823 1.9317503 655880
1.3875096 -0.017464466 2.028338 655370
1.4074482 -0.017464466 2.028338 590089
1.5859854 -0.019404963 2.2537088 720903
1.6081395 -0.019404963 2.2537088 524296
1.7261931 -0.020546429 2.3862798 590602
1.7496502 -0.020546429 2.3862798 459016
1.7731075 -0.020546429 2.3862798 786696
1.7965648 -0.020546429 2.3862798 786695
1.820022 -0.020546429 2.3862798 590089
1.8434793 -0.020546429 2.3862798 720905
1.8669364 -0.020546429 2.3862798 524552
1.7853719 -0.019404963 2.2537088 590087
1.6267734 -0.017464466 2.028338 721673
1.6467121 -0.017464466 2.028338 720903
1.6666507 -0.017464466 2.028338 721162
1.6865894 -0.017464466 2.028338 720905
1.7065281 -0.017464466 2.028338 655880
1.8173332 -0.018383648 2.1350925 656395
2.1830065 -0.021830581 2.5354223 655880
2.2079298 -0.021830581 2.5354223 655881
2.2328532 -0.021830581 2.5354223 786696
2.2577765 -0.021830581 2.5354223 720903
2.2826998 -0.021830581 2.5354223 655882
2.1718805 -0.020546429 2.3862798 655880
2.1953378 -0.020546429 2.3862798 786696
1.9852377 -0.018383648 2.1350925 787210
1.9059145 -0.017464466 2.028338 721673
1.9258533 -0.017464466 2.028338 655880
1.9457918 -0.017464466 2.028338 590087
1.9657305 -0.017464466 2.028338 983305
1.5885353 -0.013971572 1.6226703 1641484
1.5427752 -0.013434204 1.5602599 8081984
1.5581126 -0.013434204 1.5602599 9002307
1.5734501 -0.013434204 1.5602599 9264963
1.5299435 -0.012936641 1.5024725 9264450
1.4895445 -0.012474618 1.4488127 9068100
1.5037863 -0.012474618 1.4488127 9068100
1.5180283 -0.012474618 1.4488127 9396549
1.5322702 -0.012474618 1.4488127 9002307
1.546512 -0.012474618 1.4488127 9068100
1.5607539 -0.012474618 1.4488127 9200197
1.5749959 -0.012474618 1.4488127 9068613
1.5892377 -0.012474618 1.4488127 9264450
1.6628679 -0.012936641 1.5024725 9068359
1.7421618 -0.013434204 1.5602599 9329473
1.8277991 -0.013971572 1.6226703 9068359
1.84375 -0.013971572 1.6226703 9331276
1.6031904 -0.012044459 1.3988537 9264710
1.465353 -0.010915291 1.2677112 9527623
1.4778147 -0.010915291 1.2677112 9462087
1.4902763 -0.010915291 1.2677112 9396813
1.6581936 -0.012044459 1.3988537 9068361
1.6719444 -0.012044459 1.3988537 9134924
0 0 0 9396813
0 0 0 9855817
0 0 0 9462604
0 0 0 9463119
0 0 0 9528655
0 0 0 9725262
0 0 0 9594957
0 0 0 9726030
0 0 0 9594446
0 0 0 9856849
0 0 0 8608062
0 0 0 8542013
-4.0346217 0.0041236454 3.380563 9068099
-4.0013905 0.0041236454 3.380563 10581079
-4.3289013 0.0044985223 3.687887 11171929
-4.7219143 0.0049483748 4.0566759 11040089
-4.6820374 0.0049483748 4.0566759 11499609
-4.6421599 0.0049483748 4.0566759 11302743
-4.6022825 0.0049483748 4.0566759 11303513
-4.1476407 0.0044985223 3.687887 11368275
-4.1113887 0.0044985223 3.687887 11499863
-4.0751367 0.0044985223 3.687887 11565658
-4.0388846 0.0044985223 3.687887 11696988
-3.6690798 0.0041236454 3.380563 11763037
-3.6358488 0.0041236454 3.380563 11762778
-3.6026175 0.0041236454 3.380563 11762520
-3.0594742 0.0035345533 2.8976254 11697754
-3.0309904 0.0035345533 2.8976254 11370332
-3.0025065 0.0035345533 2.8976254 11304537
-2.9740229 0.0035345533 2.8976254 10974798
-3.1721191 0.0038064423 3.1205199 8672047
-3.1414442 0.0038064423 3.1205199 6833189
-3.6763637 0.0044985223 3.687887 2886400
-3.6401114 0.0044985223 3.687887 1640973
-3.6038594 0.0044985223 3.687887 1706254
-3.5676074 0.0044985223 3.687887 3416097
-3.5313554 0.0044985223 3.687887 3940376
-3.8446138 0.0049483748 4.0566759 4006170
-4.2274847 0.0054981946 4.5074177 4202521
-4.183177 0.0054981946 4.5074177 4267800
-4.1388688 0.0054981946 4.5074177 4136984
-4.0945606 0.0054981946 4.5074177 4071707
-4.0502524 0.0054981946 4.5074177 4070937
-4.0059443 0.0054981946 4.5074177 4202523
-4.4568405 0.0061854683 5.0708447 4137500
-4.4069939 0.0061854683 5.0708447 4072219
-4.3571472 0.0061854683 5.0708447 4203033
-3.4458406 0.0049483748 4.0566759 4202007
-3.4059634 0.0049483748 4.0566759 3808019
-3.366086 0.0049483748 4.0566759 2562583
-3.3262088 0.0049483748 4.0566759 4467749
-3.6514795 0.0054981946 4.5074177 4138525
-3.6071713 0.0054981946 4.5074177 4007451
-4.0082207 0.0061854683 5.0708447 5320223
-3.9583743 0.0061854683 5.0708447 3611919
-3.9085276 0.0061854683 5.0708447 1180935
-3.858681 0.0061854683 5.0708447 984329
-3.8088343 0.0061854683 5.0708447 984329
-3.7589877 0.0061854683 5.0708447 1181195
-3.709141 0.0061854683 5.0708447 1444626
-3.6592944 0.0061854683 5.0708447 6307129
-3.6094477 0.0061854683 5.0708447 7621940
-3.5596011 0.0061854683 5.0708447 5844253
-3.5097547 0.0061854683 5.0708447 1444109
-3.459908 0.0061854683 5.0708447 1313294
-3.4100614 0.0061854683 5.0708447 1377806
-3.3602147 0.0061854683 5.0708447 1181708
-3.3103681 0.0061854683 5.0708447 1247501
-3.2605214 0.0061854683 5.0708447 1443852
-3.2106748 0.0061854683 5.0708447 1443852
-3.1608281 0.0061854683 5.0708447 1575439
-3.1109815 0.0061854683 5.0708447 2430753
-4.0815129 0.0082472907 6.761126 10316116
-3.4414723 0.0070691067 5.7952509 10906697
-3.9485886 0.0082472907 6.761126 10841674
-3.3275371 0.0070691067 5.7952509 10907724
-3.2705696 0.0070691067 5.7952509 10842444
-3.2136018 0.0070691067 5.7952509 10973515
-3.1566343 0.0070691067 5.7952509 11039564
-3.0996668 0.0070691067 5.7952509 11301710
-3.0426991 0.0070691067 5.7952509 11433039
-2.9857316 0.0070691067 5.7952509 11760975
-3.4168913 0.0082472907 6.761126 11893074
-3.3504291 0.0082472907 6.761126 12155476
-3.9407606 0.0098967496 8.1133518 12549974
-3.861006 0.0098967496 8.1133518 12354650
-3.7812514 0.0098967496 8.1133518 12156242
-4.6268706 0.012370937 10.141689 12746326
-4.5271773 0.012370937 10.141689 12616023
-4.4274845 0.012370937 10.141689 12680787
-3.4622331 0.0098967496 8.1133518 12681303
-2.8187318 0.0082472907 6.761126 12419673
-2.7522695 0.0082472907 6.761126 8607540
-2.6858075 0.0082472907 6.761126 11827797
-2.2451532 0.0070691067 5.7952509 12353103
-2.1881855 0.0070691067 5.7952509 10709827
-2.131218 0.0070691067 5.7952509 10644808
-1.8149691 0.0061854683 5.0708447 10643524
-1.7651225 0.0061854683 5.0708447 10842444
-1.9603152 0.0070691067 5.7952509 10447428
-1.9033476 0.0070691067 5.7952509 10907724
-1.84638 0.0070691067 5.7952509 11170125
-2.0876479 0.0082472907 6.761126 10644552
-2.0211856 0.0082472907 6.761126 11499342
-1.9547236 0.0082472907 6.761126 12354137
-1.8882613 0.0082472907 6.761126 13273947
-2.1861591 0.0098967496 8.1133518 12879960
-2.1064045 0.0098967496 8.1133518 12222030
-2.5333123 0.012370937 10.141689 8808537
-2.433619 0.012370937 10.141689 8611674
-2.3339257 0.012370937 10.141689 9268064
-2.2342327 0.012370937 10.141689 9597536
-0.26681742 0.0015463671 1.2677112 9728610
-0.19852157 0.0012069207 0.98943311 5387554
-0.18879539 0.0012069207 0.98943311 1378317
-0.17480567 0.0011781844 0.96587515 1312523
-0.16146663 0.0011507848 0.94341296 918539
-0.1454287 0.0010996388 0.90148348 1049868
-0.13656709 0.0010996388 0.90148348 918536
-0.12492926 0.0010757336 0.88188601 1049866
-0.11626028 0.0010757336 0.88188601 1115915
-0.10759129 0.0010757336 0.88188601 1246731
-0.094800554 0.0010309113 0.84514076 1115915
-0.086492784 0.0010309113 0.84514076 1181195
-0.076589406 0.0010098724 0.82789302 1247246
-0.068451174 0.0010098724 0.82789302 1246987
-0.059106693 0.00098967494 0.81133515 852489
-0.05113123 0.00098967494 0.81133515 721416
-0.043155771 0.00098967494 0.81133515 1115401
-0.035180308 0.00098967494 0.81133515 1772047
-0.027204847 0.00098967494 0.81133515 2560533
-0.01885234 0.00097026955 0.79542661 3151385
-0.010821083 0.00095161056 0.78012997 3545629
-0.00315237 0.00095161056 0.78012997 3150872
0.0045163427 0.00095161056 0.78012997 2098955
0.012185055 0.00095161056 0.78012997 1574150
0.019853767 0.00095161056 0.78012997 1574153
0.02752248 0.00095161056 0.78012997 983558
0.035881214 0.00097026955 0.79542661 983817
0.044574302 0.00098967494 0.81133515 786696
0.052549761 0.00098967494 0.81133515 590342
0.060525224 0.00098967494 0.81133515 852491
0.067157529 0.00097026955 0.79542661 786696
0.074976608 0.00097026955 0.79542661 721416
0 0 0 655367
0 0 0 852489
0 0 0 655879
0 0 0 786696
0 0 0 721160
0 0 0 786696
0 0 0 721414
0.3339996 0.0023563688 1.9317503 721416
0.32229412 0.0021514671 1.763772 917769
0.35506988 0.0022492611 1.8439435 852488
0.39096716 0.0023563688 1.9317503 852743
0.43045419 0.0024741874 2.028338 1049351
0.45039287 0.0024741874 2.028338 1180681
0.52259058 0.0027490973 2.2537088 1443852
0.57678843 0.0029108087 2.3862798 1574924
0.68027836 0.0032989164 2.7044504 1641230
0.75735348 0.0035345533 2.8976254 1575695
0.84628636 0.0038064423 3.1205199 2232596
0.95004123 0.0041236454 3.380563 4204830
1.3110299 0.0054981946 4.5074177 4860445
1.7425773 0.0070691067 5.7952509 5649185
0 0 0 9790791
0 0 0 10711373
0.78790355 0.0029108087 2.3862798 12157276
0.81136078 0.0029108087 2.3862798 12354396
0.94612706 0.0032989164 2.7044504 12879197
0.97271192 0.0032989164 2.7044504 13010526
1.0706751 0.0035345533 2.8976254 13142884
1.0991589 0.0035345533 2.8976254 13142111
0.92864698 0.0029108087 2.3862798 13601633
0.95210421 0.0029108087 2.3862798 13208159
0.97556144 0.0029108087 2.3862798 13142366
0.99901867 0.0029108087 2.3862798 13076830
0.96567178 0.0027490973 2.2537088 13011293
0.98782581 0.0027490973 2.2537088 12945758
1.0099798 0.0027490973 2.2537088 13076833
1.0928476 0.0029108087 2.3862798 13010525
1.1163049 0.0029108087 2.3862798 12814685
1.2109972 0.0030927341 2.5354223 12616024
1.2359205 0.0030927341 2.5354223 12682332
1.2608439 0.0030927341 2.5354223 12747098
1.2857672 0.0030927341 2.5354223 12288088
1.3106905 0.0030927341 2.5354223 12485466
1.3356138 0.0030927341 2.5354223 12484952
1.3605372 0.0030927341 2.5354223 12353626
1.3854605 0.0030927341 2.5354223 3873044
1.2536745 0.0027490973 2.2537088 1641488
1.2758286 0.0027490973 2.2537088 1378574
1.2979827 0.0027490973 2.2537088 1115403
1.2506558 0.0026044077 2.1350925 1575181
1.2080617 0.0024741874 2.028338 1312523
1.2280003 0.0024741874 2.028338 1312523
1.31362 0.0026044077 2.1350925 1378316
1.334608 0.0026044077 2.1350925 786695
1.3555961 0.0026044077 2.1350925 589830
1.3765841 0.0026044077 2.1350925 786952
1.26447 0.0023563688 1.9317503 590088
1.2834592 0.0023563688 1.9317503 721160
1.3024484 0.0023563688 1.9317503 590344
1.3214376 0.0023563688 1.9317503 589832
1.4074482 0.0024741874 2.028338 524296
1.5859854 0.0027490973 2.2537088 459014
1.6081395 0.0027490973 2.2537088 590087
1.7261931 0.0029108087 2.3862798 590344
1.7496502 0.0029108087 2.3862798 720904
1.7731075 0.0029108087 2.3862798 786698
1.7965648 0.0029108087 2.3862798 524551
1.820022 0.0029108087 2.3862798 655882
1.8434793 0.0029108087 2.3862798 590089
1.8669364 0.0029108087 2.3862798 655880
1.6914049 0.0026044077 2.1350925 655880
1.7123929 0.0026044077 2.1350925 590345
1.6467121 0.0024741874 2.028338 524552
1.6666507 0.0024741874 2.028338 655881
1.6865894 0.0024741874 2.028338 786696
1.7963452 0.0026044077 2.1350925 655625
1.9182963 0.0027490973 2.2537088 655880
2.0545943 0.0029108087 2.3862798 721416
2.2079298 0.0030927341 2.5354223 721159
2.2328532 0.0030927341 2.5354223 786697
2.2577765 0.0030927341 2.5354223 590089
2.2826998 0.0030927341 2.5354223 721159
2.3076231 0.0030927341 2.5354223 655625
2.1953378 0.0029108087 2.3862798 786439
2.0955288 0.0027490973 2.2537088 852490
1.9059145 0.0024741874 2.028338 786953
1.8341458 0.0023563688 1.9317503 786696
1.853135 0.0023563688 1.9317503 786696
1.8721242 0.0023563688 1.9317503 852233
1.6547242 0.0020618227 1.6902815 1444364
1.6044862 0.0019793499 1.6226703 7820096
1.6204371 0.0019793499 1.6226703 8935742
1.6363881 0.0019793499 1.6226703 8936000
1.652339 0.0019793499 1.6226703 8804927
1.6041249 0.0019032211 1.5602599 9002563
1.5037863 0.0017672767 1.4488127 8805185
1.5180283 0.0017672767 1.4488127 8937029
1.4794333 0.001706336 1.3988537 8937028
1.546512 0.0017672767 1.4488127 8740418
1.5607539 0.0017672767 1.4488127 8937027
1.5749959 0.0017672767 1.4488127 9133123
1.5892377 0.0017672767 1.4488127 9199175
1.7268243 0.0019032211 1.5602599 8936261
1.7421618 0.0019032211 1.5602599 9133125
1.8277991 0.0019793499 1.6226703 8936773
1.84375 0.0019793499 1.6226703 8870724
1.6604472 0.0017672767 1.4488127 9133895
1.5126225 0.0015962499 1.3086051 9265481
1.5254861 0.0015962499 1.3086051 9265224
1.5383497 0.0015962499 1.3086051 9397064
1.6581936 0.001706336 1.3988537 9265480
0 0 0 9725003
0 0 0 9528396
0 0 0 9790543
0 0 0 9593936
0 0 0 9462350
0 0 0 9593935
0 0 0 9659725
0 0 0 9659982
0 0 0 9593934
0 0 0 9725518
0 0 0 9791311
0 0 0 6964020
0 0 0 6898229
-3.7242663 0.034481294 3.1205199 7292987
-4.0013905 0.03735473 3.380563 10318433
-4.3289013 0.040750615 3.687887 11236952
-4.7219143 0.044825681 4.0566759 11040086
-4.6820374 0.044825681 4.0566759 11171414
-4.6421599 0.044825681 4.0566759 11172181
-4.6022825 0.044825681 4.0566759 11172440
-4.1476407 0.040750615 3.687887 11171927
-4.1113887 0.040750615 3.687887 11302999
-3.7355418 0.03735473 3.380563 11368279
-4.0388846 0.040750615 3.687887 11630937
-3.6690798 0.03735473 3.380563 11630936
-3.6358488 0.03735473 3.380563 11697499
-3.3254933 0.034481294 3.1205199 11631961
-3.0594742 0.032018341 2.8976254 11697755
-3.0309904 0.032018341 2.8976254 11500635
-3.2334688 0.034481294 3.1205199 11304023
-2.9740229 0.032018341 2.8976254 10645321
-3.1721191 0.034481294 3.1205199 8869169
-3.1414442 0.034481294 3.1205199 7094309
-3.3699999 0.03735473 3.380563 2952192
-3.3367689 0.03735473 3.380563 1443850
-3.6038594 0.040750615 3.687887 1444108
-3.5676074 0.040750615 3.687887 2824214
-3.5313554 0.040750615 3.687887 3545364
-3.8446138 0.044825681 4.0566759 3414291
-4.2274847 0.049806312 4.5074177 3676693
-4.183177 0.049806312 4.5074177 3873558
-4.1388688 0.049806312 4.5074177 3808535
-4.0945606 0.049806312 4.5074177 3610642
-4.0502524 0.049806312 4.5074177 3741974
-4.0059443 0.049806312 4.5074177 3873301
-3.9616363 0.049806312 4.5074177 3809050
-3.9173281 0.049806312 4.5074177 3809048
-3.485718 0.044825681 4.0566759 3808791
-3.4458406 0.044825681 4.0566759 4071191
-3.4059634 0.044825681 4.0566759 3545106
-3.366086 0.044825681 4.0566759 2233621
-3.3262088 0.044825681 4.0566759 3875360
-3.2863314 0.044825681 4.0566759 3744029
-3.2464542 0.044825681 4.0566759 3875870
-3.5628631 0.049806312 4.5074177 3481111
-3.9583743 0.056032099 5.0708447 3020303
-3.9085276 0.056032099 5.0708447 983814
-3.858681 0.056032099 5.0708447 984329
-3.8088343 0.056032099 5.0708447 1181707
-3.7589877 0.056032099 5.0708447 1312523
-3.709141 0.056032099 5.0708447 1575442
-3.6592944 0.056032099 5.0708447 5190962
-3.6094477 0.056032099 5.0708447 5255715
-3.5596011 0.056032099 5.0708447 4924956
-3.5097547 0.056032099 5.0708447 1378057
-3.459908 0.056032099 5.0708447 1443852
-3.4100614 0.056032099 5.0708447 1378059
-3.3602147 0.056032099 5.0708447 1378317
-3.3103681 0.056032099 5.0708447 1246731
-3.2605214 0.056032099 5.0708447 1378317
-3.2106748 0.056032099 5.0708447 1443853
-3.1608281 0.056032099 5.0708447 1443852
-3.1109815 0.056032099 5.0708447 2035993
-4.0815129 0.07470946 6.761126 9264461
-3.4414723 0.064036682 5.7952509 10184516
-3.9485886 0.07470946 6.761126 10512196
-3.3275371 0.064036682 5.7952509 10447688
-3.2705696 0.064036682 5.7952509 8803638
-3.2136018 0.064036682 5.7952509 5712145
-3.1566343 0.064036682 5.7952509 4398866
-3.0996668 0.064036682 5.7952509 5056794
-3.0426991 0.064036682 5.7952509 4859418
-2.9857316 0.064036682 5.7952509 4597016
-2.9287641 0.064036682 5.7952509 7751475
-3.3504291 0.07470946 6.761126 11958094
-3.9407606 0.089651361 8.1133518 12090963
-3.861006 0.089651361 8.1133518 12155474
-4.7265639 0.1120642 10.141689 12157016
-4.6268706 0.1120642 10.141689 12090451
-4.5271773 0.1120642 10.141689 12746580
-3.5419877 0.089651361 8.1133518 12615764
-4.3277912 0.1120642 10.141689 12616277
-3.3824785 0.089651361 8.1133518 12287057
-2.7522695 0.07470946 6.761126 10840642
-2.3021207 0.064036682 5.7952509 11894869
-2.2451532 0.064036682 5.7952509 11433291
-2.1881855 0.064036682 5.7952509 10513480
-2.131218 0.064036682 5.7952509 9855551
-1.8149691 0.056032099 5.0708447 10185543
-1.7651225 0.056032099 5.0708447 10644811
-1.9603152 0.064036682 5.7952509 9067581
-1.9033476 0.064036682 5.7952509 9002561
-2.15411 0.07470946 6.761126 9264195
-2.0876479 0.07470946 6.761126 10381385
-2.0211856 0.07470946 6.761126 10973772
-1.9547236 0.07470946 6.761126 11563852
-1.8882613 0.07470946 6.761126 12551257
-1.8217992 0.07470946 6.761126 13010007
-2.1064045 0.089651361 8.1133518 11892043
-2.5333123 0.1120642 10.141689 9333850
-2.433619 0.1120642 10.141689 9202523
-2.3339257 0.1120642 10.141689 9597280
-2.2342327 0.1120642 10.141689 9991008
-0.20824774 0.010933093 0.98943311 9202513
-0.19852157 0.010933093 0.98943311 1771790
-0.18879539 0.010933093 0.98943311 1050122
-0.17906922 0.010933093 0.98943311 1049867
-0.15779693 0.010187654 0.92197174 1049098
-0.1454287 0.0099612614 0.90148348 1049866
-0.13359824 0.0097447131 0.88188601 1180938
-0.12492926 0.0097447131 0.88188601 1181194
-0.11378665 0.0095373783 0.86312246 1246473
-0.10530212 0.0095373783 0.86312246 1312781
-0.094800554 0.0093386825 0.84514076 1115144
-0.08472763 0.0091480976 0.82789302 985099
-0.076589406 0.0091480976 0.82789302 1050381
-0.068451174 0.0091480976 0.82789302 984073
-0.060312953 0.0091480976 0.82789302 918282
-0.05113123 0.0089651356 0.81133515 852489
-0.043155771 0.0089651356 0.81133515 590087
-0.035180308 0.0089651356 0.81133515 852489
-0.026671419 0.0087893484 0.79542661 786697
-0.01885234 0.0087893484 0.79542661 786697
-0.010821083 0.0086203236 0.78012997 590088
-0.00315237 0.0086203236 0.78012997 458757
0.0045163427 0.0086203236 0.78012997 852489
0.012185055 0.0086203236 0.78012997 655880
0.019853767 0.0086203236 0.78012997 720905
0.02752248 0.0086203236 0.78012997 655367
0.035881214 0.0087893484 0.79542661 786697
0.044574302 0.0089651356 0.81133515 721162
0.052549761 0.0089651356 0.81133515 655879
0.059338454 0.0087893484 0.79542661 655880
0.067157529 0.0087893484 0.79542661 918280
0.074976608 0.0087893484 0.79542661 721158
0.095967732 0.010187654 0.92197174 655880
0 0 0 721159
0 0 0 655623
0 0 0 655879
0 0 0 655624
0 0 0 590086
0 0 0 721416
0.3339996 0.021345561 1.9317503 720903
0.33694384 0.020375308 1.8439435 786438
0.35506988 0.020375308 1.8439435 852232
0.39096716 0.021345561 1.9317503 852232
0.40995637 0.021345561 1.9317503 852488
0.45039287 0.02241284 2.028338 918282
0.52259058 0.024903156 2.2537088 1049609
0.54474461 0.024903156 2.2537088 1312267
0.60024565 0.026368046 2.3862798 984331
0.66268432 0.028016049 2.5354223 1576207
0.84628636 0.034481294 3.1205199 2035987
1.2667217 0.049806312 4.5074177 2035472
2.3598537 0.089651361 8.1133518 2036244
0 0 0 2364179
0 0 0 8212789
0 0 0 10251081
0.78790355 0.026368046 2.3862798 11696471
0.72595441 0.023592463 2.1350925 12288091
0.83481801 0.026368046 2.3862798 12617054
0.91191745 0.028016049 2.5354223 12682847
0.93684077 0.028016049 2.5354223 13141597
1.0258816 0.029883785 2.7044504 13076577
0.92864698 0.026368046 2.3862798 13207135
0.95210421 0.026368046 2.3862798 7094052
0.97556144 0.026368046 2.3862798 7095079
1.0614574 0.028016049 2.5354223 7292203
1.0863807 0.028016049 2.5354223 7292200
0.98782581 0.024903156 2.2537088 7357223
1.0693904 0.026368046 2.3862798 7423273
1.0928476 0.026368046 2.3862798 7226152
1.1163049 0.026368046 2.3862798 7094823
1.2109972 0.028016049 2.5354223 7094823
1.2359205 0.028016049 2.5354223 7095081
1.2608439 0.028016049 2.5354223 7225637
1.2857672 0.028016049 2.5354223 6897702
1.3106905 0.028016049 2.5354223 6831908
1.3356138 0.028016049 2.5354223 6897702
1.3605372 0.028016049 2.5354223 6636069
1.2315204 0.024903156 2.2537088 2166803
1.2536745 0.024903156 2.2537088 1509903
1.2758286 0.024903156 2.2537088 984072
1.2979827 0.024903156 2.2537088 852232
1.3201367 0.024903156 2.2537088 1115661
1.2080617 0.02241284 2.028338 1312524
1.2280003 0.02241284 2.028338 1509902
1.31362 0.023592463 2.1350925 1246988
1.334608 0.023592463 2.1350925 590343
1.3555961 0.023592463 2.1350925 655368
1.307755 0.02241284 2.028338 589831
1.26447 0.021345561 1.9317503 458758
1.2834592 0.021345561 1.9317503 458757
1.3024484 0.021345561 1.9317503 524291
1.3214376 0.021345561 1.9317503 524294
1.4074482 0.02241284 2.028338 393221
1.5859854 0.024903156 2.2537088 393220
1.7027358 0.026368046 2.3862798 393221
1.7261931 0.026368046 2.3862798 458758
1.8590034 0.028016049 2.5354223 393224
1.8839267 0.028016049 2.5354223 458756
1.7965648 0.026368046 2.3862798 393479
1.4733511 0.021345561 1.9317503 459016
1.8434793 0.026368046 2.3862798 524294
1.8669364 0.026368046 2.3862798 656138
1.7853719 0.024903156 2.2537088 590087
1.7123929 0.023592463 2.1350925 721157
1.6467121 0.02241284 2.028338 786696
1.6666507 0.02241284 2.028338 589829
1.8739882 0.024903156 2.2537088 655364
1.8961422 0.024903156 2.2537088 655366
1.9182963 0.024903156 2.2537088 524290
2.0545943 0.026368046 2.3862798 655623
2.0780516 0.026368046 2.3862798 851975
2.2328532 0.028016049 2.5354223 458755
2.2577765 0.028016049 2.5354223 393222
2.2826998 0.028016049 2.5354223 393479
2.3076231 0.028016049 2.5354223 262146
2.1953378 0.026368046 2.3862798 393221
1.9852377 0.023592463 2.1350925 589828
2.0062258 0.023592463 2.1350925 590086
1.8341458 0.021345561 1.9317503 524294
1.7689016 0.020375308 1.8439435 655366
1.7870276 0.020375308 1.8439435 1114634
1.6547242 0.018677365 1.6902815 1246222
1.6044862 0.017930271 1.6226703 3805961
1.6204371 0.017930271 1.6226703 3938059
1.6363881 0.017930271 1.6226703 3937804
1.652339 0.017930271 1.6226703 4069390
1.6682899 0.017930271 1.6226703 4069904
1.6842408 0.017930271 1.6226703 4069390
1.5180283 0.016009171 1.4488127 4332562
1.5322702 0.016009171 1.4488127 3938320
1.546512 0.016009171 1.4488127 4070419
1.6185597 0.016602105 1.5024725 4004626
1.6961495 0.017240647 1.5602599 4004626
1.7799463 0.017930271 1.6226703 3808017
1.7958972 0.017930271 1.6226703 4070419
1.8118482 0.017930271 1.6226703 4069904
1.8277991 0.017930271 1.6226703 3938321
1.84375 0.017930271 1.6226703 3807250
1.8597009 0.017930271 1.6226703 4070421
1.5126225 0.014459897 1.3086051 4136471
1.5254861 0.014459897 1.3086051 3874069
1.6444428 0.01545713 1.3988537 3742996
1.6581936 0.01545713 1.3988537 3611412
2.0202661 0.018677365 1.6902815 3873811
0 0 0 3939605
0 0 0 3939351
0 0 0 3939351
0 0 0 3874072
0 0 0 3808535
0 0 0 3676949
0 0 0 3677204
0 0 0 3677204
0 0 0 3806990
0 0 0 5582107
0 0 0 1181707
0 0 0 1378319
-3.7242663 0.065156147 3.1205199 3218205
-4.0013905 0.070585817 3.380563 9004638
-4.7617917 0.084702991 4.0566759 11040093
-4.7219143 0.084702991 4.0566759 10843732
-4.6820374 0.084702991 4.0566759 11041111
-4.6421599 0.084702991 4.0566759 10908757
-4.6022825 0.084702991 4.0566759 10908503
-4.1476407 0.077002712 3.687887 11303515
-4.1113887 0.077002712 3.687887 11106648
-4.0751367 0.077002712 3.687887 11369305
-4.0388846 0.077002712 3.687887 11302742
-3.6690798 0.070585817 3.380563 11500122
