# .PCD v0.7 - Point Cloud Data file format
VERSION 0.7
FIELDS x y z rgb
SIZE 4 4 4 4
TYPE F F F U
COUNT 1 1 1 1
WIDTH 1375
HEIGHT 1
VIEWPOINT 0 0 0 1 0 0 0
POINTS 1375
DATA ascii
7.1451306 -5.0146437 8.1133518 9068098
7.224885 -5.0146437 8.1133518 9461061
7.3046398 -5.0146437 8.1133518 9263683
7.3843942 -5.0146437 8.1133518 9133382
3.7320745 -2.5073218 4.0566759 9133123
4.1910577 -2.7859132 4.5074177 8870467
4.2353659 -2.7859132 4.5074177 9067332
4.2796736 -2.7859132 4.5074177 8936514
4.3239818 -2.7859132 4.5074177 8673601
4.3682899 -2.7859132 4.5074177 9001541
4.4125981 -2.7859132 4.5074177 8935746
4.4569063 -2.7859132 4.5074177 9002053
4.5012145 -2.7859132 4.5074177 8935747
4.5455227 -2.7859132 4.5074177 8608066
4.5898304 -2.7859132 4.5074177 8805702
4.6341386 -2.7859132 4.5074177 8870212
5.2632523 -3.1341522 5.0708447 9067332
8.5009594 -5.0146437 8.1133518 8935748
0 0 0 9002055
0 0 0 9001541
0 0 0 8936004
4.8999872 -2.7859132 4.5074177 8607810
4.9442954 -2.7859132 4.5074177 8869955
5.6121788 -3.1341522 5.0708447 8935748
5.6620255 -3.1341522 5.0708447 8410689
5.7118721 -3.1341522 5.0708447 8738624
4.609375 -2.5073218 4.0566759 8541504
4.6492524 -2.5073218 4.0566759 8607552
3.607023 -1.9287091 3.1205199 8870463
3.6376977 -1.9287091 3.1205199 9132607
3.6683726 -1.9287091 3.1205199 9329987
3.6990473 -1.9287091 3.1205199 9396806
2.8521404 -1.4748951 2.3862798 9791046
2.8755977 -1.4748951 2.3862798 9791305
3.5202808 -1.7909441 2.8976254 10053964
5.5203009 -2.7859132 4.5074177 10709582
12.52037 -6.2683043 10.141689 10645585
0 0 0 10907985
0 0 0 10907730
0 0 0 11236180
0 0 0 11039570
0 0 0 11235921
0 0 0 11302227
0 0 0 8278842
0 0 0 8081718
0 0 0 8213050
0 0 0 8081722
0 0 0 7950392
0 0 0 8015671
0 0 0 8146999
0 0 0 8212279
0 0 0 7753530
0 0 0 7884857
0 0 0 8278845
0 0 0 8016699
0 0 0 8344377
0 0 0 8278330
-3.6358488 -2.0562036 3.380563 8147257
-3.3254933 -1.8980343 3.1205199 8015417
-14.277546 -8.2248144 13.522252 7950650
0 0 0 7884857
0 0 0 7950137
0 0 0 8015673
-10.309386 -6.168611 10.141689 8146746
-10.209694 -6.168611 10.141689 8016186
-3.3699999 -2.0562036 3.380563 8146744
-3.3367689 -2.0562036 3.380563 8146744
-3.3035378 -2.0562036 3.380563 8146487
-3.2703068 -2.0562036 3.380563 8147256
-3.2370756 -2.0562036 3.380563 8146999
-3.2038445 -2.0562036 3.380563 7819060
-3.1706135 -2.0562036 3.380563 8015926
0 0 0 8278843
0 0 0 8146744
0 0 0 7819834
0 0 0 7753527
0 0 0 8016184
0 0 0 8015672
-2.7119963 -1.8980343 3.1205199 7950649
0 0 0 8081206
0 0 0 8147257
0 0 0 7688504
-8.4152145 -6.168611 10.141689 8015671
-8.3155212 -6.168611 10.141689 8016182
-2.5279472 -1.8980343 3.1205199 7885625
-2.3188956 -1.7624604 2.8976254 8344636
-2.4665976 -1.8980343 3.1205199 8213308
-2.4359226 -1.8980343 3.1205199 8213051
-2.605685 -2.0562036 3.380563 8344120
-2.572454 -2.0562036 3.380563 8279356
-2.5392227 -2.0562036 3.380563 8147257
-2.5059917 -2.0562036 3.380563 8147257
-2.2825484 -1.8980343 3.1205199 8147514
-2.2518735 -1.8980343 3.1205199 7950648
-2.2211988 -1.8980343 3.1205199 8344636
-2.1905239 -1.8980343 3.1205199 8081720
-2.1598489 -1.8980343 3.1205199 8081976
-1.9770902 -1.7624604 2.8976254 8409656
-1.7050307 -1.5421528 2.5354223 8344377
-1.9201226 -1.7624604 2.8976254 8278843
-2.206912 -2.0562036 3.380563 8344636
-2.1736808 -2.0562036 3.380563 8017211
-2.5685399 -2.4674447 4.0566759 8541501
0 0 0 8212536
0 0 0 8344636
-1.8837754 -1.8980343 3.1205199 8541756
-1.8531005 -1.8980343 3.1205199 8475965
-1.8224256 -1.8980343 3.1205199 8409914
-1.7917508 -1.8980343 3.1205199 8475447
-1.761076 -1.8980343 3.1205199 8607291
-5.6238036 -6.168611 10.141689 8344890
-5.5241103 -6.168611 10.141689 8344379
-5.424417 -6.168611 10.141689 8475709
-1.9362631 -2.2431314 3.687887 8738620
-1.9000111 -2.2431314 3.687887 8673083
-1.8637589 -2.2431314 3.687887 8410166
-1.6752145 -2.0562036 3.380563 8672313
-1.7912548 -2.2431314 3.687887 8541756
-1.930503 -2.4674447 4.0566759 8804412
-2.363282 -3.0843055 5.0708447 8804154
0 0 0 8541756
0 0 0 9197885
0 0 0 8541754
0 0 0 8607033
0 0 0 8672313
0 0 0 8739135
-1.6114845 -2.4674447 4.0566759 8673083
-1.4287338 -2.2431314 3.687887 8410170
-1.3924817 -2.2431314 3.687887 8475702
-1.3562297 -2.2431314 3.687887 8541499
-1.3199775 -2.2431314 3.687887 8804412
-1.1767483 -2.0562036 3.380563 8541752
-1.1435173 -2.0562036 3.380563 8606778
-1.1102861 -2.0562036 3.380563 8606778
0 0 0 8345658
0 0 0 8541756
-2.0211856 -4.1124072 6.761126 8541756
-0.9773618 -2.0562036 3.380563 8672826
-2.8323922 -6.168611 10.141689 8672826
0 0 0 8804669
0 0 0 8541756
0 0 0 8738619
0 0 0 8673338
0 0 0 8476219
-1.7873862 -4.9348893 8.1133518 8542267
-1.7076315 -4.9348893 8.1133518 8608062
-1.6278769 -4.9348893 8.1133518 8738619
0 0 0 8541755
0 0 0 8803387
0 0 0 8869691
0 0 0 8672828
0 0 0 8739133
0 0 0 8935996
0 0 0 8804410
0 0 0 8738360
0 0 0 8803642
0 0 0 8738106
0 0 0 8738877
0 0 0 8738620
0 0 0 9132607
0 0 0 8804414
0 0 0 8673084
0 0 0 8607290
0 0 0 9067072
0 0 0 8542267
0 0 0 8869948
0 0 0 9197885
0 0 0 8803899
0 0 0 9067070
0 0 0 8673083
0 0 0 8738621
0 0 0 9000766
0 0 0 8607805
0 0 0 8805440
0 0 0 9067074
0 0 0 9067325
0 0 0 9067840
0.52782255 -3.0843055 5.0708447 9264449
0.57766914 -3.0843055 5.0708447 9329726
0.50201267 -2.4674447 4.0566759 9264707
0.45157495 -2.0562036 3.380563 9198655
0.44751328 -1.8980343 3.1205199 9526850
0.51803714 -2.0562036 3.380563 9264448
0.55126822 -2.0562036 3.380563 9133377
0.70139921 -2.4674447 4.0566759 9264450
0.82364053 -2.741605 4.5074177 9199168
0.86794865 -2.741605 4.5074177 9330495
0 0 0 9263937
0 0 0 9199167
0 0 0 9462081
0 0 0 9527361
0 0 0 9659206
0 0 0 9528388
0 0 0 9725509
0 0 0 10118987
0 0 0 9659460
0 0 0 9856067
0 0 0 10053449
0 0 0 10119241
0 0 0 9987401
0 0 0 9658947
0 0 0 9922632
0 0 0 9790794
0 0 0 9527877
0 0 0 9790019
0 0 0 9593928
0 0 0 9527874
0 0 0 9658436
0 0 0 9593159
0 0 0 9528135
0 0 0 9724997
0 0 0 9724229
0 0 0 9528135
0 0 0 9593667
0 0 0 9593413
0 0 0 9527878
0 0 0 9920325
0 0 0 9395522
0 0 0 9462084
0 0 0 9330754
4.2739644 -4.9348893 8.1133518 9264706
4.3537192 -4.9348893 8.1133518 9526597
2.2167368 -2.4674447 4.0566759 9067841
2.507349 -2.741605 4.5074177 8871232
1.9137428 -2.0562036 3.380563 9067841
1.9469738 -2.0562036 3.380563 9066558
1.9802049 -2.0562036 3.380563 8869693
2.0134361 -2.0562036 3.380563 8475963
2.4560006 -2.4674447 4.0566759 8279354
2.7731977 -2.741605 4.5074177 8410430
2.8175058 -2.741605 4.5074177 8409918
2.5756326 -2.4674447 4.0566759 8410429
2.61551 -2.4674447 4.0566759 9001541
2.6553872 -2.4674447 4.0566759 8738880
2.6952646 -2.4674447 4.0566759 8542017
3.0390465 -2.741605 4.5074177 9002052
3.0833545 -2.741605 4.5074177 9002563
3.1276627 -2.741605 4.5074177 9198401
3.1719708 -2.741605 4.5074177 9329729
3.216279 -2.741605 4.5074177 9198657
3.260587 -2.741605 4.5074177 9199170
3.3048952 -2.741605 4.5074177 9264962
3.3492033 -2.741605 4.5074177 9133379
3.3935113 -2.741605 4.5074177 9264963
3.4378195 -2.741605 4.5074177 9658693
3.4821277 -2.741605 4.5074177 9330243
3.5264359 -2.741605 4.5074177 9330243
3.5707438 -2.741605 4.5074177 9264194
3.615052 -2.741605 4.5074177 9330499
3.6593602 -2.741605 4.5074177 9264963
3.7036684 -2.741605 4.5074177 9461831
3.7479763 -2.741605 4.5074177 9396293
3.7922845 -2.741605 4.5074177 9461830
3.8365927 -2.741605 4.5074177 9264965
3.8809006 -2.741605 4.5074177 9396037
7.0653758 -4.9348893 8.1133518 9265992
7.1451306 -4.9348893 8.1133518 9002052
7.224885 -4.9348893 8.1133518 9527880
6.0871992 -4.1124072 6.761126 9199175
4.1024413 -2.741605 4.5074177 9330758
3.7320745 -2.4674447 4.0566759 9396038
4.1910577 -2.741605 4.5074177 9067846
4.2353659 -2.741605 4.5074177 9199945
4.2796736 -2.741605 4.5074177 9067588
4.3239818 -2.741605 4.5074177 9002052
4.3682899 -2.741605 4.5074177 9132870
4.4125981 -2.741605 4.5074177 9133380
4.4569063 -2.741605 4.5074177 9002309
4.5012145 -2.741605 4.5074177 8805957
4.5455227 -2.741605 4.5074177 8805187
4.5898304 -2.741605 4.5074177 8869953
4.6341386 -2.741605 4.5074177 9198917
4.6784468 -2.741605 4.5074177 9067589
5.3130989 -3.0843055 5.0708447 9067332
8.5807133 -4.9348893 8.1133518 9263428
8.6604681 -4.9348893 8.1133518 9132867
7.2835183 -4.1124072 6.761126 8870980
4.8999872 -2.741605 4.5074177 8411971
4.9442954 -2.741605 4.5074177 8673862
4.9886036 -2.741605 4.5074177 8870724
4.5296206 -2.4674447 4.0566759 8607810
4.5694981 -2.4674447 4.0566759 8804162
4.609375 -2.4674447 4.0566759 8803900
3.5763481 -1.8980343 3.1205199 8804926
3.607023 -1.8980343 3.1205199 8411453
3.6376977 -1.8980343 3.1205199 8476476
3.6683726 -1.8980343 3.1205199 9002818
4.0073013 -2.0562036 3.380563 9200712
3.2324257 -1.6449629 2.7044504 9528135
3.4917972 -1.7624604 2.8976254 9921609
3.5202808 -1.7624604 2.8976254 10381646
8.2804508 -4.1124072 6.761126 10513229
0 0 0 10447436
0 0 0 10645071
0 0 0 10973265
0 0 0 11170898
0 0 0 11170898
0 0 0 11170897
0 0 0 11302482
0 0 0 8410170
0 0 0 8212794
0 0 0 8212280
0 0 0 8277816
0 0 0 8277816
0 0 0 8081465
0 0 0 8147257
0 0 0 8213304
0 0 0 8344122
0 0 0 8278331
0 0 0 8080953
0 0 0 7950650
-14.809243 -8.0918903 13.522252 8212281
-3.6690798 -2.0229726 3.380563 8146998
-3.3561683 -1.8673594 3.1205199 8278330
-3.3254933 -1.8673594 3.1205199 8080952
-3.2948184 -1.8673594 3.1205199 7884856
-3.2641437 -1.8673594 3.1205199 7884857
-4.6705661 -2.6972971 4.5074177 8147259
-4.6262579 -2.6972971 4.5074177 7884344
-4.5819497 -2.6972971 4.5074177 8146744
-3.1414442 -1.8673594 3.1205199 8147259
-3.1107693 -1.8673594 3.1205199 8212532
-3.0800946 -1.8673594 3.1205199 8343863
-3.0494196 -1.8673594 3.1205199 7949878
-3.0187449 -1.8673594 3.1205199 8081205
-2.98807 -1.8673594 3.1205199 8212792
-2.9573951 -1.8673594 3.1205199 8081721
-2.9267204 -1.8673594 3.1205199 7884856
-2.8960454 -1.8673594 3.1205199 8147769
-2.8653705 -1.8673594 3.1205199 8080951
-2.8346958 -1.8673594 3.1205199 8015671
-6.0753784 -4.0459452 6.761126 8081466
-2.1207941 -1.4279807 2.3862798 8016442
-2.0973368 -1.4279807 2.3862798 7950650
-2.0738795 -1.4279807 2.3862798 7885114
-2.1785736 -1.5172296 2.5354223 7819833
-2.1536503 -1.5172296 2.5354223 8277816
-2.128727 -1.5172296 2.5354223 7688246
-2.1038036 -1.5172296 2.5354223 8344890
-2.2174723 -1.618378 2.7044504 8081976
-2.1908875 -1.618378 2.7044504 8016698
-2.0290337 -1.5172296 2.5354223 8016695
-2.2904119 -1.7339765 2.8976254 8343864
-2.2619281 -1.7339765 2.8976254 8278588
-2.4052479 -1.8673594 3.1205199 8540987
-2.374573 -1.8673594 3.1205199 8213304
-2.3438981 -1.8673594 3.1205199 7950645
-2.1479928 -1.7339765 2.8976254 8147770
-2.1195092 -1.7339765 2.8976254 8409656
-2.0910254 -1.7339765 2.8976254 8147512
-2.0625415 -1.7339765 2.8976254 7950906
-2.0340579 -1.7339765 2.8976254 8541243
-1.7548773 -1.5172296 2.5354223 8213304
-1.729954 -1.5172296 2.5354223 8410168
-1.6047347 -1.4279807 2.3862798 8410683
-1.5812775 -1.4279807 2.3862798 8147257
-1.655184 -1.5172296 2.5354223 8147257
-1.7389446 -1.618378 2.7044504 8344890
-1.7123598 -1.618378 2.7044504 8410170
-1.8061875 -1.7339765 2.8976254 8279356
-1.9144502 -1.8673594 3.1205199 8475706
-1.8837754 -1.8673594 3.1205199 8409913
-1.8531005 -1.8673594 3.1205199 8475709
-1.8224256 -1.8673594 3.1205199 8410683
-1.6637685 -1.7339765 2.8976254 8345402
-1.6352848 -1.7339765 2.8976254 8475964
-1.7304012 -1.8673594 3.1205199 8410429
-1.6997262 -1.8673594 3.1205199 8344379
-1.6690514 -1.8673594 3.1205199 8541756
-1.7749078 -2.0229726 3.380563 8542011
-1.7416768 -2.0229726 3.380563 8738106
-1.7084457 -2.0229726 3.380563 8738619
-1.6752145 -2.0229726 3.380563 8344633
-1.6419835 -2.0229726 3.380563 8738621
-1.7550026 -2.2068791 3.687887 8672828
-1.8906257 -2.4275672 4.0566759 8541756
-1.8507484 -2.4275672 4.0566759 8739134
-1.8108711 -2.4275672 4.0566759 9000507
-1.6099943 -2.2068791 3.687887 8935998
-1.442597 -2.0229726 3.380563 8738106
-1.5374901 -2.2068791 3.687887 8804412
-1.501238 -2.2068791 3.687887 8804413
-1.4649858 -2.2068791 3.687887 8607035
-1.4287338 -2.2068791 3.687887 8540727
-1.3924817 -2.2068791 3.687887 8607288
-1.2432104 -2.0229726 3.380563 8541754
-1.2099794 -2.0229726 3.380563 8607291
-1.1767483 -2.0229726 3.380563 8804157
-1.1435173 -2.0229726 3.380563 8672826
-1.1102861 -2.0229726 3.380563 8738619
-1.077055 -2.0229726 3.380563 8542267
-1.043824 -2.0229726 3.380563 8869437
-1.0105928 -2.0229726 3.380563 8672571
-0.9773618 -2.0229726 3.380563 8607547
-0.94413066 -2.0229726 3.380563 8607034
-0.91089958 -2.0229726 3.380563 8738620
-0.8776685 -2.0229726 3.380563 8804412
-0.84443742 -2.0229726 3.380563 8804926
-0.81120634 -2.0229726 3.380563 8673084
-0.77797526 -2.0229726 3.380563 8476476
-0.74474418 -2.0229726 3.380563 8804156
-0.7115131 -2.0229726 3.380563 8738106
-0.67828202 -2.0229726 3.380563 8673340
-0.64505088 -2.0229726 3.380563 8672827
-0.73418385 -2.4275672 4.0566759 8607289
-0.69430655 -2.4275672 4.0566759 8738618
-0.6544292 -2.4275672 4.0566759 8541754
-0.68283546 -2.6972971 4.5074177 8804155
-0.57467461 -2.4275672 4.0566759 8935998
-0.53479731 -2.4275672 4.0566759 8738876
-0.38070768 -1.8673594 3.1205199 8738875
-0.32503048 -1.7339765 2.8976254 8869435
-0.27677691 -1.618378 2.7044504 8672826
-0.25019205 -1.618378 2.7044504 8739133
-0.30491886 -2.2068791 3.687887 8673340
-0.29553348 -2.4275672 4.0566759 8869692
-0.28406242 -2.6972971 4.5074177 8804412
-0.23975429 -2.6972971 4.5074177 8542269
0 0 0 8935996
0 0 0 9066299
-0.096146934 -2.4275672 4.0566759 9067071
-0.056269631 -2.4275672 4.0566759 9394746
-0.018213693 -2.6972971 4.5074177 9132092
0.026094424 -2.6972971 4.5074177 8870201
0.063362285 -2.4275672 4.0566759 9067325
0.093854174 -2.2068791 3.687887 9067069
0.11926407 -2.0229726 3.380563 8869948
0.15249516 -2.0229726 3.380563 8739131
0.17143962 -1.8673594 3.1205199 8542267
0.21895733 -2.0229726 3.380563 8804928
0.30262613 -2.4275672 4.0566759 9067586
0.38055938 -2.6972971 4.5074177 9002048
0.42486748 -2.6972971 4.5074177 9067586
0.38387093 -2.2068791 3.687887 9329473
0.38511276 -2.0229726 3.380563 9067069
0.41834384 -2.0229726 3.380563 9132864
0.45157495 -2.0229726 3.380563 9067069
0.44751328 -1.8673594 3.1205199 9329472
0.47818813 -1.8673594 3.1205199 9329471
0.50886297 -1.8673594 3.1205199 9264450
0.5844993 -2.0229726 3.380563 9264704
0.61773038 -2.0229726 3.380563 9263938
0.65096146 -2.0229726 3.380563 9198657
0.68419254 -2.0229726 3.380563 9527361
0.71742362 -2.0229726 3.380563 9592639
0.7506547 -2.0229726 3.380563 9527872
0.78388578 -2.0229726 3.380563 9396801
0.81711692 -2.0229726 3.380563 9462340
0.78493661 -1.8673594 3.1205199 9724485
0.81561148 -1.8673594 3.1205199 9593413
0.84628636 -1.8673594 3.1205199 9922378
0.95004123 -2.0229726 3.380563 9593926
0.98327231 -2.0229726 3.380563 9593665
1.355338 -2.6972971 4.5074177 9593411
1.399646 -2.6972971 4.5074177 9790533
1.4439542 -2.6972971 4.5074177 9986629
1.4882623 -2.6972971 4.5074177 9593413
1.5325705 -2.6972971 4.5074177 9790534
1.5768785 -2.6972971 4.5074177 9856069
1.6211867 -2.6972971 4.5074177 9658436
1.6654948 -2.6972971 4.5074177 9855299
1.7098029 -2.6972971 4.5074177 9658178
1.7541111 -2.6972971 4.5074177 9724741
2.0232215 -3.0344591 5.0708447 9462344
1.8427273 -2.6972971 4.5074177 9658437
1.8870354 -2.6972971 4.5074177 9658436
1.9313436 -2.6972971 4.5074177 9658693
1.9756516 -2.6972971 4.5074177 9724484
2.0199597 -2.6972971 4.5074177 9592895
2.0642679 -2.6972971 4.5074177 9724227
2.1085761 -2.6972971 4.5074177 9264450
2.4219944 -3.0344591 5.0708447 9592644
2.1971922 -2.6972971 4.5074177 9592900
2.2415004 -2.6972971 4.5074177 9264448
2.2858086 -2.6972971 4.5074177 9396035
2.3301165 -2.6972971 4.5074177 9199170
1.6438324 -1.8673594 3.1205199 9329215
1.6745073 -1.8673594 3.1205199 9788741
1.7051822 -1.8673594 3.1205199 8739646
1.735857 -1.8673594 3.1205199 9198655
1.7665318 -1.8673594 3.1205199 8673088
1.9469738 -2.0229726 3.380563 9001793
1.9802049 -2.0229726 3.380563 8541756
1.8585564 -1.8673594 3.1205199 8475964
1.8892312 -1.8673594 3.1205199 8607808
1.9199061 -1.8673594 3.1205199 8541504
1.8112537 -1.7339765 2.8976254 8936517
1.9812558 -1.8673594 3.1205199 8739906
2.1795914 -2.0229726 3.380563 9264450
2.6553872 -2.4275672 4.0566759 9002307
2.6952646 -2.4275672 4.0566759 9198918
2.7351418 -2.4275672 4.0566759 9264193
2.7750192 -2.4275672 4.0566759 9264450
3.1276627 -2.6972971 4.5074177 9527362
3.1719708 -2.6972971 4.5074177 9461828
3.216279 -2.6972971 4.5074177 9592387
3.260587 -2.6972971 4.5074177 9265220
3.3048952 -2.6972971 4.5074177 9528133
3.3492033 -2.6972971 4.5074177 9593413
3.3935113 -2.6972971 4.5074177 9527620
3.0940375 -2.4275672 4.0566759 9724231
3.1339149 -2.4275672 4.0566759 9461831
3.5264359 -2.6972971 4.5074177 9724231
3.5707438 -2.6972971 4.5074177 9396550
3.2535467 -2.4275672 4.0566759 9462342
3.2934241 -2.4275672 4.0566759 9396549
3.7036684 -2.6972971 4.5074177 9397321
3.7479763 -2.6972971 4.5074177 9724743
3.7922845 -2.6972971 4.5074177 9528135
3.8365927 -2.6972971 4.5074177 9462087
3.8809006 -2.6972971 4.5074177 9593417
3.5326879 -2.4275672 4.0566759 9855049
3.5725653 -2.4275672 4.0566759 9527113
4.0138249 -2.6972971 4.5074177 9395268
3.6523199 -2.4275672 4.0566759 9264450
3.6921971 -2.4275672 4.0566759 9394501
3.1100619 -2.0229726 3.380563 9330248
3.1432929 -2.0229726 3.380563 9264200
3.4652989 -2.2068791 3.687887 9067333
3.8517065 -2.4275672 4.0566759 9330503
3.8915837 -2.4275672 4.0566759 9001539
4.3682899 -2.6972971 4.5074177 9132612
4.4125981 -2.6972971 4.5074177 8936260
4.4569063 -2.6972971 4.5074177 9002051
4.5012145 -2.6972971 4.5074177 9067332
4.5455227 -2.6972971 4.5074177 9067846
4.5898304 -2.6972971 4.5074177 9198918
4.6341386 -2.6972971 4.5074177 9264965
4.6784468 -2.6972971 4.5074177 9133377
4.722755 -2.6972971 4.5074177 8870721
4.7670631 -2.6972971 4.5074177 9002051
4.8113713 -2.6972971 4.5074177 8870721
4.8556795 -2.6972971 4.5074177 8936512
4.4099889 -2.4275672 4.0566759 8804929
3.7082214 -2.0229726 3.380563 8805700
3.7414525 -2.0229726 3.380563 8805701
3.7746835 -2.0229726 3.380563 8935746
3.8079147 -2.0229726 3.380563 8870208
3.5456731 -1.8673594 3.1205199 9001278
3.5763481 -1.8673594 3.1205199 9001793
3.607023 -1.8673594 3.1205199 8739392
3.6376977 -1.8673594 3.1205199 8805445
3.6683726 -1.8673594 3.1205199 9134406
3.4348295 -1.7339765 2.8976254 9200199
3.2324257 -1.618378 2.7044504 9921608
3.4917972 -1.7339765 2.8976254 9922638
4.4803576 -2.2068791 3.687887 9857614
12.420677 -6.0689182 10.141689 10054735
12.52037 -6.0689182 10.141689 10514257
0 0 0 11170128
0 0 0 10973778
0 0 0 11237204
0 0 0 10973775
0 0 0 11106386
0 0 0 11040081
0 0 0 8081722
0 0 0 8015673
0 0 0 8410174
0 0 0 8082234
0 0 0 8147259
0 0 0 8278332
-3.1213579 -1.5917932 2.7044504 8278331
-23.210798 -11.93845 20.283379 8212789
0 0 0 8213304
0 0 0 8212534
0 0 0 8081207
0 0 0 8016185
-14.809243 -7.9589663 13.522252 8147001
-14.676319 -7.9589663 13.522252 8081208
-3.3561683 -1.8366846 3.1205199 8015414
-3.3254933 -1.8366846 3.1205199 8212278
-3.2948184 -1.8366846 3.1205199 8146999
-3.2641437 -1.8366846 3.1205199 8016184
-3.2334688 -1.8366846 3.1205199 8015671
-3.2027938 -1.8366846 3.1205199 8278843
-3.1721191 -1.8366846 3.1205199 8213049
-3.1414442 -1.8366846 3.1205199 8147255
-3.3699999 -1.9897416 3.380563 7950645
-3.3367689 -1.9897416 3.380563 7884085
-3.3035378 -1.9897416 3.380563 8212792
-3.0187449 -1.8366846 3.1205199 8147511
-2.7746363 -1.7054927 2.8976254 8146998
-2.9573951 -1.8366846 3.1205199 7754043
-2.5364907 -1.5917932 2.7044504 8015673
-2.5099058 -1.5917932 2.7044504 8213052
-2.483321 -1.5917932 2.7044504 8015928
-2.4567361 -1.5917932 2.7044504 8016185
0 0 0 7884599
0 0 0 8278330
0 0 0 8409913
0 0 0 8081977
0 0 0 7884855
0 0 0 8016437
0 0 0 8015672
0 0 0 8213050
0 0 0 8081464
0 0 0 8082234
0 0 0 8146744
0 0 0 7884855
0 0 0 8082234
0 0 0 8409912
0 0 0 8475705
0 0 0 8278584
0 0 0 8278584
0 0 0 8344634
0 0 0 8344375
0 0 0 8082234
0 0 0 8409915
0 0 0 8147511
0 0 0 7951672
0 0 0 8147770
0 0 0 8278841
0 0 0 8278843
0 0 0 8345145
0 0 0 8148540
0 0 0 8410940
-0.23479104 -0.22525376 0.38270524 8082488
0 0 0 8344890
0 0 0 8475706
-1.6922523 -1.7054927 2.8976254 8672828
-1.6637685 -1.7054927 2.8976254 8607547
-1.6352848 -1.7054927 2.8976254 8278582
-1.6068009 -1.7054927 2.8976254 8672318
-1.6997262 -1.8366846 3.1205199 8475963
-1.6690514 -1.8366846 3.1205199 8213820
-1.6383766 -1.8366846 3.1205199 8345406
-1.7416768 -1.9897416 3.380563 8672316
-1.7084457 -1.9897416 3.380563 8540988
-1.6752145 -1.9897416 3.380563 8738619
-1.7912548 -2.1706271 3.687887 8870205
-1.7550026 -2.1706271 3.687887 8607035
-1.7187506 -2.1706271 3.687887 8672314
-1.6824985 -2.1706271 3.687887 8738621
-1.6462463 -2.1706271 3.687887 8410683
-1.4758281 -1.9897416 3.380563 8738362
-1.442597 -1.9897416 3.380563 8279867
-1.4093659 -1.9897416 3.380563 8213820
-1.3761348 -1.9897416 3.380563 8607803
-1.4649858 -2.1706271 3.687887 8607035
-1.4287338 -2.1706271 3.687887 8737592
-1.3924817 -2.1706271 3.687887 8738361
-1.147579 -1.8366846 3.1205199 8672826
-1.1169041 -1.8366846 3.1205199 8935485
-1.1767483 -1.9897416 3.380563 8738365
-1.1435173 -1.9897416 3.380563 8608061
-1.1102861 -1.9897416 3.380563 8279355
-1.077055 -1.9897416 3.380563 8739390
-1.043824 -1.9897416 3.380563 8934715
-1.0105928 -1.9897416 3.380563 8607545
-0.9773618 -1.9897416 3.380563 8934715
-0.94413066 -1.9897416 3.380563 8868666
-0.91089958 -1.9897416 3.380563 8607549
-0.8776685 -1.9897416 3.380563 8672827
-0.84443742 -1.9897416 3.380563 8607545
-0.81120634 -1.9897416 3.380563 8607548
-0.71813107 -1.8366846 3.1205199 8475707
-0.68745619 -1.8366846 3.1205199 8870207
-0.7115131 -1.9897416 3.380563 8738106
-0.67828202 -1.9897416 3.380563 8475962
-0.64505088 -1.9897416 3.380563 8542012
-0.6118198 -1.9897416 3.380563 8738621
-0.63118774 -2.1706271 3.687887 9000508
-0.5949356 -2.1706271 3.687887 8607031
-0.51212656 -1.9897416 3.380563 8804412
-0.47889549 -1.9897416 3.380563 8607547
-0.38199806 -1.7054927 2.8976254 8869950
-0.35351425 -1.7054927 2.8976254 8869178
-0.32503048 -1.7054927 2.8976254 8738361
-0.27677691 -1.5917932 2.7044504 8804412
-0.25019205 -1.5917932 2.7044504 8673340
-0.23957911 -1.7054927 2.8976254 8804155
-0.24627787 -1.9897416 3.380563 8870206
-0.21304679 -1.9897416 3.380563 8870718
-0.17981569 -1.9897416 3.380563 8935742
-0.14658462 -1.9897416 3.380563 8738618
-0.11335353 -1.9897416 3.380563 9067070
-0.080122441 -1.9897416 3.380563 8804669
-0.046891354 -1.9897416 3.380563 9132089
-0.01366027 -1.9897416 3.380563 9263680
0.021349981 -2.1706271 3.687887 9067068
0.052801903 -1.9897416 3.380563 9133119
0.086032987 -1.9897416 3.380563 9197885
0.11008992 -1.8366846 3.1205199 9067325
0.14076477 -1.8366846 3.1205199 8870462
0.17143962 -1.8366846 3.1205199 9198656
0.20211448 -1.8366846 3.1205199 9132867
0.23278932 -1.8366846 3.1205199 9132605
0.34250343 -2.3876901 4.0566759 8935741
0.34761882 -2.1706271 3.687887 9067328
0.35188168 -1.9897416 3.380563 8804668
0.35548872 -1.8366846 3.1205199 8739133
0.38616356 -1.8366846 3.1205199 9264187
0.45157495 -1.9897416 3.380563 9198657
0.48480603 -1.9897416 3.380563 9132864
0.51803714 -1.9897416 3.380563 9460798
0.55126822 -1.9897416 3.380563 9395519
0.5844993 -1.9897416 3.380563 9001789
0.61773038 -1.9897416 3.380563 9329473
0.65096146 -1.9897416 3.380563 9461829
0.68419254 -1.9897416 3.380563 9198913
0.71742362 -1.9897416 3.380563 9461314
0.6929121 -1.8366846 3.1205199 9527617
0.72358692 -1.8366846 3.1205199 9528131
0.75426179 -1.8366846 3.1205199 9527620
0.72886968 -1.7054927 2.8976254 9528387
0.75735348 -1.7054927 2.8976254 9658691
0.84628636 -1.8366846 3.1205199 9724487
0.87696117 -1.8366846 3.1205199 9528387
0.90763605 -1.8366846 3.1205199 9724996
1.0165035 -1.9897416 3.380563 9659205
1.0497345 -1.9897416 3.380563 9592643
1.2995588 -2.3876901 4.0566759 9724229
1.3394361 -2.3876901 4.0566759 9856069
1.3793133 -2.3876901 4.0566759 9462594
1.5768785 -2.6529889 4.5074177 9462082
1.6211867 -2.6529889 4.5074177 9658949
1.6654948 -2.6529889 4.5074177 9527622
1.7098029 -2.6529889 4.5074177 9330754
1.7541111 -2.6529889 4.5074177 9462081
1.7984191 -2.6529889 4.5074177 9396291
1.6584545 -2.3876901 4.0566759 9527364
1.6983318 -2.3876901 4.0566759 9658438
1.7382091 -2.3876901 4.0566759 9528133
1.4817386 -1.9897416 3.380563 9593155
1.3984337 -1.8366846 3.1205199 9264957
1.4291085 -1.8366846 3.1205199 9462085
1.8977184 -2.3876901 4.0566759 9330242
2.152884 -2.6529889 4.5074177 9396288
2.1971922 -2.6529889 4.5074177 9461057
2.2415004 -2.6529889 4.5074177 9461826
1.5824827 -1.8366846 3.1205199 9263936
1.3980699 -1.5917932 2.7044504 9199172
1.6438324 -1.8366846 3.1205199 9198657
1.6745073 -1.8366846 3.1205199 8673340
1.7051822 -1.8366846 3.1205199 8738621
1.735857 -1.8366846 3.1205199 9001023
1.9137428 -1.9897416 3.380563 8409918
1.9469738 -1.9897416 3.380563 8738368
1.8278816 -1.8366846 3.1205199 8607810
1.8585564 -1.8366846 3.1205199 8936515
1.8892312 -1.8366846 3.1205199 9067332
1.9199061 -1.8366846 3.1205199 9002050
1.8112537 -1.7054927 2.8976254 9330756
1.8397374 -1.7054927 2.8976254 9396551
2.0119307 -1.8366846 3.1205199 9396036
2.6553872 -2.3876901 4.0566759 9395781
2.6952646 -2.3876901 4.0566759 9461830
0 0 0 9592643
13.875095 -11.93845 20.283379 9265219
0 0 0 9199169
9.5159121 -7.9589663 13.522252 9528135
0 0 0 9790023
0 0 0 9724229
0 0 0 9659206
0 0 0 9725000
0 0 0 9724999
6.1880751 -4.7753801 8.1133518 9593158
0 0 0 9659208
3.1737921 -2.3876901 4.0566759 9462342
0 0 0 9593417
2.5027282 -1.8366846 3.1205199 9724744
0 0 0 9724999
1.7543691 -1.2566789 2.1350925 9462597
0 0 0 9987653
0.22019716 -0.15404451 0.26172101 9659465
17.264666 -11.93845 20.283379 9724746
0.91916066 -0.62833947 1.0675462 9527111
8.8317194 -5.9692249 10.141689 9396298
0.4014118 -0.26827976 0.45580626 9461061
9.031106 -5.9692249 10.141689 9527622
0.17644057 -0.11534734 0.19597468 9528392
7.3843942 -4.7753801 8.1133518 9462343
1.203895 -0.77022254 1.3086051 9462344
7.5439034 -4.7753801 8.1133518 9199172
0.47647864 -0.29846126 0.50708449 9396038
6.4195104 -3.9794831 6.761126 9264965
2.2891667 -1.4045235 2.3862798 9264963
6.5524344 -3.9794831 6.761126 9330245
1.2410432 -0.74615312 1.2677112 9265734
4.4569063 -2.6529889 4.5074177 9133891
4.5012145 -2.6529889 4.5074177 9002053
4.5455227 -2.6529889 4.5074177 9133381
4.5898304 -2.6529889 4.5074177 9068355
4.6341386 -2.6529889 4.5074177 8871749
4.2106023 -2.3876901 4.0566759 8936773
3.5420659 -1.9897416 3.380563 9067588
4.2903566 -2.3876901 4.0566759 9067332
4.3302341 -2.3876901 4.0566759 8805698
4.8556795 -2.6529889 4.5074177 8542784
4.0090804 -2.1706271 3.687887 9331275
4.0453324 -2.1706271 3.687887 9067331
4.0815845 -2.1706271 3.687887 9264708
3.7746835 -1.9897416 3.380563 9067842
3.8079147 -1.9897416 3.380563 9002048
3.5456731 -1.8366846 3.1205199 9133636
3.5763481 -1.8366846 3.1205199 8870210
3.607023 -1.8366846 3.1205199 8870465
3.377862 -1.7054927 2.8976254 9002820
3.4063458 -1.7054927 2.8976254 8937797
3.6990473 -1.8366846 3.1205199 9921350
3.7297223 -1.8366846 3.1205199 10053194
4.0737634 -1.9897416 3.380563 10184784
4.4803576 -2.1706271 3.687887 10578768
9.9365416 -4.7753801 8.1133518 10185805
12.52037 -5.9692249 10.141689 10907472
12.620064 -5.9692249 10.141689 10907472
0 0 0 10973777
0 0 0 10973776
0 0 0 11039310
0 0 0 10908757
0 0 0 10907983
0 0 0 8081975
0 0 0 8081464
0 0 0 8343863
0 0 0 7950393
0 0 0 7819064
0 0 0 7950650
0 0 0 7951420
0 0 0 8016187
0 0 0 7949880
0 0 0 8016184
0 0 0 8213561
0 0 0 8015671
-14.809243 -7.8260417 13.522252 8147256
-14.676319 -7.8260417 13.522252 8344377
-3.3561683 -1.8060098 3.1205199 8148025
-3.3254933 -1.8060098 3.1205199 8016440
-3.2948184 -1.8060098 3.1205199 8278070
-3.5361555 -1.9565104 3.380563 8410429
-3.2334688 -1.8060098 3.1205199 8475451
-3.2027938 -1.8060098 3.1205199 8212791
-3.1721191 -1.8060098 3.1205199 8344377
-3.1414442 -1.8060098 3.1205199 8212536
-3.6763637 -2.1343751 3.687887 8081720
-3.6401114 -2.1343751 3.687887 7885369
-3.6038594 -2.1343751 3.687887 7950905
-3.0187449 -1.8060098 3.1205199 8213307
-2.5896604 -1.5652083 2.7044504 8410429
-2.5630755 -1.5652083 2.7044504 7754554
-2.3779602 -1.4673829 2.5354223 7885109
-2.5099058 -1.5652083 2.7044504 8279098
-2.483321 -1.5652083 2.7044504 8016695
-2.3031902 -1.4673829 2.5354223 8015671
-2.2782669 -1.4673829 2.5354223 8344122
-2.2533436 -1.4673829 2.5354223 7884856
-2.2284203 -1.4673829 2.5354223 8147514
-2.0738795 -1.3810662 2.3862798 8015671
-2.0504222 -1.3810662 2.3862798 8278073
-2.1536503 -1.4673829 2.5354223 8081464
-2.128727 -1.4673829 2.5354223 8279097
-2.1038036 -1.4673829 2.5354223 8409914
-2.0788803 -1.4673829 2.5354223 8147258
-2.053957 -1.4673829 2.5354223 8212537
-2.0290337 -1.4673829 2.5354223 8278843
-2.0041103 -1.4673829 2.5354223 8344382
-1.9791871 -1.4673829 2.5354223 8147511
-2.084548 -1.5652083 2.7044504 7950650
-2.0579631 -1.5652083 2.7044504 8213562
-2.1764767 -1.677009 2.8976254 8146999
-2.1479928 -1.677009 2.8976254 8278843
-2.1195092 -1.677009 2.8976254 8410170
-1.9516237 -1.5652083 2.7044504 8344375
-1.9250387 -1.5652083 2.7044504 8015673
-1.7798005 -1.4673829 2.5354223 8409402
-1.7548773 -1.4673829 2.5354223 8081718
-1.729954 -1.4673829 2.5354223 8344377
-1.7050307 -1.4673829 2.5354223 8606783
-1.6801074 -1.4673829 2.5354223 8343866
-1.5578202 -1.3810662 2.3862798 8213052
-1.6302607 -1.4673829 2.5354223 8476219
-1.6053374 -1.4673829 2.5354223 8344636
-1.5804141 -1.4673829 2.5354223 8409656
-1.5554907 -1.4673829 2.5354223 8344632
-1.7492199 -1.677009 2.8976254 8278330
-1.6060203 -1.5652083 2.7044504 8409917
-1.4807208 -1.4673829 2.5354223 8672315
-1.5528506 -1.5652083 2.7044504 8672827
-1.6352848 -1.677009 2.8976254 8738617
-1.6068009 -1.677009 2.8976254 8672571
-1.5783172 -1.677009 2.8976254 8804412
-1.6690514 -1.8060098 3.1205199 8607290
-1.5213495 -1.677009 2.8976254 8279613
-1.6077017 -1.8060098 3.1205199 8541243
-1.7084457 -1.9565104 3.380563 8541754
-1.6752145 -1.9565104 3.380563 8541500
-1.6419835 -1.9565104 3.380563 8607292
-1.4850023 -1.8060098 3.1205199 8542269
-1.4543275 -1.8060098 3.1205199 8541754
-1.5422902 -1.9565104 3.380563 9000767
-1.5090592 -1.9565104 3.380563 8541242
-1.4758281 -1.9565104 3.380563 8607547
-1.442597 -1.9565104 3.380563 8476474
-1.4093659 -1.9565104 3.380563 8278584
-1.3761348 -1.9565104 3.380563 8607033
-1.3429037 -1.9565104 3.380563 8475192
-1.3096726 -1.9565104 3.380563 8869693
-1.1782538 -1.8060098 3.1205199 8410681
-1.147579 -1.8060098 3.1205199 8476476
-1.1169041 -1.8060098 3.1205199 8672827
-1.0862292 -1.8060098 3.1205199 8673085
-1.0555544 -1.8060098 3.1205199 8475963
-1.0248796 -1.8060098 3.1205199 8476735
-0.9942047 -1.8060098 3.1205199 8804411
-0.96352983 -1.8060098 3.1205199 8673340
-0.93285501 -1.8060098 3.1205199 8542008
-0.90218014 -1.8060098 3.1205199 8870464
-0.94413066 -1.9565104 3.380563 8672831
-0.91089958 -1.9565104 3.380563 8738619
-0.8776685 -1.9565104 3.380563 8607547
-0.84443742 -1.9565104 3.380563 9000760
-0.74880588 -1.8060098 3.1205199 8869945
-0.71813107 -1.8060098 3.1205199 8935229
-0.68745619 -1.8060098 3.1205199 8935485
-0.65678132 -1.8060098 3.1205199 8803127
-0.67828202 -1.9565104 3.380563 8475961
-0.64505088 -1.9565104 3.380563 8540987
-0.6118198 -1.9565104 3.380563 8606520
-0.53408194 -1.8060098 3.1205199 8607033
-0.50340706 -1.8060098 3.1205199 8870205
-0.47273225 -1.8060098 3.1205199 8738619
-0.41048184 -1.677009 2.8976254 8541753
-0.3342483 -1.4673829 2.5354223 8673341
-0.32994664 -1.5652083 2.7044504 8935485
-0.30336177 -1.5652083 2.7044504 8869951
-0.25947836 -1.4673829 2.5354223 8607549
-0.25019205 -1.5652083 2.7044504 8738619
-0.23957911 -1.677009 2.8976254 8870203
-0.22733343 -1.8060098 3.1205199 9001789
-0.21304679 -1.9565104 3.380563 8803899
-0.17981569 -1.9565104 3.380563 9132094
-0.14658462 -1.9565104 3.380563 8738617
-0.10463403 -1.8060098 3.1205199 8936000
-0.073959179 -1.8060098 3.1205199 8804412
-0.043284331 -1.8060098 3.1205199 9001789
-0.01260948 -1.8060098 3.1205199 9001791
0.019570816 -1.9565104 3.380563 9067328
0.052801903 -1.9565104 3.380563 9066303
0.073742561 -1.677009 2.8976254 9197630
0.10222635 -1.677009 2.8976254 8739644
0.13071014 -1.677009 2.8976254 8869690
0.15919393 -1.677009 2.8976254 9001280
0.20211448 -1.8060098 3.1205199 9067584
0.23278932 -1.8060098 3.1205199 9197887
0.26346418 -1.8060098 3.1205199 9395262
0.27312908 -1.677009 2.8976254 9133630
0.30161285 -1.677009 2.8976254 9199167
0.33009666 -1.677009 2.8976254 9067071
0.38616356 -1.8060098 3.1205199 9133375
0.41683844 -1.8060098 3.1205199 9198657
0.48480603 -1.9565104 3.380563 9067583
0.47818813 -1.8060098 3.1205199 9198654
0.50886297 -1.8060098 3.1205199 9395520
0.53953785 -1.8060098 3.1205199 9067840
0.57021266 -1.8060098 3.1205199 9592643
0.60088754 -1.8060098 3.1205199 9330495
0.63156235 -1.8060098 3.1205199 9461311
0.66223723 -1.8060098 3.1205199 9526850
0.6929121 -1.8060098 3.1205199 9527363
0.72358692 -1.8060098 3.1205199 9461311
0.70038593 -1.677009 2.8976254 9462594
0.72886968 -1.677009 2.8976254 9658435
0.75735348 -1.677009 2.8976254 9461827
0.84628636 -1.8060098 3.1205199 9658691
0.87696117 -1.8060098 3.1205199 9658692
0.90763605 -1.8060098 3.1205199 9527874
0.93831086 -1.8060098 3.1205199 9658436
0.96898574 -1.8060098 3.1205199 9790022
0.81222421 -1.4673829 2.5354223 9593668
0.83714753 -1.4673829 2.5354223 9593668
0.86207086 -1.4673829 2.5354223 9790276
1.1826588 -1.9565104 3.380563 9331268
1.4590681 -2.3478127 4.0566759 9265477
1.6654948 -2.6086807 4.5074177 9462340
1.7098029 -2.6086807 4.5074177 9264705
1.7541111 -2.6086807 4.5074177 9396034
1.6185772 -2.3478127 4.0566759 9330756
1.3820454 -1.9565104 3.380563 9461311
1.4152764 -1.9565104 3.380563 9397060
1.3370839 -1.8060098 3.1205199 9330496
1.1853908 -1.5652083 2.7044504 9264961
1.2119757 -1.5652083 2.7044504 9133376
1.4291085 -1.8060098 3.1205199 9330756
1.4597833 -1.8060098 3.1205199 9330498
1.9375957 -2.3478127 4.0566759 9198912
1.5211331 -1.8060098 3.1205199 9330241
1.3449001 -1.5652083 2.7044504 9132865
1.371485 -1.5652083 2.7044504 9067071
1.3980699 -1.5652083 2.7044504 8936257
1.4246547 -1.5652083 2.7044504 8870205
1.6745073 -1.8060098 3.1205199 8870205
1.7051822 -1.8060098 3.1205199 8606781
1.735857 -1.8060098 3.1205199 8476222
1.7665318 -1.8060098 3.1205199 8870468
1.7972068 -1.8060098 3.1205199 8673601
1.8278816 -1.8060098 3.1205199 9133636
1.8585564 -1.8060098 3.1205199 9396549
1.8892312 -1.8060098 3.1205199 9067843
1.9199061 -1.8060098 3.1205199 9527620
1.950581 -1.8060098 3.1205199 9461829
1.8397374 -1.677009 2.8976254 9527622
1.8682213 -1.677009 2.8976254 9789764
1.896705 -1.677009 2.8976254 9724229
2.2460537 -1.9565104 3.380563 9921610
2.7351418 -2.3478127 4.0566759 9461828
2.7750192 -2.3478127 4.0566759 9396293
2.8148963 -2.3478127 4.0566759 9593926
3.1719708 -2.6086807 4.5074177 9790536
3.216279 -2.6086807 4.5074177 9987143
2.9345284 -2.3478127 4.0566759 9790022
2.4786713 -1.9565104 3.380563 9725515
3.0142829 -2.3478127 4.0566759 9921610
3.3935113 -2.6086807 4.5074177 9725001
3.4378195 -2.6086807 4.5074177 9856842
3.1339149 -2.3478127 4.0566759 9856071
2.6448267 -1.9565104 3.380563 9986631
2.6780577 -1.9565104 3.380563 9659466
2.5027282 -1.8060098 3.1205199 9856074
3.2934241 -2.3478127 4.0566759 9790793
3.3333013 -2.3478127 4.0566759 10184521
3.3731787 -2.3478127 4.0566759 9856585
2.8442132 -1.9565104 3.380563 9725001
3.4529333 -2.3478127 4.0566759 9527621
3.4928107 -2.3478127 4.0566759 9724232
3.9252088 -2.6086807 4.5074177 9593415
3.5725653 -2.3478127 4.0566759 9527622
3.6124425 -2.3478127 4.0566759 9659208
3.0435996 -1.9565104 3.380563 9725257
3.0768309 -1.9565104 3.380563 9331271
3.1100619 -1.9565104 3.380563 9462858
3.4290469 -2.1343751 3.687887 9265480
3.4652989 -2.1343751 3.687887 9658438
3.2097552 -1.9565104 3.380563 9200197
3.2429862 -1.9565104 3.380563 9461829
3.9314611 -2.3478127 4.0566759 9593413
4.4125981 -2.6086807 4.5074177 9264964
4.4569063 -2.6086807 4.5074177 9396808
4.5012145 -2.6086807 4.5074177 9199430
4.5455227 -2.6086807 4.5074177 9133892
4.5898304 -2.6086807 4.5074177 9330756
4.6341386 -2.6086807 4.5074177 9067071
4.6784468 -2.6086807 4.5074177 9199682
3.2695994 -1.8060098 3.1205199 9068100
3.5752971 -1.9565104 3.380563 9002568
3.9365761 -2.1343751 3.687887 8936515
3.9728284 -2.1343751 3.687887 8936260
4.0090804 -2.1343751 3.687887 9067848
4.4498658 -2.3478127 4.0566759 9394754
4.0815845 -2.1343751 3.687887 8936771
3.7746835 -1.9565104 3.380563 9067584
3.8079147 -1.9565104 3.380563 9067582
3.5456731 -1.8060098 3.1205199 9067328
3.5763481 -1.8060098 3.1205199 9001538
3.607023 -1.8060098 3.1205199 9067332
3.377862 -1.677009 2.8976254 8936258
3.179256 -1.5652083 2.7044504 9396293
3.2058408 -1.5652083 2.7044504 9397064
3.7297223 -1.8060098 3.1205199 9725258
4.4441056 -2.1343751 3.687887 9791564
5.4759932 -2.6086807 4.5074177 10382158
9.9365416 -4.6956253 8.1133518 10185550
10.016296 -4.6956253 8.1133518 10776399
12.620064 -5.8695316 10.141689 10907726
0 0 0 11039056
0 0 0 11104849
0 0 0 10842193
0 0 0 11106135
0 0 0 11171668
0 0 0 8081718
0 0 0 7753272
0 0 0 8081466
0 0 0 8081465
0 0 0 8081978
0 0 0 7950650
0 0 0 7885370
-3.8684664 -1.9232794 3.380563 8015671
-3.8352351 -1.9232794 3.380563 7884857
0 0 0 8015928
0 0 0 8015673
0 0 0 8016443
0 0 0 8146999
0 0 0 8212278
-8.726037 -4.615871 8.1133518 8146744
-3.6026175 -1.9232794 3.380563 8343609
-4.7591825 -2.5643728 4.5074177 8147257
-4.7148743 -2.5643728 4.5074177 8081205
-2.8023393 -1.5386235 2.7044504 8409916
-2.6022699 -1.4424596 2.5354223 8081979
-2.7491696 -1.5386235 2.7044504 8213047
-2.9170551 -1.6485251 2.8976254 8213052
-3.3699999 -1.9232794 3.380563 8541242
-3.6401114 -2.0981228 3.687887 8279355
-3.6038594 -2.0981228 3.687887 8213822
-2.8031201 -1.6485251 2.8976254 8146999
-2.5896604 -1.5386235 2.7044504 8015927
-2.4028835 -1.4424596 2.5354223 8016441
-2.3779602 -1.4424596 2.5354223 7820089
-2.5099058 -1.5386235 2.7044504 7950648
-2.3281136 -1.4424596 2.5354223 8212536
-2.3031902 -1.4424596 2.5354223 8475711
-2.4301512 -1.5386235 2.7044504 8213052
-0.16847429 -0.10784744 0.18956429 8212537
-8.913681 -5.7698383 10.141689 8081720
-0.1817317 -0.11896574 0.209107 8147257
-6.971436 -4.615871 8.1133518 7884855
-0.67565501 -0.45253631 0.79542661 8081978
-5.6766052 -3.8465588 6.761126 8081718
-0.16261286 -0.11149446 0.19597468 8212791
-4.1577606 -2.8849192 5.0708447 8146999
-0.2452486 -0.17223398 0.302737 8147514
-3.6071713 -2.5643728 4.5074177 8016441
-0.97168988 -0.69937432 1.2292956 8015673
-4.5238562 -3.2970502 5.7952509 8081723
-0.23868872 -0.17617828 0.30966991 8278843
-3.4299388 -2.5643728 4.5074177 8016695
-0.14041784 -0.10635646 0.18694358 8278843
-1.3074739 -1.0034502 1.763772 8409916
-0.13487785 -0.10490615 0.18439434 8475963
-1.3940169 -1.0990168 1.9317503 8212791
-0.40669835 -0.32506132 0.57136279 8344378
0 0 0 8475452
-1.1231215 -0.92317414 1.6226703 8344890
0 0 0 8410425
0 0 0 8344890
0 0 0 8344377
0 0 0 8475450
0 0 0 8409916
0 0 0 8279099
0 0 0 8278843
0 0 0 8475706
0 0 0 8344377
0 0 0 8541242
-1.3936195 -1.357609 2.3862798 8672826
-1.4557974 -1.4424596 2.5354223 8541242
-1.4308742 -1.4424596 2.5354223 8410429
-1.4996809 -1.5386235 2.7044504 8607034
-1.3810276 -1.4424596 2.5354223 8541756
-1.3561043 -1.4424596 2.5354223 8803899
-1.3311809 -1.4424596 2.5354223 8344888
-1.3933414 -1.5386235 2.7044504 8410682
-1.4643821 -1.6485251 2.8976254 8542269
-1.4358982 -1.6485251 2.8976254 8607293
-1.4074144 -1.6485251 2.8976254 8344886
-1.3789307 -1.6485251 2.8976254 8738361
-1.260417 -1.5386235 2.7044504 8344888
-1.4236526 -1.7753348 3.1205199 8936512
-1.5090592 -1.9232794 3.380563 8999993
-1.4758281 -1.9232794 3.380563 8935996
-1.442597 -1.9232794 3.380563 8869690
-1.4093659 -1.9232794 3.380563 8738619
-1.3761348 -1.9232794 3.380563 8344636
-1.3429037 -1.9232794 3.380563 8869691
-1.2089287 -1.7753348 3.1205199 8672824
-1.1782538 -1.7753348 3.1205199 8869693
-1.147579 -1.7753348 3.1205199 8673082
-1.1169041 -1.7753348 3.1205199 8673083
-1.0862292 -1.7753348 3.1205199 8542269
-1.0555544 -1.7753348 3.1205199 8607545
-1.0248796 -1.7753348 3.1205199 8607034
-0.9942047 -1.7753348 3.1205199 8803898
-0.96352983 -1.7753348 3.1205199 8607547
-0.93285501 -1.7753348 3.1205199 8606777
-0.90218014 -1.7753348 3.1205199 8673083
-0.87150532 -1.7753348 3.1205199 8803901
-0.84083045 -1.7753348 3.1205199 8476218
-0.81015557 -1.7753348 3.1205199 8870204
-0.77948076 -1.7753348 3.1205199 8803641
-0.74880588 -1.7753348 3.1205199 8869945
-0.71813107 -1.7753348 3.1205199 8739133
-0.68745619 -1.7753348 3.1205199 8869690
-0.65678132 -1.7753348 3.1205199 8672313
-0.6261065 -1.7753348 3.1205199 8803642
-0.59543163 -1.7753348 3.1205199 8343606
-0.56475681 -1.7753348 3.1205199 8409915
-0.53408194 -1.7753348 3.1205199 8802869
-0.46744943 -1.6485251 2.8976254 9066299
-0.43896562 -1.6485251 2.8976254 8738108
-0.41048184 -1.6485251 2.8976254 8935228
-0.3342483 -1.4424596 2.5354223 8607289
-0.32994664 -1.5386235 2.7044504 8803386
-0.28440168 -1.4424596 2.5354223 9001278
-0.25947836 -1.4424596 2.5354223 8869692
-0.26806289 -1.6485251 2.8976254 8870203
-0.23957911 -1.6485251 2.8976254 8673338
-0.22733343 -1.7753348 3.1205199 8738620
-0.19665858 -1.7753348 3.1205199 8870203
-0.16598374 -1.7753348 3.1205199 8869691
-0.13530888 -1.7753348 3.1205199 9001792
-0.10463403 -1.7753348 3.1205199 9132606
-0.073959179 -1.7753348 3.1205199 8870459
-0.040192589 -1.6485251 2.8976254 9198398
-0.011708803 -1.6485251 2.8976254 9001789
0.018065371 -1.7753348 3.1205199 9001533
0.042241521 -1.5386235 2.7044504 9067069
0.068826392 -1.5386235 2.7044504 9132091
0.089448057 -1.4424596 2.5354223 9001789
0.12199613 -1.5386235 2.7044504 8935485
0.15919393 -1.6485251 2.8976254 9198401
0.18767771 -1.6485251 2.8976254 9066816
0.2161615 -1.6485251 2.8976254 9198655
0.2283356 -1.5386235 2.7044504 9198141
0.23898795 -1.4424596 2.5354223 9264445
0.26391128 -1.4424596 2.5354223 9067326
0.30809021 -1.5386235 2.7044504 9198655
0.35858044 -1.6485251 2.8976254 9067582
0.41683844 -1.7753348 3.1205199 9329471
0.44751328 -1.7753348 3.1205199 9198655
0.47818813 -1.7753348 3.1205199 8936514
0.50886297 -1.7753348 3.1205199 9329984
0.53953785 -1.7753348 3.1205199 9264449
0.57021266 -1.7753348 3.1205199 9460798
0.60088754 -1.7753348 3.1205199 9592897
0.63156235 -1.7753348 3.1205199 9527105
0.66223723 -1.7753348 3.1205199 9264191
0.6929121 -1.7753348 3.1205199 9592900
0.58791435 -1.4424596 2.5354223 9527363
0.61283767 -1.4424596 2.5354223 9461057
0.72886968 -1.6485251 2.8976254 9397061
0.75735348 -1.6485251 2.8976254 9331008
0.84628636 -1.7753348 3.1205199 9725256
0.87696117 -1.7753348 3.1205199 9395520
0.90763605 -1.7753348 3.1205199 9396807
0.87128866 -1.6485251 2.8976254 9329985
0.78730088 -1.4424596 2.5354223 9462854
0.81222421 -1.4424596 2.5354223 9527617
0.78790355 -1.357609 2.3862798 9724481
0.81136078 -1.357609 2.3862798 9790276
0.88699412 -1.4424596 2.5354223 9396805
1.12236 -1.7753348 3.1205199 9526850
1.1530348 -1.7753348 3.1205199 9264702
1.2823521 -1.9232794 3.380563 9592643
1.2143846 -1.7753348 3.1205199 9462085
1.2450594 -1.7753348 3.1205199 9395780
1.2757342 -1.7753348 3.1205199 9461572
1.0614574 -1.4424596 2.5354223 9264704
1.0863807 -1.4424596 2.5354223 9264448
1.0459331 -1.357609 2.3862798 9199684
1.1362273 -1.4424596 2.5354223 9264706
1.1611506 -1.4424596 2.5354223 9199168
1.2651454 -1.5386235 2.7044504 9068096
1.2917304 -1.5386235 2.7044504 9001791
1.3183153 -1.5386235 2.7044504 9197885
1.3449001 -1.5386235 2.7044504 8870206
1.371485 -1.5386235 2.7044504 8607033
1.3980699 -1.5386235 2.7044504 8344636
1.4246547 -1.5386235 2.7044504 8738363
1.4512396 -1.5386235 2.7044504 9001536
1.5833833 -1.6485251 2.8976254 9067330
1.735857 -1.7753348 3.1205199 9002307
1.7665318 -1.7753348 3.1205199 9133125
1.7972068 -1.7753348 3.1205199 9593415
1.8278816 -1.7753348 3.1205199 9527621
1.8585564 -1.7753348 3.1205199 9789254
1.8892312 -1.7753348 3.1205199 9592644
1.9199061 -1.7753348 3.1205199 9593928
1.950581 -1.7753348 3.1205199 9527623
1.8397374 -1.6485251 2.8976254 9463621
1.8682213 -1.6485251 2.8976254 9593926
1.896705 -1.6485251 2.8976254 9659976
1.9251888 -1.6485251 2.8976254 9790279
2.1039553 -1.7753348 3.1205199 9986632
2.13463 -1.7753348 3.1205199 9659208
2.3457468 -1.9232794 3.380563 9857353
2.8547738 -2.3079355 4.0566759 10184521
2.8946509 -2.3079355 4.0566759 9856585
2.4454401 -1.9232794 3.380563 10118730
2.4786713 -1.9232794 3.380563 10184009
2.5119023 -1.9232794 3.380563 9790792
3.0541604 -2.3079355 4.0566759 9857098
3.4378195 -2.5643728 4.5074177 9659464
3.4821277 -2.5643728 4.5074177 9725254
2.6448267 -1.9232794 3.380563 9921610
2.4720535 -1.7753348 3.1205199 10053454
2.5027282 -1.7753348 3.1205199 9921610
2.5334032 -1.7753348 3.1205199 10315850
2.5640779 -1.7753348 3.1205199 9790022
2.5947528 -1.7753348 3.1205199 9659974
2.6254277 -1.7753348 3.1205199 9855816
2.8774443 -1.9232794 3.380563 9659206
2.9106753 -1.9232794 3.380563 9725001
3.9252088 -2.5643728 4.5074177 9659721
3.969517 -2.5643728 4.5074177 9725253
3.6124425 -2.3079355 4.0566759 9725255
3.6523199 -2.3079355 4.0566759 9527622
3.0768309 -1.9232794 3.380563 9528137
3.1100619 -1.9232794 3.380563 9527622
3.1432929 -1.9232794 3.380563 9593415
3.4652989 -2.0981228 3.687887 9462087
3.8517065 -2.3079355 4.0566759 9527622
3.8915837 -2.3079355 4.0566759 9593672
3.9314611 -2.3079355 4.0566759 9264963
3.9713383 -2.3079355 4.0566759 9265222
4.4569063 -2.5643728 4.5074177 9462344
4.5012145 -2.5643728 4.5074177 9265477
4.5455227 -2.5643728 4.5074177 9396549
4.5898304 -2.5643728 4.5074177 9593158
4.6341386 -2.5643728 4.5074177 9462342
4.6784468 -2.5643728 4.5074177 9264448
4.722755 -2.5643728 4.5074177 9133893
4.7670631 -2.5643728 4.5074177 9198912
3.9365761 -2.0981228 3.687887 9264965
3.9728284 -2.0981228 3.687887 8936260
4.0090804 -2.0981228 3.687887 9067844
4.4498658 -2.3079355 4.0566759 9067840
4.0815845 -2.0981228 3.687887 8936514
3.7746835 -1.9232794 3.380563 8936514
3.8079147 -1.9232794 3.380563 9133635
3.8411458 -1.9232794 3.380563 9264965
3.5763481 -1.7753348 3.1205199 9264965
3.607023 -1.7753348 3.1205199 9263680
3.1526711 -1.5386235 2.7044504 9330245
3.179256 -1.5386235 2.7044504 9396551
3.6990473 -1.7753348 3.1205199 9528135
4.0405321 -1.9232794 3.380563 10118474
4.4441056 -2.0981228 3.687887 9987145
5.4759932 -2.5643728 4.5074177 10381902
8.2804508 -3.8465588 6.761126 10907472
10.016296 -4.615871 8.1133518 10776399
12.620064 -5.7698383 10.141689 10841936
0 0 0 10973519
0 0 0 11104851
0 0 0 10974035
0 0 0 10974292
0 0 0 11040341
0 0 0 7491382
0 0 0 7687990
0 0 0 7753013
0 0 0 8015159
0 0 0 7949626
-3.9349284 -1.8900483 3.380563 8015673
-3.9016974 -1.8900483 3.380563 7819063
-3.8684664 -1.8900483 3.380563 7819064
-3.5402174 -1.74466 3.1205199 8015673
-15.208016 -7.5601931 13.522252 7950648
0 0 0 7949878
0 0 0 8081466
0 0 0 7819064
-8.8057919 -4.5361161 8.1133518 8016184
-2.7268865 -1.4175363 2.5354223 8146487
-2.7019632 -1.4175363 2.5354223 8212538
-2.6770399 -1.4175363 2.5354223 7884600
-2.4961097 -1.3341517 2.3862798 8081208
-2.6271932 -1.4175363 2.5354223 8016443
-2.6022699 -1.4175363 2.5354223 8279097
-2.7491696 -1.5120386 2.7044504 8016441
-3.1414442 -1.74466 3.1205199 8082233
-3.1107693 -1.74466 3.1205199 8278843
-3.0800946 -1.74466 3.1205199 8344123
-2.4776535 -1.4175363 2.5354223 8409913
-2.6162453 -1.5120386 2.7044504 8475706
-2.5896604 -1.5120386 2.7044504 8541242
-2.5630755 -1.5120386 2.7044504 8016441
-2.5364907 -1.5120386 2.7044504 8278842
-2.5099058 -1.5120386 2.7044504 8410427
-2.3281136 -1.4175363 2.5354223 8212022
-2.3031902 -1.4175363 2.5354223 8343863
-2.2782669 -1.4175363 2.5354223 8344123
-2.2533436 -1.4175363 2.5354223 8278330
-2.2284203 -1.4175363 2.5354223 8016441
-2.2034969 -1.4175363 2.5354223 8409911
-2.1785736 -1.4175363 2.5354223 8081719
-2.1536503 -1.4175363 2.5354223 8212794
-2.128727 -1.4175363 2.5354223 8212537
-2.1038036 -1.4175363 2.5354223 7951162
-2.0788803 -1.4175363 2.5354223 8278843
-2.053957 -1.4175363 2.5354223 8147256
-2.0290337 -1.4175363 2.5354223 8213563
-2.0041103 -1.4175363 2.5354223 8016187
-2.1111329 -1.5120386 2.7044504 8081212
-2.084548 -1.5120386 2.7044504 8081465
-2.0579631 -1.5120386 2.7044504 8081721
-1.9044172 -1.4175363 2.5354223 8344123
-1.8794938 -1.4175363 2.5354223 8278843
-1.7454782 -1.3341517 2.3862798 8212023
-1.7220209 -1.3341517 2.3862798 8475192
-1.6985637 -1.3341517 2.3862798 8540727
