# .PCD v0.7 - Point Cloud Data file format
VERSION 0.7
FIELDS x y z rgb
SIZE 4 4 4 4
TYPE F F F U
COUNT 1 1 1 1
WIDTH 1354
HEIGHT 1
VIEWPOINT 0 0 0 1 0 0 0
POINTS 1354
DATA ascii
1.5868961 0.30155399 2.028338 3873558
1.6068348 0.30155399 2.028338 3874328
1.5493079 0.28719425 1.9317503 4203035
1.4970108 0.27413997 1.8439435 4071190
1.515137 0.27413997 1.8439435 4071705
1.533263 0.27413997 1.8439435 4137242
1.551389 0.27413997 1.8439435 4268572
1.5695151 0.27413997 1.8439435 3874842
1.6632431 0.28719425 1.9317503 4136730
1.5359511 0.26222083 1.763772 4793115
1.5532892 0.26222083 1.763772 5187871
1.5706271 0.26222083 1.763772 5188387
1.587965 0.26222083 1.763772 5056803
1.605303 0.26222083 1.763772 4597278
1.622641 0.26222083 1.763772 4663329
1.6399789 0.26222083 1.763772 4925730
1.6573169 0.26222083 1.763772 4597792
1.6048776 0.25129497 1.6902815 3874842
1.6214931 0.25129497 1.6902815 3611416
1.6381086 0.25129497 1.6902815 3610904
1.5885353 0.24124318 1.6226703 3217431
1.6044862 0.24124318 1.6226703 3414552
1.6204371 0.24124318 1.6226703 3479831
1.6363881 0.24124318 1.6226703 3479576
1.652339 0.24124318 1.6226703 3413525
1.7378019 0.25129497 1.6902815 3282452
1.7544174 0.25129497 1.6902815 3217174
1.7710329 0.25129497 1.6902815 3085843
1.7161427 0.24124318 1.6226703 3217173
1.8042641 0.25129497 1.6902815 3282965
1.8208796 0.25129497 1.6902815 3217429
1.7639954 0.24124318 1.6226703 3349015
1.8541107 0.25129497 1.6902815 3283222
2.0407922 0.27413997 1.8439435 3217173
2.0589182 0.27413997 1.8439435 3479833
1.9867381 0.26222083 1.763772 3349017
2.004076 0.26222083 1.763772 3283222
1.8597009 0.24124318 1.6226703 3546648
1.8035115 0.2319646 1.5602599 3546649
1.8188488 0.2319646 1.5602599 3940633
1.8341863 0.2319646 1.5602599 5320226
1.9235046 0.24124318 1.6226703 5386020
2.0202661 0.25129497 1.6902815 5254950
2.1254418 0.26222083 1.763772 4860450
0 0 0 4859422
0 0 0 5714215
0 0 0 5978155
0 0 0 5847082
0 0 0 6044461
0 0 0 6109996
0 0 0 6109739
0 0 0 6109484
0 0 0 6109483
0 0 0 10185295
0 0 0 10119759
-3.0259664 0.40186578 2.5354223 10251345
-3.2011125 0.42865682 2.7044504 10317136
-3.4012797 0.45927516 2.8976254 10251856
-3.6322417 0.49460405 3.1205199 10644816
-3.9016974 0.53582102 3.380563 10447691
-3.5708921 0.49460405 3.1205199 10710348
-3.5402174 0.49460405 3.1205199 10053446
-3.5095425 0.49460405 3.1205199 7489836
-4.5225282 0.64298528 4.0566759 5780255
-4.4826508 0.64298528 4.0566759 4135692
-3.7023108 0.53582102 3.380563 1115140
-3.6690798 0.53582102 3.380563 984075
-3.9663804 0.58453202 3.687887 1379087
-3.9301283 0.58453202 3.687887 3019284
-3.8938763 0.58453202 3.687887 3085584
-3.8576241 0.58453202 3.687887 3151122
-4.2035093 0.64298528 4.0566759 3150866
-4.1636324 0.64298528 4.0566759 3216917
-4.123755 0.64298528 4.0566759 3085844
-4.5376415 0.71442807 4.5074177 2888723
-4.4933338 0.71442807 4.5074177 2954516
-4.0041227 0.64298528 4.0566759 3020052
-3.9642456 0.64298528 4.0566759 3085075
-3.9243684 0.64298528 4.0566759 2953489
-3.884491 0.64298528 4.0566759 2428172
-3.2038445 0.53582102 3.380563 2428944
-3.1706135 0.53582102 3.380563 2494225
-3.1373823 0.53582102 3.380563 1574410
-3.1041512 0.53582102 3.380563 1049610
-3.3500948 0.58453202 3.687887 1443340
-3.3138428 0.58453202 3.687887 983303
-3.2775905 0.58453202 3.687887 984075
-3.2413385 0.58453202 3.687887 1049352
-3.2050865 0.58453202 3.687887 1180684
-2.6813214 0.49460405 3.1205199 983558
-2.6506467 0.49460405 3.1205199 721415
-2.8383026 0.53582102 3.380563 590087
-3.0600781 0.58453202 3.687887 590086
-3.0238259 0.58453202 3.687887 589831
-2.9875739 0.58453202 3.687887 852490
-3.2464542 0.64298528 4.0566759 918282
-3.5628631 0.71442807 4.5074177 721927
-3.5185549 0.71442807 4.5074177 1180681
-3.474247 0.71442807 4.5074177 1115145
-3.4299388 0.71442807 4.5074177 1180938
-3.3856306 0.71442807 4.5074177 1640461
-3.3413227 0.71442807 4.5074177 1509902
-3.709141 0.80373156 5.0708447 1773074
-3.6592944 0.80373156 5.0708447 1180683
-3.6094477 0.80373156 5.0708447 1970195
-3.1640902 0.71442807 4.5074177 1970195
-3.5097547 0.80373156 5.0708447 1904401
-3.459908 0.80373156 5.0708447 1970194
-3.4100614 0.80373156 5.0708447 2232596
-3.3602147 0.80373156 5.0708447 2429460
-3.3103681 0.80373156 5.0708447 2494737
-3.2605214 0.80373156 5.0708447 2232594
-3.2106748 0.80373156 5.0708447 2101521
-3.1608281 0.80373156 5.0708447 1707279
-3.1109815 0.80373156 5.0708447 1772302
-3.0611348 0.80373156 5.0708447 3481630
-3.4414723 0.91855031 5.7952509 1838865
-2.9614415 0.80373156 5.0708447 1640974
-3.3275371 0.91855031 5.7952509 918281
-2.8617485 0.80373156 5.0708447 918536
-3.2136018 0.91855031 5.7952509 1246474
-2.7620552 0.80373156 5.0708447 1574924
-2.7122085 0.80373156 5.0708447 1180681
-2.6623619 0.80373156 5.0708447 983816
-2.6125152 0.80373156 5.0708447 1508875
-2.9287641 0.91855031 5.7952509 2625296
-1.546352 0.49460405 3.1205199 3020567
-1.0370423 0.3384133 2.1350925 4729642
-0.96525151 0.32149264 2.028338 5779239
0 0 0 5056806
0 0 0 4071709
0 0 0 3808283
-0.20124929 0.073066503 0.46098587 4006178
-0.19671777 0.073066503 0.46098587 4005919
-0.19002686 0.072245531 0.45580626 4004894
-0.18554626 0.072245531 0.45580626 3479833
-0.18106568 0.072245531 0.45580626 3281941
-0.17658508 0.072245531 0.45580626 3412755
-0.17210448 0.072245531 0.45580626 3543828
-0.17147732 0.073906355 0.46628457 3411985
-0.16883433 0.074765727 0.47170648 3281939
-0.17013229 0.077468105 0.48875612 3544341
-0.16734399 0.078412838 0.49471655 2690577
-0.16654293 0.080373161 0.50708449 786698
-0.16785273 0.083504573 0.52684098 720904
-0.17397067 0.089303508 0.56342721 655369
-0.17575528 0.093186267 0.587924 655620
-0.16997597 0.093186267 0.587924 458759
-0.16419664 0.093186267 0.587924 524294
-0.16074699 0.094556652 0.59656996 524294
-0.15488268 0.094556652 0.59656996 327686
-0.15353407 0.097422004 0.61464781 524552
-0.14976117 0.098920807 0.62410396 524552
-0.14145005 0.097422004 0.61464781 524294
-0.13338701 0.095967948 0.605474 655368
-0.12556113 0.094556652 0.59656996 458757
-0.12148335 0.095967948 0.605474 458759
-0.11553151 0.095967948 0.605474 393222
-0.10957967 0.095967948 0.605474 458759
-0.10519795 0.097422004 0.61464781 458757
-0.099155933 0.097422004 0.61464781 918029
-0.093113922 0.097422004 0.61464781 1378833
-0.085772328 0.095967948 0.605474 1247506
-0.079820491 0.095967948 0.605474 1575696
-0.073868655 0.095967948 0.605474 1970196
-0.067916818 0.095967948 0.605474 2036246
-0.061053731 0.094556652 0.59656996 2167832
-0.05518942 0.094556652 0.59656996 1378317
-0.050061308 0.095967948 0.605474 655626
-0.045466688 0.098920807 0.62410396 720902
-0.039331716 0.098920807 0.62410396 786696
-0.032205798 0.095967948 0.605474 720903
-0.026651748 0.097422004 0.61464781 655623
-0.020926805 0.098920807 0.62410396 720903
-0.016296091 0.10898055 0.68757218 917769
-0.0095372256 0.10898055 0.68757218 852488
0 0 0 917512
0 0 0 917514
0 0 0 917512
0 0 0 983305
0 0 0 983817
0 0 0 1444624
0 0 0 4861489
0 0 0 8076341
0 0 0 10566702
0 0 0 11615527
0 0 0 11680548
0 0 0 11811875
0 0 0 12074533
0 0 0 12467238
0 0 0 12271397
0 0 0 12075560
0 0 0 11943461
0 0 0 12075045
0 0 0 12140585
0 0 0 12403237
0 0 0 12272164
0 0 0 11879719
0 0 0 12141353
0.18015714 0.12859705 0.81133515 12272937
0.18444373 0.12607554 0.79542661 12403496
0.18158154 0.11907134 0.75123626 12469803
0.18221742 0.11481879 0.72440636 12207915
0.18601665 0.11280444 0.71169752 12732202
0.19301267 0.11280444 0.71169752 12338987
0.20358026 0.11481879 0.72440636 12339244
0.21070121 0.11481879 0.72440636 12273707
0.22588965 0.11907134 0.75123626 12142893
0.23327434 0.11907134 0.75123626 12208941
0 0 0 12470827
0 0 0 12471339
0 0 0 12207916
0 0 0 11815211
0 0 0 12207914
0 0 0 12207916
0 0 0 12273965
0 0 0 12077355
0 0 0 12011566
0 0 0 12011566
0 0 0 11814957
0.52673 0.19484401 1.2292956 11683884
0.53881401 0.19484401 1.2292956 11289899
0.50498992 0.17860702 1.1268544 11159341
0.51606697 0.17860702 1.1268544 10896170
0.55815244 0.1891133 1.1931399 11224876
0.58715016 0.19484401 1.2292956 11486762
0.65915763 0.21432841 1.3522252 11223849
0.695638 0.22171904 1.3988537 11289129
0.70938879 0.22171904 1.3988537 11093036
0.74896598 0.22963758 1.4488127 11158574
0.79147488 0.23814268 1.5024725 11223593
0.83725363 0.24730203 1.5602599 11355435
0.8525911 0.24730203 1.5602599 11747881
0.8679285 0.24730203 1.5602599 11354922
0.85055238 0.23814268 1.5024725 11027241
0.86532176 0.23814268 1.5024725 10567976
0.99010247 0.26791051 1.6902815 10502956
1.006718 0.26791051 1.6902815 10633514
1.0233335 0.26791051 1.6902815 10502698
1.0851643 0.27955881 1.763772 10107685
1.1025022 0.27955881 1.763772 10633000
1.1198401 0.27955881 1.763772 10829863
1.2454808 0.30618346 1.9317503 10370601
1.26447 0.30618346 1.9317503 9976612
1.2251202 0.29226601 1.8439435 9912106
1.1891921 0.27955881 1.763772 9650220
1.20653 0.27955881 1.763772 9059627
1.2238679 0.27955881 1.763772 8666928
1.189489 0.26791051 1.6902815 7880239
1.1578604 0.2571941 1.6226703 7027758
1.1738113 0.2571941 1.6226703 6569778
1.2393357 0.26791051 1.6902815 6175020
1.3701285 0.29226601 1.8439435 5911848
1.3882545 0.29226601 1.8439435 5582883
1.6284407 0.3384133 2.1350925 4859420
1.3057978 0.26791051 1.6902815 4728863
1.5113295 0.30618346 1.9317503 4598048
1.5303187 0.30618346 1.9317503 4596766
1.5493079 0.30618346 1.9317503 5780263
1.6467121 0.32149264 2.028338 6239015
1.515137 0.29226601 1.8439435 6042149
1.533263 0.29226601 1.8439435 6174505
1.551389 0.29226601 1.8439435 6175020
1.5695151 0.29226601 1.8439435 6175020
1.6632431 0.30618346 1.9317503 5977128
1.5359511 0.27955881 1.763772 5976358
1.5532892 0.27955881 1.763772 6108201
1.5706271 0.27955881 1.763772 5780265
1.6601453 0.29226601 1.8439435 5516580
1.6782713 0.29226601 1.8439435 5122593
1.622641 0.27955881 1.763772 4991008
1.6399789 0.27955881 1.763772 4729121
1.6573169 0.27955881 1.763772 4598051
1.6048776 0.26791051 1.6902815 4269086
1.6214931 0.26791051 1.6902815 4269340
1.6381086 0.26791051 1.6902815 4400156
1.5885353 0.2571941 1.6226703 4399902
1.6044862 0.2571941 1.6226703 4202778
1.6204371 0.2571941 1.6226703 4202524
1.6363881 0.2571941 1.6226703 4202781
1.7211864 0.26791051 1.6902815 4202526
1.7378019 0.26791051 1.6902815 4136731
1.8306965 0.27955881 1.763772 4202523
1.7710329 0.26791051 1.6902815 4136987
1.7876486 0.26791051 1.6902815 4006170
1.8042641 0.26791051 1.6902815 3940378
1.8208796 0.26791051 1.6902815 4203295
1.8374952 0.26791051 1.6902815 4005916
2.0226662 0.29226601 1.8439435 4137502
2.1379728 0.30618346 1.9317503 3611929
1.9694002 0.27955881 1.763772 3611930
1.9867381 0.27955881 1.763772 3545624
2.1949403 0.30618346 1.9317503 3349015
1.9371884 0.26791051 1.6902815 3217686
1.8035115 0.24730203 1.5602599 3611417
1.8188488 0.24730203 1.5602599 4005914
1.8341863 0.24730203 1.5602599 5253920
1.9235046 0.2571941 1.6226703 5582372
2.1081038 0.27955881 1.763772 5188128
0 0 0 4991521
0 0 0 5057828
0 0 0 5452582
0 0 0 5911847
0 0 0 5911846
0 0 0 6174505
0 0 0 6043175
0 0 0 6240552
0 0 0 6437161
0 0 0 6240298
0 0 0 10382416
0 0 0 10317392
-3.0259664 0.4267891 2.5354223 10251853
-3.4297633 0.48775896 2.8976254 10251597
-3.6629167 0.52527893 3.1205199 10513229
-3.6322417 0.52527893 3.1205199 10710608
-3.9016974 0.5690521 3.380563 10316618
-3.5708921 0.52527893 3.1205199 10120011
-3.2873445 0.48775896 2.8976254 10185803
-3.5095425 0.52527893 3.1205199 7555371
-4.1113887 0.6207841 3.687887 5912095
-4.0751367 0.6207841 3.687887 3743247
-3.7023108 0.5690521 3.380563 1312003
-3.6690798 0.5690521 3.380563 1050125
-3.9663804 0.6207841 3.687887 1313294
-4.3231416 0.68286258 4.0566759 2428944
-3.8938763 0.6207841 3.687887 2626321
-4.7148743 0.75873619 4.5074177 3020050
-4.2035093 0.68286258 4.0566759 2888466
-4.6262579 0.75873619 4.5074177 3019282
-4.123755 0.68286258 4.0566759 2822930
-4.5376415 0.75873619 4.5074177 2691602
-4.4933338 0.75873619 4.5074177 2889493
-4.4490256 0.75873619 4.5074177 2758162
-3.9642456 0.68286258 4.0566759 2560018
-3.9243684 0.68286258 4.0566759 2626069
-3.884491 0.68286258 4.0566759 2559763
-3.2038445 0.5690521 3.380563 2363155
-3.1706135 0.5690521 3.380563 2232082
-3.1373823 0.5690521 3.380563 1903375
-3.3863468 0.6207841 3.687887 1246733
-3.3500948 0.6207841 3.687887 1180938
-3.3138428 0.6207841 3.687887 1180938
-3.2775905 0.6207841 3.687887 918536
-3.2413385 0.6207841 3.687887 1115145
-2.9379959 0.5690521 3.380563 918536
-2.6813214 0.52527893 3.1205199 983560
-2.6506467 0.52527893 3.1205199 786696
-2.8383026 0.5690521 3.380563 786950
-2.8050716 0.5690521 3.380563 590341
-3.0238259 0.6207841 3.687887 852489
-2.9875739 0.6207841 3.687887 721160
-3.2464542 0.68286258 4.0566759 1114889
-3.2065768 0.68286258 4.0566759 1180683
-3.1666996 0.68286258 4.0566759 1049352
-3.474247 0.75873619 4.5074177 1444110
-3.4299388 0.75873619 4.5074177 2232596
-3.3856306 0.75873619 4.5074177 2035217
-3.3413227 0.75873619 4.5074177 1969936
-3.709141 0.85357821 5.0708447 1707792
-3.6592944 0.85357821 5.0708447 1378316
-3.6094477 0.85357821 5.0708447 1904146
-3.5596011 0.85357821 5.0708447 2035219
-3.5097547 0.85357821 5.0708447 2101010
-3.459908 0.85357821 5.0708447 1969937
-3.4100614 0.85357821 5.0708447 2167575
-3.3602147 0.85357821 5.0708447 2101782
-3.3103681 0.85357821 5.0708447 1904401
-3.2605214 0.85357821 5.0708447 1575438
-3.2106748 0.85357821 5.0708447 1509900
-3.1608281 0.85357821 5.0708447 1575438
-3.1109815 0.85357821 5.0708447 1641228
-3.0611348 0.85357821 5.0708447 3547424
-3.0112882 0.85357821 5.0708447 1509643
-2.9614415 0.85357821 5.0708447 1378058
-3.3275371 0.97551793 5.7952509 1049098
-3.2705696 0.97551793 5.7952509 918025
-3.2136018 0.97551793 5.7952509 1180684
-3.1566343 0.97551793 5.7952509 1641230
-2.7122085 0.85357821 5.0708447 1246471
-2.6623619 0.85357821 5.0708447 1114888
-2.9857316 0.97551793 5.7952509 1705997
-2.5626686 0.85357821 5.0708447 2166288
-1.546352 0.52527893 3.1205199 3085846
-1.0370423 0.35940135 2.1350925 5452592
-1.0160542 0.35940135 2.1350925 5254182
0 0 0 4597541
0 0 0 3874587
0 0 0 3808542
-0.20124929 0.077598013 0.46098587 4202530
-0.19450746 0.076726131 0.45580626 4070944
-0.19002686 0.076726131 0.45580626 3610908
-0.18554626 0.076726131 0.45580626 3545626
-0.18106568 0.076726131 0.45580626 3675157
-0.17859173 0.077598013 0.46098587 3478293
-0.17406021 0.077598013 0.46098587 3544340
-0.16952871 0.077598013 0.46098587 3741204
-0.16883433 0.079402626 0.47170648 3478802
-0.17013229 0.082272597 0.48875612 3609618
-0.16734399 0.083275922 0.49471655 2099724
-0.16654293 0.085357822 0.50708449 655368
-0.17232881 0.091048338 0.5408901 655368
-0.1815346 0.098965585 0.587924 590345
-0.17575528 0.098965585 0.587924 524292
-0.16754773 0.097551793 0.57952511 589830
-0.16419664 0.098965585 0.587924 524294
-0.16074699 0.10042096 0.59656996 589830
-0.15719436 0.10191979 0.605474 655364
-0.15589614 0.10505578 0.62410396 589829
-0.14976117 0.10505578 0.62410396 918281
-0.14145005 0.10346401 0.61464781 458761
-0.13540803 0.10346401 0.61464781 655370
-0.12936601 0.10346401 0.61464781 524294
-0.123324 0.10346401 0.61464781 458760
-0.11553151 0.10191979 0.605474 524293
-0.10957967 0.10191979 0.605474 589830
-0.10519795 0.10346401 0.61464781 458759
-0.099155933 0.10346401 0.61464781 1181971
-0.093113922 0.10346401 0.61464781 1576212
-0.087071903 0.10346401 0.61464781 1509649
-0.079820491 0.10191979 0.605474 1510162
-0.072782353 0.10042096 0.59656996 1838611
-0.066918038 0.10042096 0.59656996 1970710
-0.061053731 0.10042096 0.59656996 2299159
-0.05518942 0.10042096 0.59656996 1773073
-0.049325112 0.10042096 0.59656996 721160
-0.044109471 0.10191979 0.605474 655368
-0.039331716 0.10505578 0.62410396 720903
-0.032693762 0.10346401 0.61464781 786439
0 0 0 655368
0 0 0 720904
0 0 0 786443
0 0 0 852230
0 0 0 1114889
0 0 0 2495510
0 0 0 5057064
0 0 0 8468783
0 0 0 10500649
0 0 0 11287588
0 0 0 11812134
0 0 0 11812134
0 0 0 12074531
0 0 0 12140326
0 0 0 12009254
0 0 0 11943972
0 0 0 12009252
0 0 0 12271397
0 0 0 12599844
0 0 0 12271910
0 0 0 12075047
0 0 0 12402983
0 0 0 12666409
0 0 0 12337190
0 0 0 12141351
0.16755736 0.13935971 0.82789302 12337703
0.17218168 0.13657251 0.81133515 12534571
0.18015714 0.13657251 0.81133515 12075558
0.18444373 0.13389462 0.79542661 12469543
0.18158154 0.12645604 0.75123626 12141351
0.17902064 0.11980045 0.71169752 12666923
0.18601665 0.11980045 0.71169752 12797482
0.19301267 0.11980045 0.71169752 12601127
0.20358026 0.12193974 0.72440636 12469801
0.21070121 0.12193974 0.72440636 12666408
0.21782216 0.12193974 0.72440636 12535850
0.23327434 0.12645604 0.75123626 12535595
0.24065903 0.12645604 0.75123626 12470057
0 0 0 11945513
0 0 0 12666922
0 0 0 12207916
0 0 0 12470316
0 0 0 12404777
0 0 0 12339500
0 0 0 12208176
0 0 0 12207146
0 0 0 11946027
0 0 0 11879980
0.57940298 0.22762084 1.3522252 11420457
0.53881401 0.20692803 1.2292956 11355178
0.55089808 0.20692803 1.2292956 11290156
0.56298208 0.20692803 1.2292956 11027754
0.57506615 0.20692803 1.2292956 10961449
0.58715016 0.20692803 1.2292956 11484709
0.65915763 0.22762084 1.3522252 11616808
0.695638 0.23546983 1.3988537 11157799
0.7347241 0.24387948 1.4488127 11093548
0.74896598 0.24387948 1.4488127 10961960
0.76320785 0.24387948 1.4488127 11486251
0.77744979 0.24387948 1.4488127 11485992
0.79169166 0.24387948 1.4488127 11616297
0.80593354 0.24387948 1.4488127 11223081
0.82017547 0.24387948 1.4488127 10895912
0.83441734 0.24387948 1.4488127 10896170
0.88009113 0.25291207 1.5024725 10829350
1.006718 0.28452605 1.6902815 10829089
1.0678263 0.29689676 1.763772 10960679
1.0851643 0.29689676 1.763772 10370857
1.1025022 0.29689676 1.763772 10764329
1.1198401 0.29689676 1.763772 10698790
1.188868 0.31039205 1.8439435 10764327
1.2069941 0.31039205 1.8439435 10501414
1.2251202 0.31039205 1.8439435 10502701
1.2432462 0.31039205 1.8439435 10304292
1.20653 0.29689676 1.763772 10698537
1.3404268 0.32517263 1.9317503 10567209
1.189489 0.28452605 1.6902815 10173480
1.2061045 0.28452605 1.6902815 10305577
1.22272 0.28452605 1.6902815 10501416
1.2393357 0.28452605 1.6902815 10501931
1.2559512 0.28452605 1.6902815 10239271
1.2725667 0.28452605 1.6902815 10173994
1.3452337 0.29689676 1.763772 9845544
1.3625716 0.29689676 1.763772 9518123
1.3799095 0.29689676 1.763772 9190188
1.5303187 0.32517263 1.9317503 8731181
1.7123929 0.35940135 2.1350925 8403499
1.8296801 0.3793681 2.2537088 8863021
1.6666507 0.34143129 2.028338 8271400
1.6062754 0.32517263 1.9317503 7878697
1.4839373 0.29689676 1.763772 8339500
1.5012753 0.29689676 1.763772 8339246
1.4553376 0.28452605 1.6902815 7879724
1.4719532 0.28452605 1.6902815 7617326
1.4885688 0.28452605 1.6902815 6961195
1.5706271 0.29689676 1.763772 6633774
1.6601453 0.31039205 1.8439435 6174509
1.6782713 0.31039205 1.8439435 6370859
1.6963974 0.31039205 1.8439435 6502442
1.6399789 0.29689676 1.763772 6699563
1.6573169 0.29689676 1.763772 6567464
1.6746548 0.29689676 1.763772 6437417
1.6214931 0.28452605 1.6902815 6042923
1.6381086 0.28452605 1.6902815 5452329
1.5885353 0.27314502 1.6226703 4926245
1.6044862 0.27314502 1.6226703 4466208
1.6204371 0.27314502 1.6226703 4268570
1.7045708 0.28452605 1.6902815 4268316
1.7211864 0.28452605 1.6902815 4333853
1.8957839 0.31039205 1.8439435 4071967
1.9139099 0.31039205 1.8439435 4072217
1.8480344 0.29689676 1.763772 4006168
1.7876486 0.28452605 1.6902815 4071961
1.8042641 0.28452605 1.6902815 4071705
1.8208796 0.28452605 1.6902815 4268314
1.9173863 0.29689676 1.763772 4333339
2.1189837 0.32517263 1.9317503 4202777
2.1379728 0.32517263 1.9317503 4268316
2.2648103 0.34143129 2.028338 4269086
2.4049988 0.35940135 2.1350925 4335133
2.8808594 0.4267891 2.5354223 4334879
2.9057827 0.4267891 2.5354223 4400674
1.953804 0.28452605 1.6902815 4597536
1.8916028 0.27314502 1.6226703 4925983
1.987035 0.28452605 1.6902815 5911591
8.0146027 1.1381042 6.761126 6240041
0 0 0 6240299
0 0 0 5779495
0 0 0 5846055
4.1402254 0.5690521 3.380563 5977639
0 0 0 6109227
0 0 0 6240813
0 0 0 6175020
0 0 0 6503215
0 0 0 6567467
0 0 0 6109227
0 0 0 5846570
0 0 0 10513486
0 0 0 10382156
-3.0259664 0.4517124 2.5354223 10250827
-3.4297633 0.51624274 2.8976254 10382413
-3.4012797 0.51624274 2.8976254 10513997
-3.6322417 0.55595374 3.1205199 10644814
-3.1213579 0.48182654 2.7044504 10448205
-2.7306821 0.4251411 2.3862798 9923146
-2.8764265 0.4517124 2.5354223 9856575
-3.5095425 0.55595374 3.1205199 7621419
-3.7687731 0.60228318 3.380563 5846304
-3.7355418 0.60228318 3.380563 3546128
-3.7023108 0.60228318 3.380563 1245955
-3.6690798 0.60228318 3.380563 918795
-3.9663804 0.65703624 3.687887 1312267
-3.9301283 0.65703624 3.687887 2560276
-3.8938763 0.65703624 3.687887 2626066
-4.2433867 0.72273988 4.0566759 2822931
-4.6705661 0.80304432 4.5074177 2822932
-4.6262579 0.80304432 4.5074177 2822675
-4.5819497 0.80304432 4.5074177 2822930
-4.5376415 0.80304432 4.5074177 2822930
-4.4933338 0.80304432 4.5074177 2691344
-4.4490256 0.80304432 4.5074177 2626321
-4.4047174 0.80304432 4.5074177 2691092
-3.9243684 0.72273988 4.0566759 2559759
-3.884491 0.72273988 4.0566759 2757137
-3.8446138 0.72273988 4.0566759 2560530
-3.8047364 0.72273988 4.0566759 2560529
-3.4225991 0.65703624 3.687887 2232079
-3.3863468 0.65703624 3.687887 984072
-3.6851046 0.72273988 4.0566759 984329
-4.0502524 0.80304432 4.5074177 918282
-3.60535 0.72273988 4.0566759 918282
-3.2413385 0.65703624 3.687887 917766
-2.9379959 0.60228318 3.380563 918281
-2.6813214 0.55595374 3.1205199 918280
-2.6506467 0.55595374 3.1205199 852488
-2.8383026 0.60228318 3.380563 786696
-2.8050716 0.60228318 3.380563 786696
-2.7718403 0.60228318 3.380563 984075
-3.2863314 0.72273988 4.0566759 1049354
-3.2464542 0.72273988 4.0566759 1181456
-3.2065768 0.72273988 4.0566759 2035993
-3.1666996 0.72273988 4.0566759 1969165
-3.1268222 0.72273988 4.0566759 1707023
-3.4299388 0.80304432 4.5074177 1838096
-3.3856306 0.80304432 4.5074177 1772558
-3.7589877 0.9034248 5.0708447 1509643
-3.709141 0.9034248 5.0708447 1575695
-3.6592944 0.9034248 5.0708447 1707281
-3.6094477 0.9034248 5.0708447 1575438
-3.5596011 0.9034248 5.0708447 1509902
-3.5097547 0.9034248 5.0708447 1576465
-3.459908 0.9034248 5.0708447 1838610
-3.4100614 0.9034248 5.0708447 2035730
-3.3602147 0.9034248 5.0708447 2166803
-3.3103681 0.9034248 5.0708447 2035216
-3.2605214 0.9034248 5.0708447 1771787
-3.2106748 0.9034248 5.0708447 1443852
-3.1608281 0.9034248 5.0708447 1641231
-3.1109815 0.9034248 5.0708447 1772045
-3.0611348 0.9034248 5.0708447 3151897
-3.0112882 0.9034248 5.0708447 1970197
-2.9614415 0.9034248 5.0708447 2562588
-2.9115949 0.9034248 5.0708447 2628122
-2.8617485 0.9034248 5.0708447 2364694
-3.2136018 1.0324855 5.7952509 2626840
-3.1566343 1.0324855 5.7952509 2232082
-3.0996668 1.0324855 5.7952509 1377289
-3.0426991 1.0324855 5.7952509 1378060
-2.9857316 1.0324855 5.7952509 1509387
-2.2779276 0.80304432 4.5074177 2100495
-1.546352 0.55595374 3.1205199 2954516
-1.0370423 0.38038939 2.1350925 5779498
-1.0160542 0.38038939 2.1350925 4925728
0 0 0 4530977
0 0 0 3874334
-0.2081461 0.083073549 0.46628457 3874848
-0.20124929 0.082129531 0.46098587 4137249
-0.19450746 0.081206724 0.45580626 4004894
-0.19002686 0.081206724 0.45580626 3808798
-0.18765475 0.082129531 0.46098587 3349015
-0.18312323 0.082129531 0.46098587 3281941
-0.17859173 0.082129531 0.46098587 3346963
-0.17406021 0.082129531 0.46098587 3544084
-0.16952871 0.082129531 0.46098587 3544341
-0.16883433 0.084039517 0.47170648 3610134
-0.1681069 0.08604046 0.48293757 3085843
-0.16734399 0.088139005 0.49471655 1771788
-0.16654293 0.090342484 0.50708449 851975
0 0 0 655369
0 0 0 721160
-0.17080444 0.10179435 0.57136279 655367
-0.16518791 0.10179435 0.57136279 589831
-0.16419664 0.1047449 0.587924 458761
-0.15841733 0.1047449 0.587924 1181709
-0.16203111 0.11119075 0.62410396 1312523
-0.15589614 0.11119075 0.62410396 1115145
-0.14976117 0.11119075 0.62410396 1443855
-0.14362621 0.11119075 0.62410396 1247505
-0.13749124 0.11119075 0.62410396 458759
-0.12936601 0.10950603 0.61464781 655368
-0.123324 0.10950603 0.61464781 721160
-0.11728198 0.10950603 0.61464781 459016
-0.11123996 0.10950603 0.61464781 458759
-0.10519795 0.10950603 0.61464781 524295
-0.099155933 0.10950603 0.61464781 458760
-0.094546445 0.11119075 0.62410396 1050383
-0.088411473 0.11119075 0.62410396 984846
-0.081029885 0.10950603 0.61464781 1181454
-0.072782353 0.10628527 0.59656996 1510161
-0.066918038 0.10628527 0.59656996 1838613
-0.061053731 0.10628527 0.59656996 1969940
-0.05518942 0.10628527 0.59656996 1378317
-0.049325112 0.10628527 0.59656996 721416
-0.044109471 0.10787162 0.605474 852489
0 0 0 655625
0 0 0 852233
0 0 0 1114889
0 0 0 2888471
0 0 0 5909805
0 0 0 8730926
0 0 0 10697768
0 0 0 11417893
0 0 0 11222050
0 0 0 11615270
0 0 0 11614240
0 0 0 11615525
0 0 0 11812134
0 0 0 12205091
0 0 0 12533801
0 0 0 12075047
0 0 0 12206119
0 0 0 11943459
0 0 0 12337190
0 0 0 12599076
0 0 0 12205604
0 0 0 12075045
0 0 0 12402983
0 0 0 12534053
0 0 0 12337703
0 0 0 12468778
0.16981603 0.15711735 0.88188601 12665639
0.16755736 0.14749794 0.82789302 12403237
0.17218168 0.14454797 0.81133515 12600614
0.17662464 0.14171369 0.79542661 12534823
0.17748357 0.13636601 0.76541048 12731430
0.16905867 0.12461032 0.69942683 12863788
0.17593406 0.12461032 0.69942683 12601127
0.18280946 0.12461032 0.69942683 12535079
0.19301267 0.12679647 0.71169752 12469288
0.20358026 0.12906069 0.72440636 12404266
0.21070121 0.12906069 0.72440636 12600876
0.22588965 0.13384071 0.75123626 12797225
0.23327434 0.13384071 0.75123626 12600618
0.24519975 0.13636601 0.76541048 12469287
0.25758386 0.13898844 0.78012997 12338217
0 0 0 12404523
0 0 0 12404010
0 0 0 12403496
0 0 0 12404010
0 0 0 12404008
0 0 0 12600875
0 0 0 12142123
0 0 0 11945772
0 0 0 11683371
0 0 0 11814187
0.59269542 0.24091327 1.3522252 11617065
0.55089808 0.21901207 1.2292956 11682603
0.56298208 0.21901207 1.2292956 11944744
0.57506615 0.21901207 1.2292956 11617068
0.60549861 0.2258562 1.2677112 11420717
0.61796027 0.2258562 1.2677112 11224619
0.695638 0.24922064 1.3988537 11485994
0.7347241 0.25812137 1.4488127 11093033
0.72313958 0.24922064 1.3988537 12207146
0.76320785 0.25812137 1.4488127 11157801
0.75064117 0.24922064 1.3988537 10895656
0.76439196 0.24922064 1.3988537 10961707
0.80593354 0.25812137 1.4488127 10764071
0.82017547 0.25812137 1.4488127 10763814
0.83441734 0.25812137 1.4488127 10960937
0.91394079 0.27797687 1.5602599 11092011
1.0504884 0.3142347 1.763772 10829607
1.0678263 0.3142347 1.763772 10960679
1.1344899 0.32851812 1.8439435 10501670
1.1025022 0.3142347 1.763772 10698023
1.1198401 0.3142347 1.763772 10436391
1.1371782 0.3142347 1.763772 10632230
1.2069941 0.32851812 1.8439435 10436136
1.2251202 0.32851812 1.8439435 10567209
1.2432462 0.32851812 1.8439435 10566692
1.3214376 0.34416184 1.9317503 10698536
1.3404268 0.34416184 1.9317503 10632745
1.2412059 0.3142347 1.763772 10566437
1.2585438 0.3142347 1.763772 10763046
1.2758818 0.3142347 1.763772 10631975
1.2393357 0.30114159 1.6902815 10501418
1.2559512 0.30114159 1.6902815 10435881
1.2725667 0.30114159 1.6902815 10239015
1.3452337 0.3142347 1.763772 9845287
1.5669575 0.36136994 2.028338 9779751
1.6704168 0.38038939 2.1350925 9845028
1.7853719 0.40152216 2.2537088 10172964
1.807526 0.40152216 2.2537088 10502441
1.8296801 0.40152216 2.2537088 10897714
1.7543691 0.38038939 2.1350925 10175789
1.6062754 0.34416184 1.9317503 10635056
1.3652223 0.28909594 1.6226703 10372144
1.3811733 0.28909594 1.6226703 10306351
1.4553376 0.30114159 1.6902815 10241327
1.4719532 0.30114159 1.6902815 10175792
1.5532892 0.3142347 1.763772 10044208
1.5706271 0.3142347 1.763772 10241585
1.6601453 0.32851812 1.8439435 10307632
1.605303 0.3142347 1.763772 10373168
1.622641 0.3142347 1.763772 9716013
1.6399789 0.3142347 1.763772 9257004
1.588262 0.30114159 1.6902815 8732461
1.6048776 0.30114159 1.6902815 8340274
1.6214931 0.30114159 1.6902815 7552558
1.5725844 0.28909594 1.6226703 7355949
1.5885353 0.28909594 1.6226703 6896942
1.6044862 0.28909594 1.6226703 6568493
1.6204371 0.28909594 1.6226703 6372138
1.7045708 0.30114159 1.6902815 6371626
1.7211864 0.30114159 1.6902815 6174248
1.8957839 0.32851812 1.8439435 5583141
1.9139099 0.32851812 1.8439435 5123107
1.7710329 0.30114159 1.6902815 4926243
1.7161427 0.28909594 1.6226703 4663328
1.8042641 0.30114159 1.6902815 4728351
1.8208796 0.30114159 1.6902815 4793629
2.0045402 0.32851812 1.8439435 4662045
2.1189837 0.34416184 1.9317503 4662304
2.1379728 0.34416184 1.9317503 4530976
2.3840108 0.38038939 2.1350925 4333339
2.8559361 0.4517124 2.5354223 4136986
3.2924106 0.51624274 2.8976254 4071708
4.226593 0.65703624 3.687887 4005916
5.861412 0.9034248 5.0708447 4005914
7.8816781 1.2045664 6.761126 4400411
0 0 0 5320481
0 0 0 5648675
0 0 0 5846569
9.7770329 1.4454798 8.1133518 5649448
3.7910719 0.55595374 3.1205199 5649449
3.8217468 0.55595374 3.1205199 5911849
5.0081482 0.72273988 4.0566759 6175018
0 0 0 6240813
0 0 0 6109484
0 0 0 6372399
0 0 0 6240298
0 0 0 6436909
0 0 0 6436907
0 0 0 10579279
0 0 0 10513487
-2.5481822 0.40137747 2.1350925 10448209
-2.8245111 0.44859833 2.3862798 10448722
-2.8010538 0.44859833 2.3862798 10382159
-3.1479428 0.50841141 2.7044504 10251343
-2.7541394 0.44859833 2.3862798 10317136
-2.7306821 0.44859833 2.3862798 10250573
-2.7072248 0.44859833 2.3862798 10119493
-3.2588606 0.54472655 2.8976254 7555886
-3.7687731 0.63551426 3.380563 5911842
-3.7355418 0.63551426 3.380563 3743252
-3.7023108 0.63551426 3.380563 1377285
-3.6690798 0.63551426 3.380563 984075
-3.9663804 0.69328833 3.687887 1246732
-3.9301283 0.69328833 3.687887 2560790
-4.2832642 0.76261717 4.0566759 2888723
-4.7148743 0.84735245 4.5074177 2888723
-4.2035093 0.76261717 4.0566759 2888721
-4.6262579 0.84735245 4.5074177 3151639
-4.123755 0.76261717 4.0566759 3085588
-4.5376415 0.84735245 4.5074177 3085586
-4.4933338 0.84735245 4.5074177 3085844
-4.4490256 0.84735245 4.5074177 2888723
-3.9642456 0.76261717 4.0566759 2691603
-3.9243684 0.76261717 4.0566759 2626579
-3.884491 0.76261717 4.0566759 2757137
-3.8446138 0.76261717 4.0566759 2626064
-3.8047364 0.76261717 4.0566759 2363150
-3.4225991 0.69328833 3.687887 2231564
-3.3863468 0.69328833 3.687887 786949
-4.0945606 0.84735245 4.5074177 655622
-4.0502524 0.84735245 4.5074177 1115145
-4.0059443 0.84735245 4.5074177 852489
-3.5654726 0.76261717 4.0566759 852743
-2.9379959 0.63551426 3.380563 852744
-2.9047649 0.63551426 3.380563 917769
-2.8715336 0.63551426 3.380563 655880
-2.8383026 0.63551426 3.380563 786697
-2.8050716 0.63551426 3.380563 721932
-2.7718403 0.63551426 3.380563 2628894
-3.2863314 0.76261717 4.0566759 983559
-3.2464542 0.76261717 4.0566759 786696
-3.2065768 0.76261717 4.0566759 2036244
-3.1666996 0.76261717 4.0566759 2033930
-3.474247 0.84735245 4.5074177 1049865
-3.858681 0.95327145 5.0708447 852489
-3.8088343 0.95327145 5.0708447 1180938
-3.7589877 0.95327145 5.0708447 1378316
-3.709141 0.95327145 5.0708447 1575695
-3.6592944 0.95327145 5.0708447 1838867
-3.6094477 0.95327145 5.0708447 2166803
-3.5596011 0.95327145 5.0708447 2101010
-3.5097547 0.95327145 5.0708447 1969938
-3.459908 0.95327145 5.0708447 2035987
-3.4100614 0.95327145 5.0708447 2298641
-3.3602147 0.95327145 5.0708447 2167316
-3.3103681 0.95327145 5.0708447 1838609
-3.2605214 0.95327145 5.0708447 1575437
-3.2106748 0.95327145 5.0708447 2167572
-3.1608281 0.95327145 5.0708447 1707025
-3.1109815 0.95327145 5.0708447 1509645
-3.0611348 0.95327145 5.0708447 2167315
-3.0112882 0.95327145 5.0708447 1246474
-2.9614415 0.95327145 5.0708447 1642261
-2.9115949 0.95327145 5.0708447 1510419
-2.8617485 0.95327145 5.0708447 918282
-2.8119018 0.95327145 5.0708447 1050125
-2.7620552 0.95327145 5.0708447 1312010
-3.0996668 1.0894531 5.7952509 1970196
-3.0426991 1.0894531 5.7952509 2035217
-2.3222358 0.84735245 4.5074177 1640975
-2.2779276 0.84735245 4.5074177 2035219
-2.2336197 0.84735245 4.5074177 2627093
-1.5156772 0.58662862 3.1205199 5517354
0 0 0 4728869
0 0 0 4268834
0 0 0 3546140
-0.2081461 0.087657146 0.46628457 3875105
-0.20124929 0.086661041 0.46098587 3940129
-0.19671777 0.086661041 0.46098587 3808286
-0.19002686 0.085687317 0.45580626 3741722
-0.18765475 0.086661041 0.46098587 3740437
-0.18312323 0.086661041 0.46098587 3281941
-0.17859173 0.086661041 0.46098587 3085075
-0.17406021 0.086661041 0.46098587 3347990
-0.17147732 0.087657146 0.46628457 3544340
-0.16883433 0.088676415 0.47170648 3675157
-0.1681069 0.090787753 0.48293757 3216148
-0.16734399 0.093002096 0.49471655 1969422
-0.16865106 0.09653382 0.51350325 853004
0 0 0 721417
0 0 0 655881
0 0 0 524296
-0.16997597 0.11052422 0.587924 524293
-0.1666113 0.11214958 0.59656996 524296
-0.1631462 0.11382346 0.605474 590089
-0.16203111 0.11732572 0.62410396 983561
-0.15589614 0.11732572 0.62410396 851975
-0.14976117 0.11732572 0.62410396 984845
-0.14362621 0.11732572 0.62410396 984075
-0.13749124 0.11732572 0.62410396 1444111
-0.13135627 0.11732572 0.62410396 589831
-0.123324 0.11554805 0.61464781 393222
-0.11728198 0.11554805 0.61464781 524295
-0.11123996 0.11554805 0.61464781 393223
-0.10519795 0.11554805 0.61464781 524290
-0.10068142 0.11732572 0.62410396 786694
-0.096023731 0.11915893 0.63385558 589831
-0.091218188 0.12105034 0.64391679 1181199
-0.084888458 0.12105034 0.64391679 1313040
-0.074987873 0.11554805 0.61464781 1444369
-0.066918038 0.11214958 0.59656996 1838098
-0.061053731 0.11214958 0.59656996 2035993
-0.05518942 0.11214958 0.59656996 983562
-0.048610255 0.11052422 0.587924 1443855
-0.044109471 0.11382346 0.605474 2627612
-0.038157634 0.11382346 0.605474 6501424
0 0 0 9321006
0 0 0 10957601
0 0 0 11548708
0 0 0 12008227
0 0 0 11548704
-0.0026872661 0.12501921 0.66502881 11942693
0 0 0 11614499
0 0 0 11417378
0 0 0 11484454
0 0 0 11483426
0 0 0 11548706
0 0 0 11746085
0 0 0 11550504
0 0 0 12074533
0 0 0 12075045
0 0 0 12008740
0 0 0 12206119
0 0 0 12140578
0 0 0 12140324
0 0 0 12075306
0.21546936 0.2824508 1.5024725 12206117
0.2220159 0.27236328 1.4488127 12205604
0.22050728 0.2542057 1.3522252 12730660
0.19483311 0.21183811 1.1268544 12469030
0.15443259 0.15887856 0.84514076 12403496
0.16274036 0.15887856 0.84514076 12469030
0.17104813 0.15887856 0.84514076 12534823
0.17569558 0.15563616 0.82789302 12469030
0.18383382 0.15563616 0.82789302 12797223
0.17748357 0.14389002 0.76541048 12665639
0.16905867 0.13148572 0.69942683 12600616
0.17295215 0.12925716 0.68757218 12731434
0.18280946 0.13148572 0.69942683 12601388
0.19301267 0.13379249 0.71169752 12534826
0.20358026 0.13618164 0.72440636 12731690
0.21850497 0.1412254 0.75123626 12535083
0.23015171 0.14389002 0.76541048 12534823
0.23767573 0.14389002 0.76541048 12665897
0.24519975 0.14389002 0.76541048 12797225
0.25758386 0.14665715 0.78012997 12665637
0 0 0 12272164
0 0 0 12600616
0 0 0 12731948
0 0 0 12666670
0 0 0 12272425
0 0 0 12272426
0 0 0 12470316
0 0 0 12403496
0 0 0 12534827
0.57940298 0.2542057 1.3522252 12141609
0.55565202 0.23831786 1.2677112 12272682
0.53469521 0.22429916 1.1931399 11813674
0.56298208 0.2310961 1.2292956 11616808
0.59303695 0.23831786 1.2677112 12206890
0.60549861 0.23831786 1.2677112 11289129
0.61796027 0.23831786 1.2677112 11420203
0.695638 0.26297143 1.3988537 11616808
0.70938879 0.26297143 1.3988537 11420717
0.72313958 0.26297143 1.3988537 11485992
0.73689038 0.26297143 1.3988537 11813930
0.72561979 0.2542057 1.3522252 11354667
0.76439196 0.26297143 1.3988537 11485736
0.77814275 0.26297143 1.3988537 11421228
0.82017547 0.27236328 1.4488127 11354410
0.86532176 0.2824508 1.5024725 10895143
0.9504984 0.30504686 1.6226703 11092265
1.0504884 0.33157268 1.763772 11092011
1.1163639 0.34664416 1.8439435 10502443
1.1344899 0.34664416 1.8439435 10436135
1.1526159 0.34664416 1.8439435 10633000
1.170742 0.34664416 1.8439435 10173221
1.188868 0.34664416 1.8439435 10632490
1.2069941 0.34664416 1.8439435 10435621
1.2251202 0.34664416 1.8439435 10304550
1.2432462 0.34664416 1.8439435 10435621
1.3214376 0.36315101 1.9317503 10632232
1.3404268 0.36315101 1.9317503 10435623
1.359416 0.36315101 1.9317503 10632747
1.3784052 0.36315101 1.9317503 10435623
1.3338765 0.34664416 1.8439435 10304809
1.2932198 0.33157268 1.763772 10172969
1.2559512 0.31775713 1.6902815 10697255
1.2725667 0.31775713 1.6902815 10632489
1.3452337 0.33157268 1.763772 10173478
1.4923403 0.36315101 1.9317503 10435366
1.6704168 0.40137747 2.1350925 10107941
1.8903937 0.44859833 2.3862798 10370341
1.9138509 0.44859833 2.3862798 10371883
1.9373082 0.44859833 2.3862798 10569264
1.6666507 0.38130859 2.028338 10569521
1.405491 0.31775713 1.6902815 10635825
1.3127139 0.29331431 1.5602599 10504757
1.3811733 0.30504686 1.6226703 10503728
1.4553376 0.31775713 1.6902815 10503983
1.6057671 0.34664416 1.8439435 10372401
1.6238931 0.34664416 1.8439435 10175020
1.6420193 0.34664416 1.8439435 10437165
1.587965 0.33157268 1.763772 9978413
1.5384154 0.31775713 1.6902815 9912877
1.5550309 0.31775713 1.6902815 9846571
1.5716465 0.31775713 1.6902815 9716270
1.588262 0.31775713 1.6902815 9978414
1.6746548 0.33157268 1.763772 10109229
1.6214931 0.31775713 1.6902815 10242609
1.5725844 0.30504686 1.6226703 10307635
1.5885353 0.30504686 1.6226703 9979956
1.6044862 0.30504686 1.6226703 9914164
1.6204371 0.30504686 1.6226703 9979441
1.7045708 0.31775713 1.6902815 10045230
1.7211864 0.31775713 1.6902815 9782063
1.8957839 0.34664416 1.8439435 9716016
1.6842408 0.30504686 1.6226703 9585715
1.5180283 0.27236328 1.4488127 8470062
1.5322702 0.27236328 1.4488127 7353897
1.6654747 0.29331431 1.5602599 5909794
1.8208796 0.31775713 1.6902815 5121821
1.9173863 0.33157268 1.763772 5057058
2.1189837 0.36315101 1.9317503 5319718
2.2448716 0.38130859 2.028338 5649453
2.5164559 0.42367622 2.2537088 5452840
3.0463316 0.50841141 2.7044504 5649449
3.5456731 0.58662862 3.1205199 5517350
5.8115654 0.95327145 5.0708447 5056800
5.861412 0.95327145 5.0708447 5057315
7.8816781 1.2710285 6.761126 5320227
7.9481401 1.2710285 6.761126 5583397
8.0146027 1.2710285 6.761126 5912105
9.697278 1.5252343 8.1133518 5977128
9.7770329 1.5252343 8.1133518 5714731
9.8567877 1.5252343 8.1133518 5845803
4.9682708 0.76261717 4.0566759 5845803
0 0 0 5846059
0 0 0 5846827
0 0 0 6044204
0 0 0 5846568
0 0 0 5977639
0 0 0 5911847
0 0 0 5846312
0 0 0 9989198
0 0 0 10383185
-2.2007027 0.3647702 1.8439435 10251343
-2.4008346 0.40124726 2.028338 10448978
-2.506206 0.42236552 2.1350925 10448975
-2.7775967 0.47205555 2.3862798 10251595
-2.7541394 0.47205555 2.3862798 10448721
-2.7306821 0.47205555 2.3862798 10316365
-2.7072248 0.47205555 2.3862798 10184516
-2.8515031 0.50155902 2.5354223 7818031
-3.7687731 0.6687454 3.380563 5977893
-3.7355418 0.6687454 3.380563 3809302
-3.7023108 0.6687454 3.380563 1180676
-3.6690798 0.6687454 3.380563 1115402
-3.9663804 0.72954041 3.687887 1509388
-3.9301283 0.72954041 3.687887 2429716
-3.8938763 0.72954041 3.687887 2757907
-4.2433867 0.80249453 4.0566759 2889236
-4.2035093 0.80249453 4.0566759 2955030
-4.1636324 0.80249453 4.0566759 2888723
-4.5819497 0.89166057 4.5074177 2954259
-4.5376415 0.89166057 4.5074177 2954259
-4.4933338 0.89166057 4.5074177 2822930
-4.0041227 0.80249453 4.0566759 2954514
-3.9642456 0.80249453 4.0566759 2823186
-3.9243684 0.80249453 4.0566759 2757138
-3.884491 0.80249453 4.0566759 2756884
-3.8446138 0.80249453 4.0566759 2691347
-3.8047364 0.80249453 4.0566759 2232081
-3.7648592 0.80249453 4.0566759 2231311
-3.7249818 0.80249453 4.0566759 1114887
-4.0945606 0.89166057 4.5074177 655880
-4.0502524 0.89166057 4.5074177 1180939
-4.0059443 0.89166057 4.5074177 1114632
-3.9616363 0.89166057 4.5074177 983562
-3.9173281 0.89166057 4.5074177 918284
-3.485718 0.80249453 4.0566759 984075
-3.1325822 0.72954041 3.687887 1180684
-3.0963302 0.72954041 3.687887 983305
-3.0600781 0.72954041 3.687887 1115917
-2.7718403 0.6687454 3.380563 2890524
-2.9875739 0.72954041 3.687887 721670
-3.2464542 0.80249453 4.0566759 918282
-3.2065768 0.80249453 4.0566759 1445395
-3.5185549 0.89166057 4.5074177 2233366
-3.474247 0.89166057 4.5074177 1838606
-3.4299388 0.89166057 4.5074177 1707022
-3.8088343 1.003118 5.0708447 1706509
-3.7589877 1.003118 5.0708447 1049865
-3.709141 1.003118 5.0708447 1510675
-3.6592944 1.003118 5.0708447 2167829
-3.6094477 1.003118 5.0708447 1903889
-3.5596011 1.003118 5.0708447 1838608
-3.5097547 1.003118 5.0708447 1379086
-3.459908 1.003118 5.0708447 1509902
-3.4100614 1.003118 5.0708447 1706252
-3.3602147 1.003118 5.0708447 1509646
-3.3103681 1.003118 5.0708447 4928306
-3.2605214 1.003118 5.0708447 2295817
-3.2106748 1.003118 5.0708447 1509647
-3.1608281 1.003118 5.0708447 1574924
-3.1109815 1.003118 5.0708447 1444109
-3.0611348 1.003118 5.0708447 1575438
-3.0112882 1.003118 5.0708447 1509903
-2.9614415 1.003118 5.0708447 2757395
-2.9115949 1.003118 5.0708447 5318428
-2.8617485 1.003118 5.0708447 2758425
-2.8119018 1.003118 5.0708447 3086619
-2.7620552 1.003118 5.0708447 2495508
-2.7122085 1.003118 5.0708447 3876643
-2.6623619 1.003118 5.0708447 3086872
-2.3222358 0.89166057 4.5074177 1577243
-2.2779276 0.89166057 4.5074177 1773591
0 0 0 3547423
0 0 0 5516838
0 0 0 4662304
0 0 0 3808285
0 0 0 3743778
-0.2081461 0.092240743 0.46628457 3941154
-0.20124929 0.091192551 0.46098587 4005664
-0.19671777 0.091192551 0.46098587 3873822
-0.19218627 0.091192551 0.46098587 3610907
-0.18765475 0.091192551 0.46098587 3413785
-0.18312323 0.091192551 0.46098587 3478548
-0.17859173 0.091192551 0.46098587 3085075
-0.17606091 0.092240743 0.46628457 3150353
-0.17347123 0.093313307 0.47170648 3413267
-0.17082062 0.094411112 0.47725597 3543825
-0.1681069 0.095535055 0.48293757 3412755
-0.16940996 0.099073388 0.50082415 1968911
-0.1730316 0.10422006 0.52684098 3020050
0 0 0 2691088
0 0 0 2297618
0 0 0 1903888
-0.17504987 0.1197753 0.605474 983817
-0.16909803 0.1197753 0.605474 721159
-0.1631462 0.1197753 0.605474 589833
-0.16203111 0.12346069 0.62410396 720902
-0.15589614 0.12346069 0.62410396 393222
-0.14976117 0.12346069 0.62410396 458755
-0.14818577 0.12738007 0.64391679 918282
-0.14185603 0.12738007 0.64391679 589832
-0.13340871 0.12538975 0.63385558 589831
-0.123324 0.12159006 0.61464781 524551
-0.11728198 0.12159006 0.61464781 590089
-0.11123996 0.12159006 0.61464781 524552
-0.10681639 0.12346069 0.62410396 655367
-0.10225456 0.12538975 0.63385558 852749
-0.099121273 0.12943459 0.65430254 1180682
-0.092689447 0.12943459 0.65430254 983820
-0.08767169 0.13155647 0.66502881 1904406
-0.077331245 0.12538975 0.63385558 2496026
-0.067916818 0.1197753 0.605474 4270380
-0.061053731 0.11801389 0.59656996 7353388
-0.054389574 0.11630354 0.587924 10237994
-0.048610255 0.11630354 0.587924 11417636
-0.042830933 0.11630354 0.587924 11613986
-0.036522307 0.11464207 0.57952511 11615014
-0.031272296 0.11630354 0.587924 11811109
-0.025492977 0.11630354 0.587924 11614499
-0.020003565 0.11801389 0.59656996 12008229
0 0 0 11811618
-0.0087921293 0.12538975 0.63385558 11943461
-0.0025613005 0.12538975 0.63385558 11876641
0.003849997 0.13155647 0.66502881 11548962
0 0 0 11418403
0 0 0 11483169
0 0 0 10893857
0 0 0 10893859
0 0 0 11353638
0 0 0 11484196
0 0 0 12008995
0 0 0 12074531
0 0 0 12075047
0 0 0 12271399
0 0 0 12205604
0 0 0 12468776
0 0 0 12403237
0.20777401 0.28660515 1.4488127 12403496
0.21436018 0.27672222 1.3988537 12665639
0.22050728 0.26749814 1.3522252 12731178
0.19483311 0.22291514 1.1268544 12797225
0.15443259 0.16718635 0.84514076 12665385
0.16274036 0.16718635 0.84514076 12402983
0.17104813 0.16718635 0.84514076 12271910
0.1793559 0.16718635 0.84514076 12468778
0.18766367 0.16718635 0.84514076 12796455
0.17748357 0.15141404 0.76541048 12403240
0.17509648 0.14330257 0.72440636 12600616
0.17295215 0.13601601 0.68757218 12599077
0.18280946 0.13836111 0.69942683 12402982
0.18968485 0.13836111 0.69942683 12666409
0.21924029 0.15432586 0.78012997 12600873
0.22690901 0.15432586 0.78012997 12337701
0.23457772 0.15432586 0.78012997 12666408
0.23767573 0.15141404 0.76541048 12601129
0.24519975 0.15141404 0.76541048 12534823
0.27335429 0.16377439 0.82789302 12207916
0 0 0 12928557
0 0 0 12731432
0 0 0 12535334
0 0 0 12404008
0 0 0 12469804
0 0 0 12404521
0 0 0 12272682
0 0 0 12140839
0.56611055 0.26749814 1.3522252 12206633
0.54319036 0.25077951 1.2677112 12010539
0.50802469 0.22928414 1.1590502 11943974
0.53469521 0.23602778 1.1931399 12075560
0.56298208 0.24318013 1.2292956 12206889
0.57506615 0.24318013 1.2292956 12009254
0.60549861 0.25077951 1.2677112 11878699
0.61796027 0.25077951 1.2677112 11681575
0.695638 0.27672222 1.3988537 11812390
0.70938879 0.27672222 1.3988537 11747366
0.72313958 0.27672222 1.3988537 11617065
0.71232736 0.26749814 1.3522252 12010024
0.72561979 0.26749814 1.3522252 11550762
0.73891222 0.26749814 1.3522252 11878954
0.75220466 0.26749814 1.3522252 11877929
0.79189354 0.27672222 1.3988537 10960677
0.83441734 0.28660515 1.4488127 11091752
0.9504984 0.32099777 1.6226703 10829863
1.0504884 0.34891063 1.763772 10567979
1.1695241 0.38214022 1.9317503 10239271
1.1885133 0.38214022 1.9317503 10567721
1.2075025 0.38214022 1.9317503 10895401
1.2264916 0.38214022 1.9317503 10631973
1.2454808 0.38214022 1.9317503 10501159
1.2069941 0.3647702 1.8439435 10566951
1.2251202 0.3647702 1.8439435 10698023
1.3024484 0.38214022 1.9317503 10698024
1.3214376 0.38214022 1.9317503 10698795
1.3404268 0.38214022 1.9317503 10173737
1.359416 0.38214022 1.9317503 9911081
1.3784052 0.38214022 1.9317503 9977387
1.3973943 0.38214022 1.9317503 10041380
1.3520025 0.3647702 1.8439435 9321001
1.3105577 0.34891063 1.763772 9584684
1.2725667 0.3343727 1.6902815 9845798
1.3452337 0.34891063 1.763772 9910567
1.4245067 0.3647702 1.8439435 10107689
1.5113295 0.38214022 1.9317503 10238759
1.7853719 0.44583029 2.2537088 10435367
1.6267734 0.40124726 2.028338 10502185
1.6467121 0.40124726 2.028338 11224882
1.3888755 0.3343727 1.6902815 10503474
1.405491 0.3343727 1.6902815 10438194
1.4221066 0.3343727 1.6902815 10175024
1.5695151 0.3647702 1.8439435 10240815
1.5876411 0.3647702 1.8439435 10305835
1.6057671 0.3647702 1.8439435 10175022
1.6238931 0.3647702 1.8439435 10503216
1.7202107 0.38214022 1.9317503 10240302
1.7391998 0.38214022 1.9317503 10043438
1.5384154 0.3343727 1.6902815 9978415
1.5550309 0.3343727 1.6902815 10175024
1.6399789 0.34891063 1.763772 10372146
1.6573169 0.34891063 1.763772 10175278
1.7507756 0.3647702 1.8439435 10175532
1.6214931 0.3343727 1.6902815 9978922
1.5121003 0.30865172 1.5602599 9780778
1.5274378 0.30865172 1.5602599 10110001
1.6044862 0.32099777 1.6226703 9911852
1.6879553 0.3343727 1.6902815 9911598
1.7045708 0.3343727 1.6902815 10109231
1.7211864 0.3343727 1.6902815 10307632
1.8133585 0.34891063 1.763772 9979440
1.7544174 0.3343727 1.6902815 10176818
1.5180283 0.28660515 1.4488127 9978928
1.5322702 0.28660515 1.4488127 8537138
1.546512 0.28660515 1.4488127 7354409
1.7480445 0.32099777 1.6226703 7945517
0 0 0 7486767
2.7811661 0.50155902 2.5354223 6566437
2.8060894 0.50155902 2.5354223 7158572
2.8310127 0.50155902 2.5354223 8668723
0 0 0 9258035
5.7617188 1.003118 5.0708447 9126704
5.8115654 1.003118 5.0708447 9127219
5.861412 1.003118 5.0708447 8864560
6.755724 1.1464206 5.7952509 8864303
0 0 0 9061170
0 0 0 9126963
9.697278 1.6049891 8.1133518 8996145
9.7770329 1.6049891 8.1133518 8406065
9.8567877 1.6049891 8.1133518 8472371
9.9365416 1.6049891 8.1133518 8079413
16.693827 2.6749816 13.522252 7423027
0 0 0 6898741
0 0 0 6898741
0 0 0 6766896
0 0 0 6700333
0 0 0 6766640
0 0 0 6569261
0 0 0 10447692
0 0 0 10316875
-1.9366184 0.33694872 1.6226703 10316365
-2.1825767 0.38289624 1.8439435 10447949
-2.1644506 0.38289624 1.8439435 10448204
-2.485218 0.44335356 2.1350925 10579790
-2.4642301 0.44335356 2.1350925 10316366
-2.4432418 0.44335356 2.1350925 10381643
-2.4222538 0.44335356 2.1350925 9921860
-2.8515031 0.52648234 2.5354223 8409396
-3.4788675 0.64797831 3.1205199 5584161
-3.4481928 0.64797831 3.1205199 4006168
-3.7023108 0.70197648 3.380563 918278
-3.6690798 0.70197648 3.380563 1115661
-3.6358488 0.70197648 3.380563 1180938
-3.9301283 0.76579249 3.687887 2626581
-3.8938763 0.76579249 3.687887 2954514
-4.2433867 0.84237182 4.0566759 3085844
-4.2035093 0.84237182 4.0566759 3151637
-4.1636324 0.84237182 4.0566759 3151635
-4.123755 0.84237182 4.0566759 3151891
