# .PCD v0.7 - Point Cloud Data file format
VERSION 0.7
FIELDS x y z rgb
SIZE 4 4 4 4
TYPE F F F U
COUNT 1 1 1 1
WIDTH 1383
HEIGHT 1
VIEWPOINT 0 0 0 1 0 0 0
POINTS 1383
DATA ascii
0.15443259 0.092416398 0.84514076 720903
0.15941913 0.090530351 0.82789302 720903
0.16755736 0.090530351 0.82789302 720903
0.17569558 0.090530351 0.82789302 720902
0.18015714 0.088719748 0.81133515 459014
0.17748357 0.08369787 0.76541048 786438
0.15085235 0.068245955 0.62410396 918282
0.15944025 0.069312304 0.63385558 720903
0.20390287 0.085307449 0.78012997 720902
0 0 0 852489
0 0 0 852490
0.20343564 0.076482534 0.69942683 1247244
0.21031106 0.076482534 0.69942683 8999735
0.23327434 0.082147911 0.75123626 9195830
0 0 0 9130809
0 0 0 8803128
0 0 0 1508612
0 0 0 918281
0 0 0 852489
0 0 0 721159
0 0 0 786696
0 0 0 852489
0.49047789 0.13442385 1.2292956 852488
0.57188082 0.15296507 1.3988537 786696
0.58563161 0.15296507 1.3988537 786696
0.5993824 0.15296507 1.3988537 787466
0.61313319 0.15296507 1.3988537 721673
0.62688398 0.15296507 1.3988537 786950
0.66351461 0.15842812 1.4488127 720903
0.90367538 0.21123749 1.9317503 720903
0.96879786 0.22179937 2.028338 590087
1.0407752 0.23347302 2.1350925 786696
1.0617633 0.23347302 2.1350925 721159
0.79124135 0.1706149 1.5602599 655878
0.7767055 0.16429582 1.5024725 852746
0.79147488 0.16429582 1.5024725 984330
0.80624425 0.16429582 1.5024725 589830
0.79169166 0.15842812 1.4488127 655369
0.835783 0.16429582 1.5024725 2100750
0.85055238 0.16429582 1.5024725 3810075
0.93454748 0.1774395 1.6226703 4072474
0.99010247 0.1848328 1.6902815 3940888
1.0982379 0.20163578 1.8439435 3940636
1.1695241 0.21123749 1.9317503 2560279
1.1885133 0.21123749 1.9317503 1772818
1.2678777 0.22179937 2.028338 1969425
1.2264916 0.21123749 1.9317503 2627352
1.188868 0.20163578 1.8439435 2561046
1.2069941 0.20163578 1.8439435 2757139
1.2251202 0.20163578 1.8439435 4400927
1.2432462 0.20163578 1.8439435 4466463
1.2613722 0.20163578 1.8439435 4532257
1.3404268 0.21123749 1.9317503 5649963
1.359416 0.21123749 1.9317503 6044209
1.3784052 0.21123749 1.9317503 6570551
1.3973943 0.21123749 1.9317503 6307379
1.4163835 0.21123749 1.9317503 5059884
1.4353727 0.21123749 1.9317503 4730925
1.5270802 0.22179937 2.028338 2954261
1.5470188 0.22179937 2.028338 1903887
1.5669575 0.22179937 2.028338 983305
1.6704168 0.23347302 2.1350925 786698
1.6914049 0.23347302 2.1350925 852489
1.5493079 0.21123749 1.9317503 917512
1.568297 0.21123749 1.9317503 852489
1.5872862 0.21123749 1.9317503 852746
1.6062754 0.21123749 1.9317503 918281
1.551389 0.20163578 1.8439435 655623
1.5695151 0.20163578 1.8439435 786953
1.5876411 0.20163578 1.8439435 983817
1.6057671 0.20163578 1.8439435 3416351
1.4885688 0.1848328 1.6902815 6504752
1.5051843 0.1848328 1.6902815 6767925
1.587965 0.19286901 1.763772 6766122
1.605303 0.19286901 1.763772 6963251
1.6963974 0.20163578 1.8439435 7096120
1.7145234 0.20163578 1.8439435 6240046
1.7326494 0.20163578 1.8439435 4797994
1.7507756 0.20163578 1.8439435 1509132
1.6919928 0.19286901 1.763772 786955
1.8721242 0.21123749 1.9317503 590087
1.8911134 0.21123749 1.9317503 524294
1.9101025 0.21123749 1.9317503 655881
1.9290917 0.21123749 1.9317503 524551
2.045485 0.22179937 2.028338 590091
2.0654237 0.22179937 2.028338 721159
2.0853624 0.22179937 2.028338 918282
2.1053011 0.22179937 2.028338 918282
2.0240376 0.21123749 1.9317503 787466
2.0430269 0.21123749 1.9317503 787979
2.062016 0.21123749 1.9317503 853259
2.0810053 0.21123749 1.9317503 786950
2.0999944 0.21123749 1.9317503 918282
2.0226662 0.20163578 1.8439435 721673
1.8707262 0.1848328 1.6902815 655880
2.0589182 0.20163578 1.8439435 787208
2.0770445 0.20163578 1.8439435 918280
2.0951705 0.20163578 1.8439435 852488
1.9371884 0.1848328 1.6902815 852490
1.953804 0.1848328 1.6902815 721417
1.9704195 0.1848328 1.6902815 1576462
1.987035 0.1848328 1.6902815 5057824
0 0 0 6507820
0 0 0 6833977
0 0 0 2429718
0 0 0 2823443
0 0 0 7887176
25.040741 2.2179937 20.283379 9135172
0 0 0 9264711
0 0 0 8607043
0 0 0 7555131
0 0 0 7029556
0 0 0 7161654
0 0 0 7359289
0 0 0 10448722
0 0 0 10907474
-2.8479683 0.28439766 2.3862798 10776401
-2.8245111 0.28439766 2.3862798 10383183
-2.9761198 0.30217251 2.5354223 10382929
-3.1479428 0.32231733 2.7044504 10646098
-3.344312 0.34534001 2.8976254 10514511
-3.3158283 0.34534001 2.8976254 10448461
-3.2873445 0.34534001 2.8976254 10052929
-3.8020041 0.40289667 3.380563 7620137
-3.7687731 0.40289667 3.380563 6174240
-3.7355418 0.40289667 3.380563 3414544
-3.7023108 0.40289667 3.380563 1312267
-3.6690798 0.40289667 3.380563 1115915
-3.9663804 0.43952367 3.687887 1838608
-3.9301283 0.43952367 3.687887 3085332
-3.8938763 0.43952367 3.687887 3151638
-3.8576241 0.43952367 3.687887 3282453
-3.821372 0.43952367 3.687887 3413779
-3.78512 0.43952367 3.687887 3217428
-3.7488678 0.43952367 3.687887 3151636
-3.7126157 0.43952367 3.687887 3217429
-3.6763637 0.43952367 3.687887 3217687
-3.6401114 0.43952367 3.687887 3283224
-3.6038594 0.43952367 3.687887 3217429
-3.5676074 0.43952367 3.687887 3020050
-3.884491 0.48347604 4.0566759 3282452
-3.8446138 0.48347604 4.0566759 3085073
-3.8047364 0.48347604 4.0566759 3020050
-3.4225991 0.43952367 3.687887 2493965
-3.3863468 0.43952367 3.687887 786950
-3.3500948 0.43952367 3.687887 984075
-3.3138428 0.43952367 3.687887 787722
-3.60535 0.48347604 4.0566759 983817
-3.2413385 0.43952367 3.687887 1049097
-3.5255952 0.48347604 4.0566759 984329
-3.485718 0.48347604 4.0566759 918536
-3.4458406 0.48347604 4.0566759 852744
-3.4059634 0.48347604 4.0566759 852488
-3.0600781 0.43952367 3.687887 721672
-3.0238259 0.43952367 3.687887 590344
-3.2863314 0.48347604 4.0566759 852743
-3.2464542 0.48347604 4.0566759 655880
-3.2065768 0.48347604 4.0566759 853003
-2.8788176 0.43952367 3.687887 1180684
-2.8425655 0.43952367 3.687887 1115145
-3.0869448 0.48347604 4.0566759 1312266
-3.0470676 0.48347604 4.0566759 1049864
-3.3413227 0.53719562 4.5074177 984329
-3.2970145 0.53719562 4.5074177 918282
-3.2527063 0.53719562 4.5074177 1246475
-3.6094477 0.60434502 5.0708447 1181451
-3.5596011 0.60434502 5.0708447 1378059
-3.5097547 0.60434502 5.0708447 1443852
-3.459908 0.60434502 5.0708447 721673
-3.4100614 0.60434502 5.0708447 1312523
-3.3602147 0.60434502 5.0708447 1312523
-3.3103681 0.60434502 5.0708447 1049868
-3.2605214 0.60434502 5.0708447 983561
-3.2106748 0.60434502 5.0708447 1247247
-3.1608281 0.60434502 5.0708447 1313293
-3.1109815 0.60434502 5.0708447 1378316
-3.0611348 0.60434502 5.0708447 1443852
-3.0112882 0.60434502 5.0708447 1575695
-2.9614415 0.60434502 5.0708447 1443853
-2.9115949 0.60434502 5.0708447 1444110
-2.8617485 0.60434502 5.0708447 1378316
-2.8119018 0.60434502 5.0708447 1115402
-2.7620552 0.60434502 5.0708447 1313040
-2.7122085 0.60434502 5.0708447 4400933
-3.0426991 0.69068003 5.7952509 4399386
-2.9857316 0.69068003 5.7952509 4070673
-2.9287641 0.69068003 5.7952509 3807504
-2.5128219 0.60434502 5.0708447 3610386
-2.4629753 0.60434502 5.0708447 3478800
-2.4131286 0.60434502 5.0708447 3347988
-2.363282 0.60434502 5.0708447 3478293
0 0 0 5712932
0 0 0 4465440
0 0 0 4268320
-0.18222278 0.050892211 0.42701849 3874589
-0.17802517 0.050892211 0.42701849 3479318
-0.17567678 0.051433619 0.43156123 3216148
-0.17143452 0.051433619 0.43156123 2954006
-0.16719225 0.051433619 0.43156123 3282456
-0.16294998 0.051433619 0.43156123 3216148
-0.15870772 0.051433619 0.43156123 3150611
-0.15446545 0.051433619 0.43156123 3084818
-0.15022318 0.051433619 0.43156123 3084816
-0.14755061 0.051986668 0.43620169 3215633
-0.14803815 0.053719558 0.45074174 3412498
-0.14522091 0.054323148 0.45580626 3215632
-0.14074031 0.054323148 0.45580626 655364
-0.13625972 0.054323148 0.45580626 524294
-0.13327661 0.054940458 0.46098587 458755
-0.12588409 0.053719558 0.45074174 262149
-0.11753543 0.051986668 0.43620169 262149
-0.11324755 0.051986668 0.43620169 393219
-0.10895967 0.051986668 0.43620169 524295
-0.10467179 0.051986668 0.43620169 589830
-0.10489554 0.054323148 0.45580626 655366
0 0 0 720903
0 0 0 459016
0 0 0 393220
0 0 0 589831
0 0 0 458761
-0.10362784 0.072160602 0.605474 524296
-0.094844811 0.070068985 0.587924 655368
-0.089065492 0.070068985 0.587924 720903
-0.084510967 0.071099415 0.59656996 720903
-0.07864666 0.071099415 0.59656996 1182224
-0.072782353 0.071099415 0.59656996 458753
-0.066918038 0.071099415 0.59656996 721157
-0.061964981 0.072160602 0.605474 393220
-0.05518942 0.071099415 0.59656996 524293
-0.048610255 0.070068985 0.587924 327686
-0.042219065 0.069068007 0.57952511 721159
-0.036007911 0.068095215 0.57136279 458757
-0.030391388 0.068095215 0.57136279 721161
-0.02443077 0.067149453 0.56342721 590087
-0.018892257 0.067149453 0.56342721 721161
-0.013541822 0.068095215 0.57136279 721158
-0.008038518 0.069068007 0.57952511 721157
-0.0023417606 0.069068007 0.57952511 983559
0.0033077439 0.068095215 0.57136279 786696
0.0086797653 0.066229597 0.555709 786696
0.01414241 0.066229597 0.555709 786696
0.021360731 0.072160602 0.605474 852489
0 0 0 721673
0 0 0 786950
0 0 0 917511
0 0 0 786950
0 0 0 720903
0 0 0 786950
0.20107524 0.23022668 1.9317503 720903
0 0 0 917768
0 0 0 786696
0 0 0 589831
0 0 0 917512
0 0 0 917512
0 0 0 786439
0.14923386 0.10286724 0.86312246 917766
0.15771839 0.10286724 0.86312246 983302
0.16274036 0.10072417 0.84514076 983561
0.16755736 0.098668583 0.82789302 786696
0.17569558 0.098668583 0.82789302 852743
0.18015714 0.096695207 0.81133515 524807
0.18089673 0.09297616 0.78012997 590087
0.15320942 0.075543128 0.63385558 786696
0.15944025 0.075543128 0.63385558 720903
0.20390287 0.09297616 0.78012997 786696
0 0 0 786696
0 0 0 721160
0.20700471 0.08482036 0.71169752 1115401
0.21031106 0.08335793 0.69942683 7028524
0.2249431 0.086335003 0.72440636 8604978
0 0 0 8736051
0 0 0 6305828
0 0 0 1049352
0 0 0 721416
0 0 0 786696
0 0 0 720903
0 0 0 721673
0 0 0 983559
0.50580537 0.15108626 1.2677112 983558
0.57188082 0.16671586 1.3988537 917766
0.58563161 0.16671586 1.3988537 983305
0.5993824 0.16671586 1.3988537 786696
0.61313319 0.16671586 1.3988537 590087
0.86569697 0.23022668 1.9317503 655880
0.68808925 0.1790652 1.5024725 786696
0.70285863 0.1790652 1.5024725 720903
0.717628 0.1790652 1.5024725 589830
0.73239738 0.1790652 1.5024725 917768
0.72048217 0.17267001 1.4488127 852487
0.7347241 0.17267001 1.4488127 852485
0.74896598 0.17267001 1.4488127 1181709
0.76320785 0.17267001 1.4488127 1115915
0.80624425 0.1790652 1.5024725 721157
0.82101363 0.1790652 1.5024725 655364
0.835783 0.1790652 1.5024725 3413779
0.88326591 0.18595232 1.5602599 3874583
0.93454748 0.19339041 1.6226703 4136214
1.0331504 0.21020697 1.763772 3874326
1.0982379 0.21976183 1.8439435 3415062
1.1695241 0.23022668 1.9317503 2165518
1.1885133 0.23022668 1.9317503 2100497
1.2075025 0.23022668 1.9317503 2626583
1.2264916 0.23022668 1.9317503 2232080
1.188868 0.21976183 1.8439435 2363664
1.2069941 0.21976183 1.8439435 2493967
1.2251202 0.21976183 1.8439435 3085588
1.2432462 0.21976183 1.8439435 3348498
1.2613722 0.21976183 1.8439435 3808023
1.3404268 0.23022668 1.9317503 4070938
1.359416 0.23022668 1.9317503 4005145
1.3784052 0.23022668 1.9317503 4267546
1.3338765 0.21976183 1.8439435 4267546
1.3520025 0.21976183 1.8439435 4136473
1.4353727 0.23022668 1.9317503 4070939
1.4543619 0.23022668 1.9317503 2626069
1.5470188 0.24173802 2.028338 2099984
1.5669575 0.24173802 2.028338 1640459
1.5868961 0.24173802 2.028338 1772302
1.6914049 0.25446108 2.1350925 1969681
1.6267734 0.24173802 2.028338 2298388
1.568297 0.23022668 1.9317503 2364438
1.5872862 0.23022668 1.9317503 2561304
1.6062754 0.23022668 1.9317503 2429975
1.551389 0.21976183 1.8439435 2167832
1.5695151 0.21976183 1.8439435 2167833
1.5876411 0.21976183 1.8439435 2035989
1.5359511 0.21020697 1.763772 2758425
1.5532892 0.21020697 1.763772 5451558
1.5706271 0.21020697 1.763772 6108458
1.587965 0.21020697 1.763772 5191725
1.605303 0.21020697 1.763772 6177081
1.622641 0.21020697 1.763772 5913137
1.7145234 0.21976183 1.8439435 5910313
1.6573169 0.21020697 1.763772 5451046
1.6746548 0.21020697 1.763772 1706765
1.6919928 0.21020697 1.763772 983818
1.7870276 0.21976183 1.8439435 786954
1.8051536 0.21976183 1.8439435 852490
1.9101025 0.23022668 1.9317503 1181452
1.9290917 0.23022668 1.9317503 1443339
1.9480809 0.23022668 1.9317503 1049867
2.0654237 0.24173802 2.028338 852489
2.0853624 0.24173802 2.028338 721673
2.1053011 0.24173802 2.028338 852489
2.0240376 0.23022668 1.9317503 852489
2.0430269 0.23022668 1.9317503 852490
2.062016 0.23022668 1.9317503 786954
2.0810053 0.23022668 1.9317503 852489
2.0045402 0.21976183 1.8439435 852489
2.0226662 0.21976183 1.8439435 721417
2.0407922 0.21976183 1.8439435 787466
2.0589182 0.21976183 1.8439435 721159
1.9867381 0.21020697 1.763772 918279
1.9205729 0.20144834 1.6902815 983560
1.9371884 0.20144834 1.6902815 917768
1.953804 0.20144834 1.6902815 721673
1.9704195 0.20144834 1.6902815 1115914
1.987035 0.20144834 1.6902815 3085845
0 0 0 4269088
0 0 0 6504756
0 0 0 6373431
0 0 0 6242361
0 0 0 6768701
16.693827 1.6115867 13.522252 7028264
16.826752 1.6115867 13.522252 6436651
0 0 0 6634283
0 0 0 6700848
0 0 0 6635312
0 0 0 6635569
0 0 0 6701103
0 0 0 10645584
0 0 0 10711122
-2.689748 0.29075187 2.2537088 10776400
-2.8245111 0.30785489 2.3862798 10842449
-2.9761198 0.32709584 2.5354223 10514767
-2.9511964 0.32709584 2.5354223 10711120
-3.344312 0.37382379 2.8976254 10842192
-3.3158283 0.37382379 2.8976254 10776141
-3.2873445 0.37382379 2.8976254 10512198
-3.8020041 0.43612778 3.380563 7619625
-4.1113887 0.47577575 3.687887 5846305
-4.0751367 0.47577575 3.687887 3348749
-4.0388846 0.47577575 3.687887 1049351
-4.0026326 0.47577575 3.687887 1049612
-3.9663804 0.47577575 3.687887 1575438
-3.9301283 0.47577575 3.687887 2954259
-3.8938763 0.47577575 3.687887 2954769
-3.8576241 0.47577575 3.687887 3282963
-3.821372 0.47577575 3.687887 3413779
-3.78512 0.47577575 3.687887 3414036
-3.7488678 0.47577575 3.687887 3349014
-3.7126157 0.47577575 3.687887 3349015
-3.6763637 0.47577575 3.687887 3349017
-3.6401114 0.47577575 3.687887 3151893
-3.6038594 0.47577575 3.687887 3151893
-3.9243684 0.52335334 4.0566759 3085586
-3.884491 0.52335334 4.0566759 3282709
-3.8446138 0.52335334 4.0566759 3479316
-3.8047364 0.52335334 4.0566759 3282963
-3.7648592 0.52335334 4.0566759 2888205
-3.3863468 0.47577575 3.687887 1180676
-3.3500948 0.47577575 3.687887 1049609
-3.3138428 0.47577575 3.687887 918792
-3.2775905 0.47577575 3.687887 983559
-3.2413385 0.47577575 3.687887 983559
-3.2050865 0.47577575 3.687887 786696
-3.485718 0.52335334 4.0566759 786696
-3.4458406 0.52335334 4.0566759 720903
-3.0963302 0.47577575 3.687887 918280
-3.0600781 0.47577575 3.687887 721929
-3.0238259 0.47577575 3.687887 787210
-2.9875739 0.47577575 3.687887 1115402
-2.9513218 0.47577575 3.687887 983816
-2.9150696 0.47577575 3.687887 1115659
-2.8788176 0.47577575 3.687887 1246730
-2.8425655 0.47577575 3.687887 1246730
-3.0869448 0.52335334 4.0566759 1312266
-3.0470676 0.52335334 4.0566759 1180937
-3.3413227 0.58150375 4.5074177 852743
-3.2970145 0.58150375 4.5074177 983815
-3.2527063 0.58150375 4.5074177 1049608
-3.6094477 0.65419167 5.0708447 1707024
-3.5596011 0.65419167 5.0708447 1772047
-3.5097547 0.65419167 5.0708447 1575436
-3.459908 0.65419167 5.0708447 1049350
-3.4100614 0.65419167 5.0708447 720900
-3.3602147 0.65419167 5.0708447 720904
-3.3103681 0.65419167 5.0708447 590086
-3.2605214 0.65419167 5.0708447 589829
-3.2106748 0.65419167 5.0708447 852488
-3.1608281 0.65419167 5.0708447 1509902
-3.1109815 0.65419167 5.0708447 1377288
-3.0611348 0.65419167 5.0708447 984329
-3.0112882 0.65419167 5.0708447 1049098
-2.9614415 0.65419167 5.0708447 852743
-2.9115949 0.65419167 5.0708447 852229
-2.8617485 0.65419167 5.0708447 720903
-2.8119018 0.65419167 5.0708447 721160
-2.7620552 0.65419167 5.0708447 721416
-2.7122085 0.65419167 5.0708447 1377546
-2.6623619 0.65419167 5.0708447 1640460
-2.9857316 0.74764758 5.7952509 2296846
-2.9287641 0.74764758 5.7952509 3348245
-2.5128219 0.65419167 5.0708447 3807254
-2.4629753 0.65419167 5.0708447 3676181
-2.4131286 0.65419167 5.0708447 3347216
-2.363282 0.65419167 5.0708447 4529693
-2.3134353 0.65419167 5.0708447 5188135
0 0 0 4400420
0 0 0 3940381
-0.18416132 0.055675883 0.43156123 3610904
-0.17991905 0.055675883 0.43156123 2955288
-0.17756578 0.056274552 0.43620169 3150868
-0.1732779 0.056274552 0.43620169 3085334
-0.16719225 0.055675883 0.43156123 3020052
-0.16294998 0.055675883 0.43156123 3085075
-0.16041426 0.056274552 0.43620169 3347989
-0.15612638 0.056274552 0.43620169 3215377
-0.1518385 0.056274552 0.43620169 3281169
-0.14915442 0.05688623 0.440943 3478290
-0.14803815 0.05815037 0.45074174 3478035
-0.14522091 0.058803745 0.45580626 3346703
-0.14074031 0.058803745 0.45580626 524294
-0.13625972 0.058803745 0.45580626 590087
-0.13637607 0.060855038 0.47170648 458758
-0.12588409 0.05815037 0.45074174 196616
-0.11753543 0.056274552 0.43620169 327684
-0.11324755 0.056274552 0.43620169 327686
-0.10895967 0.056274552 0.43620169 393221
-0.10697226 0.057511356 0.44578853 393223
0 0 0 524295
0 0 0 590089
0 0 0 655367
0 0 0 393477
0 0 0 393479
0 0 0 327686
-0.10362784 0.078112438 0.605474 524552
-0.096239589 0.076963723 0.59656996 524555
-0.091724165 0.078112438 0.605474 1905177
-0.085772328 0.078112438 0.605474 1838610
-0.079820491 0.078112438 0.605474 2035989
-0.073868655 0.078112438 0.605474 1904658
-0.068945855 0.079295956 0.61464781 590089
-0.061964981 0.078112438 0.605474 655368
-0.054389574 0.075848304 0.587924 327686
-0.048610255 0.075848304 0.587924 327683
-0.042219065 0.074764766 0.57952511 590089
-0.036007911 0.073711738 0.57136279 655366
-0.029969286 0.072687969 0.56342721 655368
-0.02443077 0.072687969 0.56342721 655625
-0.018892257 0.072687969 0.56342721 524296
-0.013934338 0.075848304 0.587924 720903
-0.0086568659 0.080515899 0.62410396 918023
-0.002521896 0.080515899 0.62410396 720903
0.0035583302 0.079295956 0.61464781 720903
0.0094570573 0.078112438 0.605474 917512
0.015408894 0.078112438 0.605474 917766
0.022362014 0.081773959 0.63385558 786696
0 0 0 590087
0 0 0 917766
0 0 0 917766
0 0 0 851975
0 0 0 655366
0 0 0 524296
0.20107524 0.24921587 1.9317503 720903
0 0 0 655882
0 0 0 851975
0 0 0 917512
0 0 0 983304
0 0 0 984076
0 0 0 1904147
0 0 0 4859683
0 0 0 8928817
0 0 0 9583400
0 0 0 10239529
0 0 0 10698536
0.18383382 0.10680681 0.82789302 11158058
0.18089673 0.10064487 0.78012997 11157545
0.15320942 0.081773959 0.63385558 11092263
0.15944025 0.081773959 0.63385558 11158318
0.16567108 0.081773959 0.63385558 10568492
0.21157159 0.10064487 0.78012997 10307121
0 0 0 9847856
0 0 0 9323571
0.21400073 0.091816381 0.71169752 9060397
0.2249431 0.093455948 0.72440636 9718320
0.23206405 0.093455948 0.72440636 9259311
0 0 0 7550246
0 0 0 4663334
0 0 0 3152667
0 0 0 1970455
0 0 0 1510419
0 0 0 1247501
0 0 0 1247500
0 0 0 1510416
0.57188082 0.18046667 1.3988537 1641489
0.58563161 0.18046667 1.3988537 1509902
0.5993824 0.18046667 1.3988537 1641231
0.61313319 0.18046667 1.3988537 1706252
0 0 0 1903633
0.92892057 0.26167667 2.028338 1772815
0.94885921 0.26167667 2.028338 983558
0.96879786 0.26167667 2.028338 1772299
0.7062403 0.1869119 1.4488127 1246729
0.72048217 0.1869119 1.4488127 1838094
0.7347241 0.1869119 1.4488127 1707278
0.7767055 0.19383457 1.5024725 1574924
0.79147488 0.19383457 1.5024725 1246475
0.80624425 0.19383457 1.5024725 524551
0.8525911 0.20128974 1.5602599 721927
0.90264559 0.20934133 1.6226703 4006682
0.91859657 0.20934133 1.6226703 4727579
0.93454748 0.20934133 1.6226703 4793115
0.99010247 0.21806389 1.6902815 4793114
1.0982379 0.23788787 1.8439435 4858908
1.1695241 0.24921587 1.9317503 4334106
1.1885133 0.24921587 1.9317503 4137242
1.2075025 0.24921587 1.9317503 3546651
1.2264916 0.24921587 1.9317503 2362896
1.188868 0.23788787 1.8439435 1443339
1.2069941 0.23788787 1.8439435 1180168
1.2251202 0.23788787 1.8439435 1049865
1.2432462 0.23788787 1.8439435 2362381
1.2613722 0.23788787 1.8439435 3677207
1.3404268 0.24921587 1.9317503 3940634
1.359416 0.24921587 1.9317503 4007197
1.3784052 0.24921587 1.9317503 4136987
1.3338765 0.23788787 1.8439435 4398873
1.4163835 0.24921587 1.9317503 4267288
1.4353727 0.24921587 1.9317503 4071196
1.5270802 0.26167667 2.028338 3282967
1.5470188 0.26167667 2.028338 3020053
1.5669575 0.26167667 2.028338 2297359
1.5868961 0.26167667 2.028338 2363410
1.6068348 0.26167667 2.028338 2297873
1.5493079 0.24921587 1.9317503 2494994
1.568297 0.24921587 1.9317503 2428690
1.5872862 0.24921587 1.9317503 2757137
1.6062754 0.24921587 1.9317503 2822930
1.551389 0.23788787 1.8439435 2757652
1.5695151 0.23788787 1.8439435 2692114
1.5186132 0.22754492 1.763772 2954514
1.4719532 0.21806389 1.6902815 3480085
1.4885688 0.21806389 1.6902815 3809053
1.5706271 0.22754492 1.763772 3939866
1.587965 0.22754492 1.763772 4071451
1.605303 0.22754492 1.763772 4268057
1.5550309 0.21806389 1.6902815 4399130
1.5716465 0.21806389 1.6902815 4200988
1.6573169 0.22754492 1.763772 3085845
1.6746548 0.22754492 1.763772 2297108
1.6919928 0.22754492 1.763772 2429975
1.7093308 0.22754492 1.763772 2429716
1.7266687 0.22754492 1.763772 2561043
1.7440066 0.22754492 1.763772 2560530
1.7613447 0.22754492 1.763772 2757908
1.9480809 0.24921587 1.9317503 2364180
1.9670701 0.24921587 1.9317503 2364438
1.9860593 0.24921587 1.9317503 2364182
2.0050485 0.24921587 1.9317503 2364696
2.0240376 0.24921587 1.9317503 2299418
2.0430269 0.24921587 1.9317503 2167833
2.062016 0.24921587 1.9317503 2167833
2.0810053 0.24921587 1.9317503 2036246
1.9173863 0.22754492 1.763772 1904403
2.0226662 0.23788787 1.8439435 1904660
2.0407922 0.23788787 1.8439435 1641488
2.0589182 0.23788787 1.8439435 1641488
1.9039574 0.21806389 1.6902815 1444109
1.84375 0.20934133 1.6226703 1312524
1.8597009 0.20934133 1.6226703 1246988
1.8756518 0.20934133 1.6226703 1115660
1.8916028 0.20934133 1.6226703 1641487
1.987035 0.21806389 1.6902815 3611417
2.0036507 0.21806389 1.6902815 2823183
0 0 0 5255976
0 0 0 5715754
0 0 0 5715753
0 0 0 5847598
25.040741 2.6167667 20.283379 5781805
0 0 0 5912621
0 0 0 5912875
0 0 0 5781033
0 0 0 5846570
0 0 0 5780778
0 0 0 5781548
0 0 0 10776144
0 0 0 10840909
-2.689748 0.31290594 2.2537088 10841933
-2.8245111 0.33131215 2.3862798 10513481
-2.9761198 0.35201916 2.5354223 10448206
-2.9511964 0.35201916 2.5354223 10777169
-3.1213579 0.37548709 2.7044504 10645585
-3.3158283 0.4023076 2.8976254 10316620
-3.2873445 0.4023076 2.8976254 10184520
-3.8020041 0.46935886 3.380563 7815717
-4.1113887 0.51202786 3.687887 5715235
-4.0751367 0.51202786 3.687887 3282956
-4.0388846 0.51202786 3.687887 984326
-4.0026326 0.51202786 3.687887 1181454
-3.9663804 0.51202786 3.687887 1575693
-3.9301283 0.51202786 3.687887 3085843
-3.8938763 0.51202786 3.687887 3348499
-3.8576241 0.51202786 3.687887 3283476
-3.821372 0.51202786 3.687887 3283218
-3.78512 0.51202786 3.687887 3414550
-3.7488678 0.51202786 3.687887 3479830
-3.7126157 0.51202786 3.687887 3414552
-3.6763637 0.51202786 3.687887 3545365
-3.6401114 0.51202786 3.687887 3676949
-3.6038594 0.51202786 3.687887 3282706
-3.9243684 0.56323069 4.0566759 3151890
-3.884491 0.56323069 4.0566759 3217429
-3.8446138 0.56323069 4.0566759 3282706
-3.8047364 0.56323069 4.0566759 3019280
-3.4225991 0.51202786 3.687887 2098948
-3.3863468 0.51202786 3.687887 918023
-3.3500948 0.51202786 3.687887 786695
-3.3138428 0.51202786 3.687887 787209
-3.2775905 0.51202786 3.687887 721416
-3.2413385 0.51202786 3.687887 786950
-3.2050865 0.51202786 3.687887 1049352
-3.1688342 0.51202786 3.687887 852743
-3.1325822 0.51202786 3.687887 918536
-3.0963302 0.51202786 3.687887 1049351
-3.0600781 0.51202786 3.687887 1049095
-2.7718403 0.46935886 3.380563 984075
-2.7386093 0.46935886 3.380563 1115145
-2.7053783 0.46935886 3.380563 918023
-2.9150696 0.51202786 3.687887 1115145
-2.8788176 0.51202786 3.687887 1115402
-3.1268222 0.56323069 4.0566759 984072
-3.0869448 0.56323069 4.0566759 1049865
-3.0470676 0.56323069 4.0566759 1115914
-3.0071902 0.56323069 4.0566759 656134
-3.2970145 0.62581187 4.5074177 590086
-3.2527063 0.62581187 4.5074177 721673
-3.6094477 0.70403832 5.0708447 1904403
-3.5596011 0.70403832 5.0708447 1904401
-3.5097547 0.70403832 5.0708447 1707022
-3.0754738 0.62581187 4.5074177 1444107
-3.0311658 0.62581187 4.5074177 589830
-3.3602147 0.70403832 5.0708447 655366
-3.3103681 0.70403832 5.0708447 589830
-3.2605214 0.70403832 5.0708447 655625
-3.2106748 0.70403832 5.0708447 655624
-3.1608281 0.70403832 5.0708447 984331
-3.1109815 0.70403832 5.0708447 918280
-3.0611348 0.70403832 5.0708447 720905
-3.0112882 0.70403832 5.0708447 655882
-2.9614415 0.70403832 5.0708447 720903
-2.9115949 0.70403832 5.0708447 655880
-2.8617485 0.70403832 5.0708447 917768
-2.8119018 0.70403832 5.0708447 590343
-2.7620552 0.70403832 5.0708447 787466
-2.7122085 0.70403832 5.0708447 1246729
-2.6623619 0.70403832 5.0708447 1378059
-2.6125152 0.70403832 5.0708447 1837325
-2.5626686 0.70403832 5.0708447 3282710
-2.5128219 0.70403832 5.0708447 2954258
-2.4629753 0.70403832 5.0708447 3019794
-2.4131286 0.70403832 5.0708447 2888465
-1.1121327 0.33131215 2.3862798 4794919
-2.3134353 0.70403832 5.0708447 4859170
0 0 0 4398880
0 0 0 4268319
-0.19450746 0.063284338 0.45580626 3808285
-0.18185367 0.060562436 0.43620169 3151897
-0.17756578 0.060562436 0.43620169 3085847
-0.1732779 0.060562436 0.43620169 3282454
-0.16899002 0.060562436 0.43620169 3151125
-0.16470215 0.060562436 0.43620169 3282456
-0.16041426 0.060562436 0.43620169 3347734
-0.15612638 0.060562436 0.43620169 3478550
-0.15866269 0.063284338 0.45580626 3281170
-0.15418209 0.063284338 0.45580626 3150095
-0.15140265 0.064003482 0.46098587 3412755
-0.15205483 0.066262431 0.47725597 3346704
-0.14233963 0.064003482 0.46098587 720903
-0.13939212 0.064739153 0.46628457 458758
-0.13177912 0.063284338 0.45580626 393220
-0.12588409 0.062581182 0.45074174 524296
-0.11753543 0.060562436 0.43620169 327683
-0.11324755 0.060562436 0.43620169 458758
-0.11014401 0.06122072 0.440943 393223
-0.10697226 0.061893474 0.44578853 524296
0 0 0 459015
0 0 0 721416
0 0 0 459016
0 0 0 458755
0 0 0 327685
0 0 0 393222
-0.10519795 0.085337974 0.61464781 459016
-0.097676001 0.084064275 0.605474 1247249
-0.091724165 0.084064275 0.605474 1904407
-0.085772328 0.084064275 0.605474 1247501
-0.079820491 0.084064275 0.605474 2364182
-0.073868655 0.084064275 0.605474 2037017
-0.068945855 0.085337974 0.61464781 1904403
-0.062903844 0.085337974 0.61464781 1049096
-0.056013145 0.084064275 0.605474 524296
-0.049325112 0.082828037 0.59656996 720904
-0.042830933 0.08162763 0.587924 590089
-0.036522307 0.080461524 0.57952511 590346
-0.030391388 0.079328261 0.57136279 655366
-0.024774866 0.079328261 0.57136279 720902
-0.020302124 0.084064275 0.605474 983562
0 0 0 786697
0 0 0 655366
0 0 0 851975
0 0 0 655366
0 0 0 786696
0 0 0 720905
0 0 0 786696
0 0 0 851977
0 0 0 720905
0 0 0 852489
0 0 0 917512
0 0 0 459016
0 0 0 524294
0 0 0 590089
0 0 0 787468
0 0 0 1772818
0 0 0 4072744
0 0 0 7287854
0 0 0 9647909
0 0 0 10697768
0 0 0 11287845
0 0 0 11419175
0 0 0 11483940
0 0 0 11681319
0 0 0 11682088
0 0 0 11682342
0.18089673 0.10831359 0.78012997 11748396
0.15320942 0.08800479 0.63385558 12207662
0.15944025 0.08800479 0.63385558 11749164
0.16567108 0.08800479 0.63385558 11945514
0.19301267 0.098812394 0.71169752 11946284
0.20000869 0.098812394 0.71169752 11879980
0.21453214 0.10240557 0.73757738 11748907
0.21400073 0.098812394 0.71169752 11683371
0.2249431 0.1005769 0.72440636 11618091
0.22406185 0.097108729 0.69942683 11224361
0 0 0 11421227
0 0 0 11092776
0 0 0 11158313
0 0 0 11093548
0 0 0 11486506
0 0 0 11552301
0 0 0 11355693
0 0 0 11094833
0.57188082 0.19421746 1.3988537 10962992
0.58563161 0.19421746 1.3988537 10897716
0.5993824 0.19421746 1.3988537 10766898
0 0 0 10372914
0 0 0 9650736
0 0 0 7747114
0.70285863 0.20860395 1.5024725 6172198
0.717628 0.20860395 1.5024725 4858652
0.7062403 0.2011538 1.4488127 3216146
0.72048217 0.2011538 1.4488127 2428943
0.7347241 0.2011538 1.4488127 1837838
0.7767055 0.20860395 1.5024725 1246731
0.82191622 0.21662718 1.5602599 786698
0.87074375 0.22529225 1.6226703 851976
0.88669467 0.22529225 1.6226703 1312526
0.90264559 0.22529225 1.6226703 4662555
0.91859657 0.22529225 1.6226703 4662556
0.89860338 0.21662718 1.5602599 4596765
0.91394079 0.21662718 1.5602599 4662814
1.006718 0.23467943 1.6902815 4268311
1.1163639 0.25601393 1.8439435 4267799
1.1344899 0.25601393 1.8439435 4137240
1.2075025 0.26820505 1.9317503 4005398
1.170742 0.25601393 1.8439435 4071191
1.188868 0.25601393 1.8439435 4070425
1.2069941 0.25601393 1.8439435 3676699
1.2251202 0.25601393 1.8439435 4071198
1.2432462 0.25601393 1.8439435 4465695
1.3214376 0.26820505 1.9317503 4926498
1.3404268 0.26820505 1.9317503 5188900
1.2412059 0.24488288 1.763772 5123109
1.3157504 0.25601393 1.8439435 5057315
1.3338765 0.25601393 1.8439435 4531487
1.4163835 0.26820505 1.9317503 4136985
1.4353727 0.26820505 1.9317503 3677723
1.4543619 0.26820505 1.9317503 2889750
1.5470188 0.28161535 2.028338 1903373
1.5669575 0.28161535 2.028338 1050635
1.5868961 0.28161535 2.028338 1575438
1.5303187 0.26820505 1.9317503 3414810
1.5493079 0.26820505 1.9317503 3349269
1.568297 0.26820505 1.9317503 3283476
1.515137 0.25601393 1.8439435 3545878
1.533263 0.25601393 1.8439435 3151636
1.551389 0.25601393 1.8439435 3217430
1.5695151 0.25601393 1.8439435 3020051
1.5186132 0.24488288 1.763772 3282710
1.4719532 0.23467943 1.6902815 3873818
1.4885688 0.23467943 1.6902815 4268316
1.5706271 0.24488288 1.763772 4399903
1.587965 0.24488288 1.763772 4334111
1.605303 0.24488288 1.763772 4399386
1.5550309 0.23467943 1.6902815 4268318
1.5716465 0.23467943 1.6902815 4268318
1.588262 0.23467943 1.6902815 4333341
1.6048776 0.23467943 1.6902815 3217431
1.6919928 0.24488288 1.763772 3151639
1.7093308 0.24488288 1.763772 3151637
1.7266687 0.24488288 1.763772 3151380
1.7440066 0.24488288 1.763772 3020052
1.7613447 0.24488288 1.763772 3085589
1.8595318 0.25601393 1.8439435 2954518
1.9670701 0.26820505 1.9317503 2889239
1.9860593 0.26820505 1.9317503 3020568
1.9139099 0.25601393 1.8439435 3283223
1.932036 0.25601393 1.8439435 3151894
1.8653724 0.24488288 1.763772 3414809
1.8827103 0.24488288 1.763772 3545881
1.9000483 0.24488288 1.763772 3414808
1.9173863 0.24488288 1.763772 3086358
1.9347242 0.24488288 1.763772 3086360
2.0407922 0.25601393 1.8439435 3086616
2.0589182 0.25601393 1.8439435 2955544
1.9867381 0.24488288 1.763772 2955546
1.9205729 0.23467943 1.6902815 2890265
1.8597009 0.22529225 1.6226703 2890778
1.8756518 0.22529225 1.6226703 2955286
1.8916028 0.22529225 1.6226703 3546394
1.987035 0.23467943 1.6902815 4597535
2.0036507 0.23467943 1.6902815 4401955
2.1081038 0.24488288 1.763772 3415064
0 0 0 3086101
0 0 0 3020053
0 0 0 3085588
0 0 0 4269598
0 0 0 6043694
0 0 0 6503471
0 0 0 6437933
0 0 0 6570033
0 0 0 6438706
0 0 0 6504499
0 0 0 10775374
0 0 0 10578510
-2.689748 0.33505997 2.2537088 10776401
-3.0010431 0.37694246 2.5354223 10711376
-2.9761198 0.37694246 2.5354223 10841679
-2.9511964 0.37694246 2.5354223 10579020
-2.9262731 0.37694246 2.5354223 10644558
-3.0947731 0.40207195 2.7044504 10578765
-3.2873445 0.43079138 2.8976254 10184776
-3.8020041 0.50258994 3.380563 7948843
-4.1113887 0.54827994 3.687887 5715233
-4.0751367 0.54827994 3.687887 3611407
-4.0388846 0.54827994 3.687887 1114884
-4.0026326 0.54827994 3.687887 1181197
-3.9663804 0.54827994 3.687887 1510160
-3.6026175 0.50258994 3.380563 3020309
-3.5693865 0.50258994 3.380563 3150866
-3.8576241 0.54827994 3.687887 3413779
-3.821372 0.54827994 3.687887 3282452
-3.78512 0.54827994 3.687887 3282452
-3.7488678 0.54827994 3.687887 3282454
-3.7126157 0.54827994 3.687887 3150866
-3.6763637 0.54827994 3.687887 3282193
-3.6401114 0.54827994 3.687887 3216916
-3.6038594 0.54827994 3.687887 3020051
-3.5676074 0.54827994 3.687887 2954260
-3.5313554 0.54827994 3.687887 2888464
-3.4951031 0.54827994 3.687887 2757137
-3.4588511 0.54827994 3.687887 2493967
-3.4225991 0.54827994 3.687887 1115144
-3.3863468 0.54827994 3.687887 984075
-3.3500948 0.54827994 3.687887 918282
-3.3138428 0.54827994 3.687887 984329
-3.2775905 0.54827994 3.687887 722186
-3.2413385 0.54827994 3.687887 852999
-3.2050865 0.54827994 3.687887 983560
-3.1688342 0.54827994 3.687887 1049096
-3.1325822 0.54827994 3.687887 1180937
-3.0963302 0.54827994 3.687887 983816
-3.0600781 0.54827994 3.687887 590087
-2.7718403 0.50258994 3.380563 852743
-2.7386093 0.50258994 3.380563 1049098
-2.7053783 0.50258994 3.380563 918282
-2.6721473 0.50258994 3.380563 1115146
-2.8788176 0.54827994 3.687887 984075
-3.1268222 0.60310799 4.0566759 1115145
-3.0869448 0.60310799 4.0566759 1049608
-3.0470676 0.60310799 4.0566759 984073
-3.0071902 0.60310799 4.0566759 721157
-3.2970145 0.67011994 4.5074177 655622
-3.2527063 0.67011994 4.5074177 918539
-3.6094477 0.75388491 5.0708447 1904401
-3.1640902 0.67011994 4.5074177 2035473
-3.5097547 0.75388491 5.0708447 1838608
-3.459908 0.75388491 5.0708447 1838608
-3.4100614 0.75388491 5.0708447 2429460
-3.3602147 0.75388491 5.0708447 2232594
-3.3103681 0.75388491 5.0708447 2035731
-3.2605214 0.75388491 5.0708447 1576209
-3.2106748 0.75388491 5.0708447 1115659
-3.1608281 0.75388491 5.0708447 918537
-3.1109815 0.75388491 5.0708447 655880
-3.0611348 0.75388491 5.0708447 918024
-3.0112882 0.75388491 5.0708447 1903888
-2.9614415 0.75388491 5.0708447 1838606
-2.9115949 0.75388491 5.0708447 1115144
-2.8617485 0.75388491 5.0708447 1049352
-3.2136018 0.86158276 5.7952509 1313294
-2.7620552 0.75388491 5.0708447 1378830
-2.7122085 0.75388491 5.0708447 1245701
-2.6623619 0.75388491 5.0708447 1114888
-2.6125152 0.75388491 5.0708447 2034189
-2.5626686 0.75388491 5.0708447 2954261
-2.5128219 0.75388491 5.0708447 3216660
-2.1893115 0.67011994 4.5074177 4004377
-1.2870018 0.40207195 2.7044504 4202267
-1.1121327 0.35476938 2.3862798 5319974
-1.3219631 0.43079138 2.8976254 4728099
0 0 0 4268836
0 0 0 3874591
-0.19450746 0.067764938 0.45580626 3479833
-0.18585044 0.066275597 0.44578853 3282454
-0.18146832 0.066275597 0.44578853 3150868
-0.1732779 0.064850315 0.43620169 3217432
-0.16899002 0.064850315 0.43620169 3085075
-0.16470215 0.064850315 0.43620169 3151386
-0.16041426 0.064850315 0.43620169 3150868
-0.16314329 0.067764938 0.45580626 3150355
-0.15866269 0.067764938 0.45580626 3018769
-0.15772651 0.06932275 0.46628457 3215888
-0.15314291 0.06932275 0.46628457 3478804
-0.15205483 0.070953876 0.47725597 3084048
-0.14736338 0.070953876 0.47725597 655365
-0.14267194 0.070953876 0.47725597 589831
-0.13798049 0.070953876 0.47725597 393220
-0.12588409 0.06701199 0.45074174 262149
-0.11881299 0.065555207 0.440943 524292
-0.11324755 0.064850315 0.43620169 393220
-0.10895967 0.064850315 0.43620169 458757
-0.10697226 0.066275597 0.44578853 393222
0 0 0 459016
0 0 0 786441
0 0 0 786439
0 0 0 393224
0 0 0 524295
0 0 0 393223
-0.10519795 0.091379985 0.61464781 458757
-0.097676001 0.090016112 0.605474 1050899
-0.091724165 0.090016112 0.605474 1772821
-0.085772328 0.090016112 0.605474 1772818
-0.081029885 0.091379985 0.61464781 2429977
-0.073868655 0.090016112 0.605474 2364184
-0.068945855 0.091379985 0.61464781 2232598
-0.061964981 0.090016112 0.605474 1182224
-0.056013145 0.090016112 0.605474 524808
-0.049325112 0.088692345 0.59656996 589830
-0.043460801 0.088692345 0.59656996 655367
-0.037596494 0.088692345 0.59656996 917511
-0.031732183 0.088692345 0.59656996 589832
-0.026253961 0.090016112 0.605474 786441
-0.020926805 0.092785835 0.62410396 851975
0 0 0 851974
0 0 0 851973
0 0 0 917766
0 0 0 852491
0 0 0 655366
0 0 0 786696
0 0 0 720903
0 0 0 524294
0 0 0 720905
0 0 0 786438
0 0 0 720903
0 0 0 1576212
0 0 0 3744550
0 0 0 7485232
0 0 0 10173226
0 0 0 10697507
0 0 0 10893857
0 0 0 11418146
0 0 0 11483941
0 0 0 11091236
0 0 0 11680550
0 0 0 11615527
0 0 0 11747624
0 0 0 11747365
0 0 0 11878951
0 0 0 12075558
0 0 0 11945514
0.18856545 0.1159823 0.78012997 11747881
0.16458349 0.097275473 0.65430254 12142123
0.17101531 0.097275473 0.65430254 11945771
0.19301267 0.10580841 0.71169752 11879720
0.20000869 0.10580841 0.71169752 12011050
0.21453214 0.10965598 0.73757738 11945517
0.21400073 0.10580841 0.71169752 12011307
0.22099675 0.10580841 0.71169752 11945770
0.20960625 0.097275473 0.65430254 11945771
0.21260889 0.095731422 0.64391679 11814187
0 0 0 11683112
0 0 0 11486760
0 0 0 11881004
0 0 0 11946027
0 0 0 11946542
0 0 0 11749421
0 0 0 11553583
0 0 0 11159339
0.58563161 0.20796825 1.3988537 10765867
0.5993824 0.20796825 1.3988537 10766123
0.61313319 0.20796825 1.3988537 10896939
0.62688398 0.20796825 1.3988537 10569003
0 0 0 10568491
0.65438563 0.20796825 1.3988537 10765354
0.69199842 0.21539569 1.4488127 10765099
0.68188721 0.20796825 1.3988537 10502956
0.72048217 0.21539569 1.4488127 10568747
0.76193613 0.22337332 1.5024725 10502701
0.7767055 0.22337332 1.5024725 10502958
0.85479283 0.24124318 1.6226703 10174511
0.87074375 0.24124318 1.6226703 10305842
0.88669467 0.24124318 1.6226703 10436913
0.90264559 0.24124318 1.6226703 10306093
0.91859657 0.24124318 1.6226703 10044208
0.89860338 0.2319646 1.5602599 9125421
0.84865928 0.21539569 1.4488127 7943976
0.89486051 0.22337332 1.5024725 7091239
0.98240024 0.24124318 1.6226703 6237474
1.0851643 0.26222083 1.763772 5581599
1.1526159 0.27413997 1.8439435 4925212
1.170742 0.27413997 1.8439435 4596763
1.2454808 0.28719425 1.9317503 4465437
1.26447 0.28719425 1.9317503 4530459
1.2834592 0.28719425 1.9317503 5188642
1.3024484 0.28719425 1.9317503 5254178
1.2613722 0.27413997 1.8439435 5582370
1.2794983 0.27413997 1.8439435 5780006
1.2412059 0.26222083 1.763772 5385764
1.2585438 0.26222083 1.763772 5385765
1.3973943 0.28719425 1.9317503 5188387
0 0 0 4991008
0 0 0 4794142
0 0 0 4136730
0 0 0 3676951
0 0 0 3545877
1.5868961 0.30155399 2.028338 3611156
1.6068348 0.30155399 2.028338 4070937
1.5493079 0.28719425 1.9317503 4268317
1.568297 0.28719425 1.9317503 3874324
1.515137 0.27413997 1.8439435 3940633
1.533263 0.27413997 1.8439435 3874586
1.551389 0.27413997 1.8439435 4006172
1.5695151 0.27413997 1.8439435 3940379
1.5876411 0.27413997 1.8439435 3940123
1.4719532 0.25129497 1.6902815 4793631
1.4885688 0.25129497 1.6902815 5057316
1.5051843 0.25129497 1.6902815 5122080
1.587965 0.26222083 1.763772 4859422
1.605303 0.26222083 1.763772 4991263
1.622641 0.26222083 1.763772 4925216
1.6399789 0.26222083 1.763772 4794142
1.6573169 0.26222083 1.763772 4597792
1.6048776 0.25129497 1.6902815 3809049
1.6919928 0.26222083 1.763772 3611414
1.6381086 0.25129497 1.6902815 3283476
1.7266687 0.26222083 1.763772 3349015
1.7440066 0.26222083 1.763772 3151636
1.7613447 0.26222083 1.763772 3611674
1.8595318 0.27413997 1.8439435 3479831
1.9670701 0.28719425 1.9317503 3217430
1.8957839 0.27413997 1.8439435 3085845
1.9139099 0.27413997 1.8439435 3217174
1.932036 0.27413997 1.8439435 2954516
2.0430269 0.28719425 1.9317503 3086101
1.9682881 0.27413997 1.8439435 3217172
2.0810053 0.28719425 1.9317503 3217430
2.0045402 0.27413997 1.8439435 3217687
1.9347242 0.26222083 1.763772 3217429
1.9520621 0.26222083 1.763772 3217430
2.0589182 0.27413997 1.8439435 3283222
1.9867381 0.26222083 1.763772 3349015
1.9205729 0.25129497 1.6902815 3545878
1.8597009 0.24124318 1.6226703 3480088
1.953804 0.25129497 1.6902815 3677208
1.8916028 0.24124318 1.6226703 4203549
1.987035 0.25129497 1.6902815 5319970
2.0036507 0.25129497 1.6902815 5385763
2.0202661 0.25129497 1.6902815 5517094
2.1254418 0.26222083 1.763772 5319459
2.7379966 0.33505997 2.2537088 5122594
0 0 0 5452070
0 0 0 5649703
0 0 0 5977380
0 0 0 6306605
0 0 0 6240813
0 0 0 6240813
0 0 0 6175534
0 0 0 6043947
0 0 0 10317135
0 0 0 10382672
-2.689748 0.35721403 2.2537088 10513745
-2.667594 0.35721403 2.2537088 10513999
-2.6454399 0.35721403 2.2537088 10644815
-2.9511964 0.40186578 2.5354223 10382926
-2.7541394 0.37822661 2.3862798 10579535
-2.9013498 0.40186578 2.5354223 10448205
-3.2873445 0.45927516 2.8976254 10184262
-3.5095425 0.49460405 3.1205199 8079660
-4.1113887 0.58453202 3.687887 6108960
-4.0751367 0.58453202 3.687887 3610889
-3.7023108 0.53582102 3.380563 1114883
-3.6690798 0.53582102 3.380563 918282
-3.6358488 0.53582102 3.380563 1379087
-3.6026175 0.53582102 3.380563 2823448
-3.5693865 0.53582102 3.380563 2888465
-3.8576241 0.58453202 3.687887 3085331
-3.821372 0.58453202 3.687887 3085331
-3.78512 0.58453202 3.687887 3020052
-3.7488678 0.58453202 3.687887 3086102
-3.7126157 0.58453202 3.687887 2888464
-4.0440001 0.64298528 4.0566759 2888466
-4.0041227 0.64298528 4.0566759 2757137
-3.3035378 0.53582102 3.380563 2822930
-3.0187449 0.49460405 3.1205199 2756882
-3.2370756 0.53582102 3.380563 2625294
-3.2038445 0.53582102 3.380563 2428687
-3.1706135 0.53582102 3.380563 2428176
-3.1373823 0.53582102 3.380563 1574667
-3.3863468 0.58453202 3.687887 1312523
-3.6851046 0.64298528 4.0566759 1312267
-3.6452272 0.64298528 4.0566759 852743
-3.60535 0.64298528 4.0566759 1246477
-3.5654726 0.64298528 4.0566759 1049352
-3.5255952 0.64298528 4.0566759 918536
-3.485718 0.64298528 4.0566759 852489
-3.1325822 0.58453202 3.687887 852231
-2.8383026 0.53582102 3.380563 720903
-3.0600781 0.58453202 3.687887 720904
-2.7718403 0.53582102 3.380563 589832
-2.7386093 0.53582102 3.380563 786696
-2.7053783 0.53582102 3.380563 983559
-2.6721473 0.53582102 3.380563 721673
-3.1666996 0.64298528 4.0566759 1180684
-3.1268222 0.64298528 4.0566759 984074
-3.0869448 0.64298528 4.0566759 1377547
-3.0470676 0.64298528 4.0566759 1706254
-3.0071902 0.64298528 4.0566759 1575696
-3.709141 0.80373156 5.0708447 1707538
-3.6592944 0.80373156 5.0708447 1049865
-3.6094477 0.80373156 5.0708447 1904404
-3.1640902 0.71442807 4.5074177 1970194
-3.5097547 0.80373156 5.0708447 1904399
-3.459908 0.80373156 5.0708447 1838608
-3.4100614 0.80373156 5.0708447 2364180
-3.3602147 0.80373156 5.0708447 2561044
-3.3103681 0.80373156 5.0708447 2495253
-3.2605214 0.80373156 5.0708447 2101778
-3.2106748 0.80373156 5.0708447 2101263
-3.1608281 0.80373156 5.0708447 1641229
-3.1109815 0.80373156 5.0708447 1509391
-3.0611348 0.80373156 5.0708447 3547167
-3.0112882 0.80373156 5.0708447 2035728
-2.9614415 0.80373156 5.0708447 1706509
-3.3275371 0.91855031 5.7952509 1049352
-3.2705696 0.91855031 5.7952509 1049351
-3.2136018 0.91855031 5.7952509 1049098
-3.1566343 0.91855031 5.7952509 1509388
-3.0996668 0.91855031 5.7952509 1049351
-2.6623619 0.80373156 5.0708447 1049352
-2.6125152 0.80373156 5.0708447 1640459
-2.5626686 0.80373156 5.0708447 2493967
-2.5128219 0.80373156 5.0708447 3151639
-1.5156772 0.49460405 3.1205199 3611417
-1.2870018 0.42865682 2.7044504 4333339
-1.260417 0.42865682 2.7044504 5451047
-1.3219631 0.45927516 2.8976254 4530720
-1.2934793 0.45927516 2.8976254 4136480
-0.20124929 0.073066503 0.46098587 3480347
-0.19450746 0.072245531 0.45580626 3348758
-0.19002686 0.072245531 0.45580626 3282454
-0.18348464 0.071442805 0.45074174 3151640
-0.1770862 0.070657715 0.44578853 3348249
-0.16899002 0.069138199 0.43620169 3150870
-0.16470215 0.069138199 0.43620169 3150870
-0.16393985 0.070657715 0.44578853 3084562
-0.16314329 0.072245531 0.45580626 3084562
-0.15866269 0.072245531 0.45580626 3149583
-0.15772651 0.073906355 0.46628457 3281426
-0.15314291 0.073906355 0.46628457 3347219
-0.14855932 0.073906355 0.46628457 2559246
-0.14736338 0.07564532 0.47725597 589829
-0.14267194 0.07564532 0.47725597 589830
-0.14660427 0.080373161 0.50708449 458756
-0.14161961 0.080373161 0.50708449 393222
-0.11881299 0.069889702 0.440943 393220
-0.1144785 0.069889702 0.440943 262148
-0.11014401 0.069889702 0.440943 327686
-0.14107937 0.093186267 0.587924 589830
0 0 0 524296
0 0 0 524552
0 0 0 327684
0 0 0 327685
0 0 0 393222
-0.11295135 0.098920807 0.62410396 458756
-0.10519795 0.097422004 0.61464781 524295
-0.097676001 0.095967948 0.605474 919053
-0.093113922 0.097422004 0.61464781 1247504
-0.085772328 0.095967948 0.605474 1379603
-0.079820491 0.095967948 0.605474 1379602
-0.073868655 0.095967948 0.605474 1708052
-0.067916818 0.095967948 0.605474 2035990
-0.061964981 0.095967948 0.605474 2167575
-0.056013145 0.095967948 0.605474 917766
-0.050061308 0.095967948 0.605474 524809
-0.044109471 0.095967948 0.605474 524296
-0.038157634 0.095967948 0.605474 720904
-0.032205798 0.095967948 0.605474 720903
-0.026253961 0.095967948 0.605474 590088
-0.020926805 0.098920807 0.62410396 720902
0 0 0 786696
0 0 0 786696
0 0 0 983048
0 0 0 852491
0 0 0 655366
0 0 0 786696
0 0 0 918281
0 0 0 1510419
0 0 0 4729903
0 0 0 7945009
0 0 0 10107435
0 0 0 11615779
0 0 0 11614757
0 0 0 11614755
0 0 0 11943207
0 0 0 12009254
0 0 0 11943461
0 0 0 11878951
0 0 0 11812904
0 0 0 12206117
0 0 0 11943722
0 0 0 12075045
0 0 0 11616295
0 0 0 12075560
0 0 0 12272424
0 0 0 12272424
0 0 0 12141351
0 0 0 12075558
0.16728157 0.10540742 0.66502881 12206631
0.18601665 0.11280444 0.71169752 12010794
0.19301267 0.11280444 0.71169752 12273450
0.20000869 0.11280444 0.71169752 12272938
0.19665445 0.1071642 0.67611259 12536365
0.19674259 0.1037073 0.65430254 12273451
0.2099469 0.1071642 0.67611259 11946285
0.24519975 0.12131797 0.76541048 12077614
0 0 0 12142892
0 0 0 12273709
0 0 0 12077611
0 0 0 12010535
0 0 0 12338984
0 0 0 12077613
0 0 0 12011308
0 0 0 12011053
0 0 0 11749166
0 0 0 11683885
0.5993824 0.22171904 1.3988537 11487277
0.61313319 0.22171904 1.3988537 10962475
0.62688398 0.22171904 1.3988537 11093290
0.64063483 0.22171904 1.3988537 10961706
0.65438563 0.22171904 1.3988537 10961962
0.66813642 0.22171904 1.3988537 11289642
0.68188721 0.22171904 1.3988537 11025959
0.72048217 0.22963758 1.4488127 10961705
0.76193613 0.23814268 1.5024725 10830376
0.7767055 0.23814268 1.5024725 10895915
0.82191622 0.24730203 1.5602599 11093033
0.87074375 0.2571941 1.6226703 11027753
0.88669467 0.2571941 1.6226703 11026472
0.8679285 0.24730203 1.5602599 11157803
0.88326591 0.24730203 1.5602599 10896171
0.89860338 0.24730203 1.5602599 10699306
0.91394079 0.24730203 1.5602599 10305575
0.92927819 0.24730203 1.5602599 10305318
0.9446156 0.24730203 1.5602599 10370857
0.99835116 0.2571941 1.6226703 10305066
1.1526159 0.29226601 1.8439435 10501929
1.2264916 0.30618346 1.9317503 10370341
1.2454808 0.30618346 1.9317503 10370599
1.26447 0.30618346 1.9317503 10107946
1.2834592 0.30618346 1.9317503 10240043
1.3024484 0.30618346 1.9317503 9714988
1.2613722 0.29226601 1.8439435 9191469
1.2794983 0.29226601 1.8439435 8338221
1.2976243 0.29226601 1.8439435 7879728
1.3784052 0.30618346 1.9317503 7028272
1.3338765 0.29226601 1.8439435 6306604
1.4163835 0.30618346 1.9317503 6306091
1.4353727 0.30618346 1.9317503 5845801
0 0 0 5451297
0 0 0 4859674
1.6494288 0.3384133 2.1350925 4596762
1.5868961 0.32149264 2.028338 4794401
1.5303187 0.30618346 1.9317503 4662299
1.5493079 0.30618346 1.9317503 5780520
1.568297 0.30618346 1.9317503 5976867
1.5872862 0.30618346 1.9317503 5911335
1.533263 0.29226601 1.8439435 6174507
1.551389 0.29226601 1.8439435 6174506
1.5695151 0.29226601 1.8439435 6239788
1.5876411 0.29226601 1.8439435 6305321
1.6057671 0.29226601 1.8439435 5977126
1.4885688 0.26791051 1.6902815 6109227
1.5051843 0.26791051 1.6902815 5648422
1.587965 0.27955881 1.763772 5320487
1.605303 0.27955881 1.763772 4991265
1.622641 0.27955881 1.763772 5187101
1.7145234 0.29226601 1.8439435 4793629
1.6573169 0.27955881 1.763772 4925215
1.6048776 0.26791051 1.6902815 4530718
1.6919928 0.27955881 1.763772 4333591
1.7093308 0.27955881 1.763772 4465695
1.7266687 0.27955881 1.763772 4268570
1.7440066 0.27955881 1.763772 4136985
1.8414057 0.29226601 1.8439435 4136987
1.8595318 0.29226601 1.8439435 4005915
1.9670701 0.30618346 1.9317503 4137758
1.8957839 0.29226601 1.8439435 3940123
2.0050485 0.30618346 1.9317503 3874841
2.0240376 0.30618346 1.9317503 3940889
2.0430269 0.30618346 1.9317503 3940635
2.062016 0.30618346 1.9317503 4005402
2.0810053 0.30618346 1.9317503 4333339
2.0999944 0.30618346 1.9317503 4202012
2.1189837 0.30618346 1.9317503 3807511
2.0407922 0.29226601 1.8439435 3743003
2.0589182 0.29226601 1.8439435 3415066
2.0770445 0.29226601 1.8439435 3348758
2.0951705 0.29226601 1.8439435 3282967
1.9371884 0.26791051 1.6902815 3217431
2.0387518 0.27955881 1.763772 3676697
2.0560899 0.27955881 1.763772 4071961
1.987035 0.26791051 1.6902815 5122333
2.0036507 0.26791051 1.6902815 5516578
