# .PCD v0.7 - Point Cloud Data file format
VERSION 0.7
FIELDS x y z rgb
SIZE 4 4 4 4
TYPE F F F U
COUNT 1 1 1 1
WIDTH 1283
HEIGHT 1
VIEWPOINT 0 0 0 1 0 0 0
POINTS 1283
DATA ascii
-3.0238259 0.83829671 3.687887 984075
-2.9875739 0.83829671 3.687887 1115658
-2.9513218 0.83829671 3.687887 1575696
-2.9150696 0.83829671 3.687887 1575695
-2.638916 0.76843864 3.380563 1575438
-2.8425655 0.83829671 3.687887 3153183
-3.0869448 0.92212641 4.0566759 3284507
-3.3856306 1.0245849 4.5074177 3678236
-3.3413227 1.0245849 4.5074177 4072480
-3.709141 1.152658 5.0708447 4335648
-4.1820507 1.3173233 5.7952509 4466718
-4.125083 1.3173233 5.7952509 4467230
-4.0681157 1.3173233 5.7952509 4467487
-3.5097547 1.152658 5.0708447 4533025
-3.459908 1.152658 5.0708447 4861990
-3.4100614 1.152658 5.0708447 5518633
-3.3602147 1.152658 5.0708447 6044202
-3.3103681 1.152658 5.0708447 6503981
-3.2605214 1.152658 5.0708447 6569772
-3.2106748 1.152658 5.0708447 6700846
-3.1608281 1.152658 5.0708447 6766894
-3.1109815 1.152658 5.0708447 6898223
-3.0611348 1.152658 5.0708447 7686454
-3.0112882 1.152658 5.0708447 6964016
-2.9614415 1.152658 5.0708447 7424054
-2.9115949 1.152658 5.0708447 7621428
-2.8617485 1.152658 5.0708447 7424306
-2.8119018 1.152658 5.0708447 7687477
-2.7620552 1.152658 5.0708447 7883572
-2.7122085 1.152658 5.0708447 8146997
-2.6623619 1.152658 5.0708447 8146996
-2.6125152 1.152658 5.0708447 8344377
-2.5626686 1.152658 5.0708447 8476220
-2.5128219 1.152658 5.0708447 8606523
-2.4629753 1.152658 5.0708447 8672828
-2.4131286 1.152658 5.0708447 8870206
-2.363282 1.152658 5.0708447 8870205
-2.3134353 1.152658 5.0708447 9198139
-2.2635887 1.152658 5.0708447 9591869
-2.2137423 1.152658 5.0708447 9591869
-2.1638956 1.152658 5.0708447 9264702
-2.114049 1.152658 5.0708447 9329725
-2.0642023 1.152658 5.0708447 9723711
-2.0143557 1.152658 5.0708447 10118466
-1.7462304 1.0245849 4.5074177 10710346
-1.7019222 1.0245849 4.5074177 10972745
-1.6576141 1.0245849 4.5074177 10840900
-1.6133059 1.0245849 4.5074177 11038537
-1.4120981 0.92212641 4.0566759 11235914
-1.3722208 0.92212641 4.0566759 11236171
-0.42978817 0.29746011 1.3086051 11432521
-0.39165637 0.27943221 1.2292956 11170378
-0.37957233 0.27943221 1.2292956 10842442
-0.36748829 0.27943221 1.2292956 6960670
-0.29320854 0.2305316 1.014169 5384224
-0.28323922 0.2305316 1.014169 5121054
-0.27326989 0.2305316 1.014169 4595998
-0.25687858 0.22490887 0.98943311 4267291
-0.23565696 0.21444799 0.94341296 4857370
-0.22123809 0.20957418 0.92197174 7154980
-0.21217507 0.20957418 0.92197174 10305068
-0.20311205 0.20957418 0.92197174 12076334
-0.20824774 0.22490887 0.98943311 12666668
-0.19852157 0.22490887 0.98943311 12403753
-0.19351529 0.2305316 1.014169 12469287
-0.18354596 0.2305316 1.014169 12664869
-0.16531107 0.21955389 0.96587515 12402468
-0.15581647 0.21955389 0.96587515 12271397
-0.16609511 0.24922334 1.0963988 12009253
-0.15963183 0.25614622 1.1268544 12008738
-0.1485548 0.25614622 1.1268544 12074277
-0.13747779 0.25614622 1.1268544 12008739
-0.12298451 0.24922334 1.0963988 11942947
-0.11220685 0.24922334 1.0963988 11942945
-0.10142921 0.24922334 1.0963988 12271399
-0.088265993 0.24266484 1.0675462 12205862
-0.072081327 0.22490887 0.98943311 12140326
-0.062355161 0.22490887 0.98943311 12205604
-0.052628987 0.22490887 0.98943311 12008740
-0.042902816 0.22490887 0.98943311 12074532
-0.032386724 0.21955389 0.96587515 12008227
-0.023450471 0.22490887 0.98943311 12139041
-0.0137243 0.22490887 0.98943311 12140326
-0.0043137693 0.24266484 1.0675462 11943204
0.006180258 0.24266484 1.0675462 11549219
0.016674286 0.24266484 1.0675462 11549221
0.026471691 0.23644267 1.0401733 11220769
0.038680241 0.24922334 1.0963988 11025445
0.055452786 0.27943221 1.2292956 11090466
0 0 0 11024673
0 0 0 11156261
0 0 0 11155746
0 0 0 11615525
0 0 0 11877668
0 0 0 12074018
0 0 0 12336420
0.35858044 0.65866166 2.8976254 12074531
0.38706425 0.65866166 2.8976254 12140326
0.41554803 0.65866166 2.8976254 12140326
0.4440318 0.65866166 2.8976254 12206119
0.26460874 0.36885056 1.6226703 12336420
0.28055966 0.36885056 1.6226703 12271912
0.28510633 0.354664 1.5602599 12009254
0.30044377 0.354664 1.5602599 11878181
0.28311417 0.3179746 1.3988537 11943461
0.29686496 0.3179746 1.3988537 12271910
0.31061575 0.3179746 1.3988537 12469034
0.32436654 0.3179746 1.3988537 12140326
0.33811733 0.3179746 1.3988537 12075047
0.36443484 0.32933083 1.4488127 12206119
0.39270183 0.3415283 1.5024725 12337704
0.50007826 0.41914836 1.8439435 12205862
0.45601982 0.36885056 1.6226703 12272425
0.45381802 0.354664 1.5602599 12206376
0.43564433 0.32933083 1.4488127 12074793
0.4343729 0.3179746 1.3988537 12207146
0.44812369 0.3179746 1.3988537 12206631
0.46187449 0.3179746 1.3988537 12141351
0.47562528 0.3179746 1.3988537 12403498
0.48937607 0.3179746 1.3988537 12403499
0.50312686 0.3179746 1.3988537 11943719
0.49964839 0.30737546 1.3522252 12207403
0.48088205 0.2881645 1.2677112 12010025
0.52623326 0.30737546 1.3522252 12009769
0.53952569 0.30737546 1.3522252 12075306
0.55281812 0.30737546 1.3522252 11878185
0.56611055 0.30737546 1.3522252 12075305
0.57940298 0.30737546 1.3522252 12009765
0.59269542 0.30737546 1.3522252 11943974
0.60598785 0.30737546 1.3522252 11747367
0.64063483 0.3179746 1.3988537 11682088
0.65438563 0.3179746 1.3988537 11682345
0.69199842 0.32933083 1.4488127 11747622
0.7062403 0.32933083 1.4488127 11550504
0.72048217 0.32933083 1.4488127 11747113
0.7347241 0.32933083 1.4488127 11615527
0.74896598 0.32933083 1.4488127 11550762
0.76320785 0.32933083 1.4488127 11485222
0.77744979 0.32933083 1.4488127 11615525
0.76439196 0.3179746 1.3988537 11616295
0.77814275 0.3179746 1.3988537 11550504
0.79189354 0.3179746 1.3988537 11353382
0.83441734 0.32933083 1.4488127 11091495
1.0801117 0.41914836 1.8439435 11221797
0.89486051 0.3415283 1.5024725 11549734
0.90962988 0.3415283 1.5024725 10959909
0.89138496 0.32933083 1.4488127 11484713
0.97529048 0.354664 1.5602599 11485226
0.91986871 0.32933083 1.4488127 11485226
0.93411064 0.32933083 1.4488127 11156774
0.9834767 0.3415283 1.5024725 11025702
0.99824607 0.3415283 1.5024725 10959653
1.0940567 0.36885056 1.6226703 10762535
1.1100076 0.36885056 1.6226703 10566439
1.1259586 0.36885056 1.6226703 10500646
1.1419095 0.36885056 1.6226703 10435366
1.1578604 0.36885056 1.6226703 10500645
1.1738113 0.36885056 1.6226703 10565925
1.1897622 0.36885056 1.6226703 10566180
1.2057132 0.36885056 1.6226703 10434083
1.174677 0.354664 1.5602599 10631462
1.1900145 0.354664 1.5602599 10500390
1.2053518 0.354664 1.5602599 10631462
1.2206893 0.354664 1.5602599 10434853
1.2854677 0.36885056 1.6226703 10369574
1.2513641 0.354664 1.5602599 10436650
1.3173696 0.36885056 1.6226703 10306092
1.3333205 0.36885056 1.6226703 10240556
1.3492714 0.36885056 1.6226703 10108971
1.3127139 0.354664 1.5602599 10043436
1.6442538 0.43910778 1.9317503 10239532
1.7464054 0.46106321 2.028338 10173995
1.766344 0.46106321 2.028338 10043178
1.7012215 0.43910778 1.9317503 9912107
1.7202107 0.43910778 1.9317503 9912106
1.82616 0.46106321 2.028338 10174765
1.8460985 0.46106321 2.028338 10371372
1.7771782 0.43910778 1.9317503 10109229
1.4507507 0.354664 1.5602599 10240817
1.4660881 0.354664 1.5602599 10109230
1.4814255 0.354664 1.5602599 9715756
1.496763 0.354664 1.5602599 9650222
1.5121003 0.354664 1.5602599 9584427
1.5274378 0.354664 1.5602599 9846828
1.5427752 0.354664 1.5602599 9583399
1.5581126 0.354664 1.5602599 9714728
1.4106793 0.3179746 1.3988537 9452584
2.0654237 0.46106321 2.028338 9387305
1.9860593 0.43910778 1.9317503 9650220
3.5088348 0.76843864 3.380563 9584684
2.2370944 0.48532969 2.1350925 9322030
2.6814728 0.57632899 2.5354223 9519407
3.3309493 0.709328 3.1205199 9650995
5.4626389 1.152658 5.0708447 9453874
0 0 0 8471087
0 0 0 8933178
0 0 0 9064508
9.0592413 1.8442528 8.1133518 7947059
9.1389961 1.8442528 8.1133518 6896943
6.5848212 1.3173233 5.7952509 6700592
5.1658363 1.0245849 4.5074177 7488566
2.2329187 0.43910778 1.9317503 8603445
2.7817688 0.5424273 2.3862798 9585201
0 0 0 9322540
0 0 0 9453099
0 0 0 9518632
0 0 0 9452843
0 0 0 9190187
0 0 0 8928045
10.016296 1.8442528 8.1133518 8797487
0 0 0 8863277
0 0 0 9191215
0 0 0 9387308
0 0 0 9452588
0 0 0 9584430
0 0 0 9387051
0 0 0 10052424
0 0 0 10053194
-1.7931653 0.35629767 1.5024725 9987401
-1.8467958 0.37000144 1.5602599 9856587
-1.8314583 0.37000144 1.5602599 9988686
-1.9674642 0.40083486 1.6902815 9922634
-1.9508487 0.40083486 1.6902815 9922635
-2.1100726 0.4372744 1.8439435 9987913
-2.0919466 0.4372744 1.8439435 9790275
-2.5346696 0.53444654 2.2537088 8343086
-3.230377 0.68714547 2.8976254 6043423
-3.4481928 0.74000287 3.1205199 4860957
-3.7023108 0.80166972 3.380563 2494732
-4.0026326 0.87454879 3.687887 852487
-3.9663804 0.87454879 3.687887 918284
-3.9301283 0.87454879 3.687887 2166547
-3.8938763 0.87454879 3.687887 2297876
-3.8576241 0.87454879 3.687887 2034704
-4.2035093 0.96200371 4.0566759 1574153
-4.1636324 0.96200371 4.0566759 1377287
-4.123755 0.96200371 4.0566759 983559
-4.0838776 0.96200371 4.0566759 918025
-4.0440001 0.96200371 4.0566759 852231
-4.0041227 0.96200371 4.0566759 1114888
-3.9642456 0.96200371 4.0566759 786696
-3.9243684 0.96200371 4.0566759 590087
-3.884491 0.96200371 4.0566759 590087
-3.8446138 0.96200371 4.0566759 720903
-3.8047364 0.96200371 4.0566759 721161
-3.7648592 0.96200371 4.0566759 655369
-3.7249818 0.96200371 4.0566759 786696
-3.6851046 0.96200371 4.0566759 984075
-4.0502524 1.0688931 4.5074177 1903634
-4.0059443 1.0688931 4.5074177 1378317
-3.9616363 1.0688931 4.5074177 1313294
-3.9173281 1.0688931 4.5074177 1641490
-3.8730199 1.0688931 4.5074177 2035988
-3.8287117 1.0688931 4.5074177 2561045
-3.4059634 0.96200371 4.0566759 2496022
-3.366086 0.96200371 4.0566759 1312267
-2.7718403 0.80166972 3.380563 1246477
-2.7386093 0.80166972 3.380563 1313040
-2.7053783 0.80166972 3.380563 2627610
-2.4665976 0.74000287 3.1205199 4664359
-2.4359226 0.74000287 3.1205199 6109231
-2.605685 0.80166972 3.380563 7423284
-3.0869448 0.96200371 4.0566759 7685682
-3.3856306 1.0688931 4.5074177 7685679
-3.3413227 1.0688931 4.5074177 7685679
-3.2970145 1.0688931 4.5074177 7291950
-3.6592944 1.2025046 5.0708447 6307114
-4.125083 1.3742909 5.7952509 5452320
-4.0681157 1.3742909 5.7952509 5518117
-4.011148 1.3742909 5.7952509 6110254
-3.459908 1.2025046 5.0708447 6307376
-3.4100614 1.2025046 5.0708447 6833200
-3.3602147 1.2025046 5.0708447 6898993
-3.3103681 1.2025046 5.0708447 7884086
-3.2605214 1.2025046 5.0708447 7291694
-3.2106748 1.2025046 5.0708447 7358771
-3.1608281 1.2025046 5.0708447 7293236
-3.1109815 1.2025046 5.0708447 7556150
-3.0611348 1.2025046 5.0708447 8146998
-3.0112882 1.2025046 5.0708447 7753013
-2.9614415 1.2025046 5.0708447 7752501
-2.9115949 1.2025046 5.0708447 8081205
-2.8617485 1.2025046 5.0708447 8015412
-2.8119018 1.2025046 5.0708447 8212791
-2.7620552 1.2025046 5.0708447 8343350
-2.7122085 1.2025046 5.0708447 8804412
-2.6623619 1.2025046 5.0708447 9001788
-2.6125152 1.2025046 5.0708447 9329471
-2.5626686 1.2025046 5.0708447 9330240
-2.5128219 1.2025046 5.0708447 9526593
-2.4629753 1.2025046 5.0708447 9723970
-2.4131286 1.2025046 5.0708447 9592897
-2.363282 1.2025046 5.0708447 9724481
-2.3134353 1.2025046 5.0708447 9986624
-2.2635887 1.2025046 5.0708447 9855551
-2.2137423 1.2025046 5.0708447 9920831
-2.1638956 1.2025046 5.0708447 9855551
-2.114049 1.2025046 5.0708447 10182979
-2.0642023 1.2025046 5.0708447 10380867
-1.7905384 1.0688931 4.5074177 10512451
-1.7462304 1.0688931 4.5074177 11038281
-1.7019222 1.0688931 4.5074177 11104328
-1.6576141 1.0688931 4.5074177 11300937
-1.6133059 1.0688931 4.5074177 11497801
-1.5689979 1.0688931 4.5074177 11432264
-1.5246897 1.0688931 4.5074177 10842181
-0.42978817 0.31032377 1.3086051 11498312
-0.39165637 0.29151624 1.2292956 11629382
-0.34794134 0.26722327 1.1268544 11365958
0 0 0 6894115
-0.29320854 0.24050093 1.014169 6436142
-0.28323922 0.24050093 1.014169 6896434
-0.27326989 0.24050093 1.014169 9324344
-0.25687858 0.23463504 0.98943311 11355953
-0.24715243 0.23463504 0.98943311 12404012
-0.22123809 0.2186372 0.92197174 12731692
-0.20746008 0.21377859 0.90148348 12600617
-0.19859844 0.21377859 0.90148348 12535080
-0.19404903 0.2186372 0.92197174 12337444
-0.184986 0.2186372 0.92197174 12140324
-0.18879539 0.23463504 0.98943311 12205604
-0.17906922 0.23463504 0.98943311 12271397
-0.17357664 0.24050093 1.014169 12205604
-0.1636073 0.24050093 1.014169 12402468
-0.16609511 0.260001 1.0963988 12205603
-0.15531746 0.260001 1.0963988 12468003
-0.1445398 0.260001 1.0963988 12074532
-0.13376215 0.260001 1.0963988 12205092
-0.12298451 0.260001 1.0963988 12008740
-0.11220685 0.260001 1.0963988 11943203
-0.10142921 0.260001 1.0963988 11942947
-0.088265993 0.25315887 1.0675462 12073507
-0.075777814 0.24666762 1.0401733 12205346
-0.062355161 0.23463504 0.98943311 11942946
-0.051375914 0.22904849 0.96587515 12204321
-0.042902816 0.23463504 0.98943311 11942947
-0.033176642 0.23463504 0.98943311 12139813
-0.023450471 0.23463504 0.98943311 12140326
-0.0137243 0.23463504 0.98943311 12139813
-0.0039981278 0.23463504 0.98943311 11942947
0.0057280441 0.23463504 0.98943311 11221539
0.015454216 0.23463504 0.98943311 10958882
0.025180388 0.23463504 0.98943311 11418148
0.036696639 0.24666762 1.0401733 11024673
0.055452786 0.29151624 1.2292956 11089953
0 0 0 11090466
0 0 0 11680548
0 0 0 11680548
0 0 0 11877414
0 0 0 11943974
0 0 0 12074531
0 0 0 12139811
0.35858044 0.68714547 2.8976254 11943461
0.38706425 0.68714547 2.8976254 12140326
0.44751328 0.74000287 3.1205199 12009252
0.56513143 0.87454879 3.687887 11943461
0.50886297 0.74000287 3.1205199 11812134
0.28055966 0.38480148 1.6226703 12074533
0.25561255 0.33172539 1.3988537 12009000
0.26936337 0.33172539 1.3988537 12402215
0.24879728 0.29151624 1.2292956 12139811
0.24597383 0.27485821 1.1590502 12205604
0.25736734 0.27485821 1.1590502 12205861
0.31355432 0.32066789 1.3522252 12205861
0.33811733 0.33172539 1.3988537 12337447
0.36443484 0.34357274 1.4488127 12337960
0.44178954 0.40083486 1.6902815 12140839
0.50007826 0.4372744 1.8439435 12337704
0.51820433 0.4372744 1.8439435 12403496
0.43700993 0.35629767 1.5024725 12403238
0.42062211 0.33172539 1.3988537 12271912
0.4343729 0.33172539 1.3988537 12075047
0.44812369 0.33172539 1.3988537 12337190
0.46187449 0.33172539 1.3988537 12140840
0.47562528 0.33172539 1.3988537 12271912
0.48937607 0.33172539 1.3988537 12140840
0.45595872 0.30062616 1.2677112 12141098
0.46842039 0.30062616 1.2677112 12075562
0.46630985 0.29151624 1.2292956 12009767
0.47839388 0.29151624 1.2292956 11943975
0.49047789 0.29151624 1.2292956 11747111
0.50256193 0.29151624 1.2292956 12009513
0.5307287 0.30062616 1.2677112 12206633
0.54319036 0.30062616 1.2677112 12206119
0.55565202 0.30062616 1.2677112 12338219
0.60598785 0.32066789 1.3522252 12009254
0.64063483 0.33172539 1.3988537 12140072
0.65438563 0.33172539 1.3988537 11747111
0.69199842 0.34357274 1.4488127 11747110
0.7062403 0.34357274 1.4488127 11681318
0.72048217 0.34357274 1.4488127 11419431
0.76193613 0.35629767 1.5024725 11419433
0.74896598 0.34357274 1.4488127 11485226
0.79147488 0.35629767 1.5024725 11616295
0.80624425 0.35629767 1.5024725 11353123
0.82101363 0.35629767 1.5024725 11681318
0.80593354 0.34357274 1.4488127 11221795
0.82017547 0.34357274 1.4488127 11484711
0.93454748 0.38480148 1.6226703 11287845
1.1315457 0.45809698 1.9317503 11485224
1.0982379 0.4372744 1.8439435 11221539
0.87714303 0.34357274 1.4488127 11091238
0.89138496 0.34357274 1.4488127 11025445
0.90562683 0.34357274 1.4488127 11025189
0.91986871 0.34357274 1.4488127 10960167
0.93411064 0.34357274 1.4488127 10697511
0.9834767 0.35629767 1.5024725 10762533
0.99824607 0.35629767 1.5024725 10501159
1.0940567 0.38480148 1.6226703 10828580
1.1100076 0.38480148 1.6226703 10762533
1.1259586 0.38480148 1.6226703 10894632
1.1419095 0.38480148 1.6226703 10894375
1.1578604 0.38480148 1.6226703 10762788
1.1738113 0.38480148 1.6226703 10763046
1.1897622 0.38480148 1.6226703 10697253
1.2057132 0.38480148 1.6226703 10697254
1.2216641 0.38480148 1.6226703 10763048
1.1900145 0.37000144 1.5602599 10632233
1.2053518 0.37000144 1.5602599 10499877
1.2695168 0.38480148 1.6226703 10566183
1.2854677 0.38480148 1.6226703 10435110
1.3014187 0.38480148 1.6226703 10567208
1.37226 0.40083486 1.6902815 10371370
1.515137 0.4372744 1.8439435 10634029
1.6062754 0.45809698 1.9317503 10766130
1.6252646 0.45809698 1.9317503 10503215
1.6442538 0.45809698 1.9317503 10371629
1.6632431 0.45809698 1.9317503 10502445
1.6822323 0.45809698 1.9317503 10240302
1.7012215 0.45809698 1.9317503 10240302
1.7202107 0.45809698 1.9317503 10043436
1.7391998 0.45809698 1.9317503 10240815
1.8460985 0.48100185 2.028338 9847086
1.7771782 0.45809698 1.9317503 9583659
1.7961674 0.45809698 1.9317503 9452332
1.6573169 0.41826245 1.763772 9518634
1.7507756 0.4372744 1.8439435 9518634
1.7689016 0.4372744 1.8439435 9781034
1.5725844 0.38480148 1.6226703 9846827
1.5274378 0.37000144 1.5602599 9912878
1.3831778 0.33172539 1.3988537 9649964
1.3969285 0.33172539 1.3988537 9584428
1.9480809 0.45809698 1.9317503 9650220
2.4299102 0.56588453 2.3862798 9453612
0 0 0 9716526
0 0 0 9716013
0 0 0 9584172
3.9003241 0.87454879 3.687887 9584428
3.3309493 0.74000287 3.1205199 9387051
5.4626389 1.2025046 5.0708447 9518123
5.5124855 1.2025046 5.0708447 9125163
5.5623322 1.2025046 5.0708447 8734513
7.4829049 1.6033394 6.761126 8802875
9.0592413 1.9240074 8.1133518 8738111
9.1389961 1.9240074 8.1133518 8015418
6.5848212 1.3742909 5.7952509 7029299
5.1658363 1.0688931 4.5074177 6831152
5.210144 1.0688931 4.5074177 7816754
0 0 0 9060911
0 0 0 9584684
0 0 0 9453614
0 0 0 9387308
0 0 0 9650480
0 0 0 9650224
9.9365416 1.9240074 8.1133518 9584432
10.016296 1.9240074 8.1133518 9453616
0 0 0 9322543
0 0 0 9256750
0 0 0 9454129
0 0 0 9454129
0 0 0 9453872
0 0 0 9387052
0 0 0 9987403
0 0 0 9658954
-1.7291236 0.35781464 1.4488127 10052939
-1.8467958 0.38533884 1.5602599 9725516
-1.8314583 0.38533884 1.5602599 10118989
-1.8161209 0.38533884 1.5602599 9988173
-1.8728148 0.4007524 1.6226703 9988173
-1.8568639 0.4007524 1.6226703 9725000
-2.0919466 0.45540044 1.8439435 9659203
-2.4012659 0.52730578 2.1350925 8213042
-3.0150185 0.66792065 2.7044504 6175008
-3.4481928 0.77067769 3.1205199 5584163
-3.7023108 0.8349008 3.380563 2427395
-3.6690798 0.8349008 3.380563 786696
-3.9663804 0.91080087 3.687887 655628
-3.9301283 0.91080087 3.687887 655880
-3.8938763 0.91080087 3.687887 786696
-3.8576241 0.91080087 3.687887 786697
-4.2035093 1.001881 4.0566759 786696
-4.1636324 1.001881 4.0566759 590089
-4.123755 1.001881 4.0566759 852491
-4.0838776 1.001881 4.0566759 786696
-4.0440001 1.001881 4.0566759 786696
-4.0041227 1.001881 4.0566759 721417
-3.9642456 1.001881 4.0566759 918023
-3.9243684 1.001881 4.0566759 1181193
-3.884491 1.001881 4.0566759 1378316
-3.8446138 1.001881 4.0566759 1772817
-3.8047364 1.001881 4.0566759 2035989
-3.7648592 1.001881 4.0566759 2364697
-3.7249818 1.001881 4.0566759 2561304
-3.6851046 1.001881 4.0566759 2758681
-3.6452272 1.001881 4.0566759 3021082
-4.0059443 1.1132011 4.5074177 3612187
-3.9616363 1.1132011 4.5074177 3480858
-3.9173281 1.1132011 4.5074177 3810595
-3.8730199 1.1132011 4.5074177 4796717
-3.8287117 1.1132011 4.5074177 5518123
-3.7844038 1.1132011 4.5074177 5584174
-3.366086 1.001881 4.0566759 6174249
-2.7718403 0.8349008 3.380563 6896426
-2.5279472 0.77067769 3.1205199 6831145
-2.3188956 0.71562928 2.8976254 7028524
-2.2904119 0.71562928 2.8976254 6896938
-2.2619281 0.71562928 2.8976254 7159851
-2.4052479 0.77067769 3.1205199 7488558
-3.4299388 1.1132011 4.5074177 7553836
-3.3856306 1.1132011 4.5074177 7554606
-3.3413227 1.1132011 4.5074177 7422766
-3.2970145 1.1132011 4.5074177 7093546
-4.1820507 1.4312586 5.7952509 6895911
-4.125083 1.4312586 5.7952509 6765867
-4.0681157 1.4312586 5.7952509 6504236
-4.6796727 1.6698016 6.761126 6503979
-4.6132107 1.6698016 6.761126 6372395
-3.4100614 1.2523513 5.0708447 6504237
-3.3602147 1.2523513 5.0708447 7226672
-2.9425495 1.1132011 4.5074177 7686963
-2.8982413 1.1132011 4.5074177 7490099
-2.8539333 1.1132011 4.5074177 7752756
-2.8096251 1.1132011 4.5074177 7818806
-3.1109815 1.2523513 5.0708447 7884341
-3.0611348 1.2523513 5.0708447 8541242
-3.0112882 1.2523513 5.0708447 8409654
-2.9614415 1.2523513 5.0708447 8409654
-2.9115949 1.2523513 5.0708447 8475449
-2.8617485 1.2523513 5.0708447 8541240
-2.8119018 1.2523513 5.0708447 8869435
-2.7620552 1.2523513 5.0708447 9132092
-2.7122085 1.2523513 5.0708447 9461054
-2.6623619 1.2523513 5.0708447 9263931
-2.6125152 1.2523513 5.0708447 9658690
-2.5626686 1.2523513 5.0708447 9986370
-2.5128219 1.2523513 5.0708447 10052677
-2.4629753 1.2523513 5.0708447 10183233
-2.4131286 1.2523513 5.0708447 9986626
-2.363282 1.2523513 5.0708447 10184002
-2.3134353 1.2523513 5.0708447 10380610
-2.2635887 1.2523513 5.0708447 10577732
-2.2137423 1.2523513 5.0708447 10445632
-2.1638956 1.2523513 5.0708447 10380351
-2.114049 1.2523513 5.0708447 10380610
-1.8348465 1.1132011 4.5074177 10577987
-1.7905384 1.1132011 4.5074177 11103559
-1.7462304 1.1132011 4.5074177 11038538
-1.7019222 1.1132011 4.5074177 11104328
-1.6576141 1.1132011 4.5074177 11301191
-1.6133059 1.1132011 4.5074177 11432265
-1.5689979 1.1132011 4.5074177 11892302
-1.7152759 1.2523513 5.0708447 11891019
-1.3323435 1.001881 4.0566759 11887937
-0.39165637 0.30360028 1.2292956 12078895
-0.32962862 0.26365289 1.0675462 12667695
-0.31913459 0.26365289 1.0675462 12207916
-0.30864057 0.26365289 1.0675462 12404011
-0.28323922 0.25047025 1.014169 12404010
-0.27326989 0.25047025 1.014169 12404523
-0.26330057 0.25047025 1.014169 12403496
-0.24715243 0.24436122 0.98943311 12403239
-0.23742625 0.24436122 0.98943311 12599592
-0.22227864 0.23854309 0.96587515 12469289
-0.19428109 0.21780021 0.88188601 12469032
-0.18973683 0.22264022 0.90148348 12730918
-0.184986 0.22770022 0.92197174 12731432
-0.18430026 0.23854309 0.96587515 12599844
-0.17906922 0.24436122 0.98943311 12599592
-0.16934305 0.24436122 0.98943311 12271910
-0.1636073 0.25047025 1.014169 12205605
-0.15363798 0.25047025 1.014169 12139811
-0.14366865 0.25047025 1.014169 12139811
-0.13369933 0.25047025 1.014169 12139812
-0.12373 0.25047025 1.014169 12205348
-0.11376067 0.25047025 1.014169 12337187
-0.10379135 0.25047025 1.014169 12074274
-0.093822017 0.25047025 1.014169 12008997
-0.08600276 0.25689256 1.0401733 12008483
-0.075777814 0.25689256 1.0401733 12139813
-0.062355161 0.24436122 0.98943311 12336677
-0.052628987 0.24436122 0.98943311 12008740
-0.042902816 0.24436122 0.98943311 12008226
-0.033176642 0.24436122 0.98943311 12008740
-0.022892127 0.23854309 0.96587515 12074531
-0.013397531 0.23854309 0.96587515 12139811
-0.003902934 0.23854309 0.96587515 11680035
0.0055916621 0.23854309 0.96587515 11811875
0.015086258 0.23854309 0.96587515 11221539
0.024580855 0.23854309 0.96587515 11222052
0.034906559 0.24436122 0.98943311 11221539
0.04574855 0.25047025 1.014169 11222052
0 0 0 11418918
0 0 0 11353125
0 0 0 11811621
0 0 0 11811875
0 0 0 12074531
0 0 0 11811875
0 0 0 12074533
0.38616356 0.77067769 3.1205199 12205606
0.41683844 0.77067769 3.1205199 12402213
0.52887928 0.91080087 3.687887 12206117
0.56513143 0.91080087 3.687887 12139813
0.50886297 0.77067769 3.1205199 12271397
0.24186178 0.34547618 1.3988537 11943461
0.21802248 0.29467088 1.1931399 12337190
0.22975111 0.29467088 1.1931399 12075047
0.23458031 0.28625172 1.1590502 12403496
0.23267794 0.27077866 1.0963988 12206117
0.24345559 0.27077866 1.0963988 12140581
0.25423324 0.27077866 1.0963988 12271397
0.33811733 0.34547618 1.3988537 12271397
0.37793246 0.37106705 1.5024725 12140581
0.44178954 0.4174504 1.6902815 12403754
0.52389151 0.47708619 1.9317503 12271910
0.51820433 0.45540044 1.8439435 12402983
0.51301163 0.43560043 1.763772 12337444
0.42062211 0.34547618 1.3988537 12337190
0.4343729 0.34547618 1.3988537 12206633
0.46412811 0.35781464 1.4488127 12206631
0.46187449 0.34547618 1.3988537 12207144
0.4597711 0.33396032 1.3522252 12337960
0.47306353 0.33396032 1.3522252 12140839
0.45595872 0.31308782 1.2677112 12008999
0.46842039 0.31308782 1.2677112 12074534
0.46630985 0.30360028 1.2292956 12205859
0.47839388 0.30360028 1.2292956 11747363
0.47605211 0.29467088 1.1931399 11878438
0.48778072 0.29467088 1.1931399 12075046
0.49950933 0.29467088 1.1931399 11878181
0.49663118 0.28625172 1.1590502 12206119
0.50802469 0.28625172 1.1590502 11813160
0.55089808 0.30360028 1.2292956 11943719
0.64063483 0.34547618 1.3988537 11878182
0.65438563 0.34547618 1.3988537 11812134
0.66813642 0.34547618 1.3988537 11549990
0.7062403 0.35781464 1.4488127 12008486
0.74716675 0.37106705 1.5024725 11747111
0.76193613 0.37106705 1.5024725 11746854
0.74896598 0.35781464 1.4488127 11943720
0.76320785 0.35781464 1.4488127 11681574
0.75064117 0.34547618 1.3988537 11419172
0.76439196 0.34547618 1.3988537 11287588
0.80593354 0.35781464 1.4488127 11681061
0.82017547 0.35781464 1.4488127 11353638
0.83441734 0.35781464 1.4488127 11222052
0.88009113 0.37106705 1.5024725 11353382
0.89486051 0.37106705 1.5024725 11091238
0.87714303 0.35781464 1.4488127 11025447
0.89138496 0.35781464 1.4488127 10959909
0.93916857 0.37106705 1.5024725 10959652
0.95393795 0.37106705 1.5024725 11090468
0.96870732 0.37106705 1.5024725 11156518
0.9834767 0.37106705 1.5024725 10959652
0.99824607 0.37106705 1.5024725 11024932
1.0940567 0.4007524 1.6226703 10894373
1.1100076 0.4007524 1.6226703 10828066
1.1259586 0.4007524 1.6226703 10893862
1.1419095 0.4007524 1.6226703 10696742
1.1578604 0.4007524 1.6226703 10762276
1.1738113 0.4007524 1.6226703 10828326
1.1897622 0.4007524 1.6226703 10697253
1.2057132 0.4007524 1.6226703 10303266
1.2216641 0.4007524 1.6226703 10433825
1.1900145 0.38533884 1.5602599 10303267
1.2535659 0.4007524 1.6226703 10369317
1.2695168 0.4007524 1.6226703 10040356
1.2854677 0.4007524 1.6226703 10303782
1.4145855 0.43560043 1.763772 10895660
1.4970108 0.45540044 1.8439435 10765099
1.5872862 0.47708619 1.9317503 10699823
1.6865894 0.5009405 2.028338 10437168
1.7065281 0.5009405 2.028338 10240302
1.7264667 0.5009405 2.028338 10239531
1.7464054 0.5009405 2.028338 10239019
1.766344 0.5009405 2.028338 10174509
1.7012215 0.47708619 1.9317503 10107946
1.7202107 0.47708619 1.9317503 10174507
1.7391998 0.47708619 1.9317503 10043436
1.758189 0.47708619 1.9317503 10108972
1.7771782 0.47708619 1.9317503 9913135
1.8859758 0.5009405 2.028338 10110001
2.0062258 0.52730578 2.1350925 10109231
1.8341458 0.47708619 1.9317503 10043180
1.7689016 0.45540044 1.8439435 9846571
1.3104869 0.33396032 1.3522252 9846316
1.3237793 0.33396032 1.3522252 9650220
1.3370718 0.33396032 1.3522252 9781291
1.3969285 0.34547618 1.3988537 9387049
1.4106793 0.34547618 1.3988537 9452330
2.0654237 0.5009405 2.028338 9649195
2.0853624 0.5009405 2.028338 9715500
0 0 0 9650220
0 0 0 9518890
0 0 0 9781804
5.4127922 1.2523513 5.0708447 9847597
5.4626389 1.2523513 5.0708447 9716526
5.5124855 1.2523513 5.0708447 9519665
4.0453324 0.91080087 3.687887 9388847
4.0815845 0.91080087 3.687887 8931634
9.0592413 2.003762 8.1133518 8277557
0 0 0 8541242
0 0 0 8410431
5.1658363 1.1132011 4.5074177 7095609
5.210144 1.1132011 4.5074177 6568495
0 0 0 7159342
0 0 0 8995632
0 0 0 9519407
0 0 0 9584430
0 0 0 9518894
0 0 0 9453614
9.9365416 2.003762 8.1133518 9649966
10.016296 2.003762 8.1133518 9912622
12.620064 2.5047026 10.141689 9583916
0 0 0 9190441
0 0 0 9190441
0 0 0 9255465
0 0 0 9452844
0 0 0 9714989
0 0 0 9659209
0 0 0 9790795
-1.561789 0.33605108 1.3086051 9790794
-1.7148817 0.37205651 1.4488127 9659208
-1.7636266 0.38583642 1.5024725 9659210
-1.8161209 0.40067628 1.5602599 9330761
-1.8007835 0.40067628 1.5602599 9725517
-1.8568639 0.41670331 1.6226703 9790791
-2.0919466 0.47352648 1.8439435 9790275
-2.4012659 0.54829383 2.1350925 8278322
-2.5125155 0.57875466 2.2537088 6635302
-3.4481928 0.80135256 3.1205199 4860698
-3.7023108 0.86813188 3.380563 1836801
-3.6690798 0.86813188 3.380563 983301
-3.9663804 0.94705296 3.687887 852489
-3.9301283 0.94705296 3.687887 655880
-3.8938763 0.94705296 3.687887 918282
-3.8576241 0.94705296 3.687887 1049868
-4.2035093 1.0417583 4.0566759 1379603
-4.1636324 1.0417583 4.0566759 1904916
-4.123755 1.0417583 4.0566759 2364439
-3.7126157 0.94705296 3.687887 2627608
-3.6763637 0.94705296 3.687887 3021079
-3.6401114 0.94705296 3.687887 3021079
-3.6038594 0.94705296 3.687887 3021592
-3.5676074 0.94705296 3.687887 3152663
-3.5313554 0.94705296 3.687887 2955542
-3.4951031 0.94705296 3.687887 3086871
-3.4588511 0.94705296 3.687887 3217940
-3.1373823 0.86813188 3.380563 3809559
-3.1041512 0.86813188 3.380563 5058341
-3.6851046 1.0417583 4.0566759 6175793
-3.6452272 1.0417583 4.0566759 6636344
-3.60535 1.0417583 4.0566759 7226933
-3.5654726 1.0417583 4.0566759 7225647
-3.5255952 1.0417583 4.0566759 7094059
-3.8730199 1.1575093 4.5074177 6897195
-3.8287117 1.1575093 4.5074177 6765354
-3.7844038 1.1575093 4.5074177 7159083
-3.7400956 1.1575093 4.5074177 6896940
-2.0788803 0.65109891 2.5354223 6568489
-1.933136 0.61279899 2.3862798 6436906
-1.9096788 0.61279899 2.3862798 6830897
-2.1377177 0.69450551 2.7044504 6567725
-2.1111329 0.69450551 2.7044504 6173226
-2.084548 0.69450551 2.7044504 5580829
-3.0869448 1.0417583 4.0566759 4595481
-3.0470676 1.0417583 4.0566759 3940636
-3.3413227 1.1575093 4.5074177 4269344
-3.2970145 1.1575093 4.5074177 2296849
-3.6592944 1.3021978 5.0708447 2233115
0 0 0 4336941
0 0 0 6633768
-14.039019 5.2087913 20.283379 6437929
-4.6132107 1.7362638 6.761126 6438187
-3.0311658 1.1575093 4.5074177 6701102
-2.2401431 0.86813188 3.380563 6767150
-2.206912 0.86813188 3.380563 6964273
-2.1736808 0.86813188 3.380563 7686451
-2.8539333 1.1575093 4.5074177 8212277
-2.8096251 1.1575093 4.5074177 8278070
-2.765317 1.1575093 4.5074177 8343862
-2.721009 1.1575093 4.5074177 8672572
-2.6767008 1.1575093 4.5074177 8607033
-2.6323926 1.1575093 4.5074177 8738621
-2.9115949 1.3021978 5.0708447 8804412
-2.8617485 1.3021978 5.0708447 9067069
-2.8119018 1.3021978 5.0708447 9461057
-2.7620552 1.3021978 5.0708447 9592640
-2.7122085 1.3021978 5.0708447 9855555
-2.6623619 1.3021978 5.0708447 10315329
-2.6125152 1.3021978 5.0708447 10841159
-2.5626686 1.3021978 5.0708447 9987137
-2.5128219 1.3021978 5.0708447 10644295
-2.4629753 1.3021978 5.0708447 10644804
-2.4131286 1.3021978 5.0708447 10642755
-2.1006951 1.1575093 4.5074177 10643780
-2.3134353 1.3021978 5.0708447 10644038
-2.2635887 1.3021978 5.0708447 10774598
-2.2137423 1.3021978 5.0708447 10643524
-2.1638956 1.3021978 5.0708447 10577730
-1.8791547 1.1575093 4.5074177 10774339
-1.8348465 1.1575093 4.5074177 10775620
-1.7905384 1.1575093 4.5074177 11037768
-1.7462304 1.1575093 4.5074177 11431497
-1.5317299 1.0417583 4.0566759 11103558
-1.4918526 1.0417583 4.0566759 11493437
-1.6133059 1.1575093 4.5074177 11686962
-1.7651225 1.3021978 5.0708447 12012589
0 0 0 12273708
0 0 0 12469802
-1.2924662 1.0417583 4.0566759 12535336
-0.32962862 0.27414691 1.0675462 12731432
-0.31095168 0.26711753 1.0401733 12666409
-0.29320854 0.26043957 1.014169 12469289
-0.28323922 0.26043957 1.014169 12534312
-0.27326989 0.26043957 1.014169 12730921
-0.26330057 0.26043957 1.014169 12796971
-0.24715243 0.25408739 0.98943311 12271397
-0.23742625 0.25408739 0.98943311 12402470
-0.22770008 0.25408739 0.98943311 12074789
-0.21278405 0.24803768 0.96587515 12074790
-0.18973683 0.23150183 0.90148348 12271397
-0.1808752 0.23150183 0.90148348 11877669
-0.17592297 0.23676324 0.92197174 12206117
-0.17480567 0.24803768 0.96587515 12140324
-0.16934305 0.25408739 0.98943311 12271397
-0.15961687 0.25408739 0.98943311 12074533
-0.15363798 0.26043957 1.014169 12664872
-0.14366865 0.26043957 1.014169 11943461
-0.13369933 0.26043957 1.014169 11812388
-0.12373 0.26043957 1.014169 11746341
-0.11376067 0.26043957 1.014169 11680035
-0.10125985 0.25408739 0.98943311 12008484
-0.091533676 0.25408739 0.98943311 11942690
-0.081807502 0.25408739 0.98943311 12270114
-0.072081327 0.25408739 0.98943311 12139555
-0.062355161 0.25408739 0.98943311 12204834
-0.052628987 0.25408739 0.98943311 11877411
-0.042902816 0.25408739 0.98943311 11942950
-0.033176642 0.25408739 0.98943311 11811361
-0.022892127 0.24803768 0.96587515 12074020
-0.013397531 0.24803768 0.96587515 11811621
-0.003902934 0.24803768 0.96587515 11548703
0.0055916621 0.24803768 0.96587515 11548449
0.015086258 0.24803768 0.96587515 11418148
0.024580855 0.24803768 0.96587515 11220771
0.03407545 0.24803768 0.96587515 11155748
0.043570045 0.24803768 0.96587515 11287332
0 0 0 11548962
0 0 0 11483941
0 0 0 11746595
0 0 0 11877666
0 0 0 12139811
0 0 0 11483943
0 0 0 11156261
0.45637512 0.94705296 3.687887 11287845
0.38706425 0.74411303 2.8976254 12008740
0.41554803 0.74411303 2.8976254 12139811
0.56513143 0.94705296 3.687887 12139813
0.50886297 0.80135256 3.1205199 12074531
0.21254519 0.31568432 1.2292956 12402467
0.20591013 0.28937733 1.1268544 12206117
0.21698716 0.28937733 1.1268544 12205861
0.22190028 0.28155628 1.0963988 12205606
0.23267794 0.28155628 1.0963988 12140326
0.24345559 0.28155628 1.0963988 12009253
0.25423324 0.28155628 1.0963988 12074790
0.36316308 0.38583642 1.5024725 12271655
0 0 0 12140326
0.44178954 0.43406594 1.6902815 12206119
0.50007826 0.47352648 1.8439435 12205861
0.49567369 0.45293838 1.763772 12337448
0.51301163 0.45293838 1.763772 12075047
0.43564433 0.37205651 1.4488127 12271912
0.4498862 0.37205651 1.4488127 12075045
0.46412811 0.37205651 1.4488127 12206119
0.46187449 0.359227 1.3988537 12206374
0.4597711 0.34725276 1.3522252 12337702
0.47306353 0.34725276 1.3522252 11943718
0.47066709 0.33605108 1.3086051 12009509
0.45422581 0.31568432 1.2292956 12009254
0.42745072 0.28937733 1.1268544 12009513
0.43852776 0.28937733 1.1268544 11943720
0.44960478 0.28937733 1.1268544 11878182
0.47384414 0.29764524 1.1590502 11878951
0.49950933 0.30639949 1.1931399 12075047
0.49663118 0.29764524 1.1590502 12271654
0.50802469 0.29764524 1.1590502 12009510
0.51941818 0.29764524 1.1590502 11943461
0.56298208 0.31568432 1.2292956 11681062
0.63257271 0.34725276 1.3522252 11418659
0.66813642 0.359227 1.3988537 11550245
0.7062403 0.37205651 1.4488127 11877414
0.74716675 0.38583642 1.5024725 11418918
0.822891 0.41670331 1.6226703 11616552
0.74896598 0.37205651 1.4488127 11550247
0.76320785 0.37205651 1.4488127 11222052
0.75064117 0.359227 1.3988537 11287590
0.8525911 0.40067628 1.5602599 11156259
0.90264559 0.41670331 1.6226703 11418663
0.88326591 0.40067628 1.5602599 11091752
0.93454748 0.41670331 1.6226703 11419175
0.84865928 0.37205651 1.4488127 11287332
0.86290115 0.37205651 1.4488127 11352355
0.87714303 0.37205651 1.4488127 11352870
1.1344899 0.47352648 1.8439435 11090468
0.93916857 0.38583642 1.5024725 10958883
0.95393795 0.38583642 1.5024725 10630947
0.96870732 0.38583642 1.5024725 10893862
1.0213027 0.40067628 1.5602599 10499874
1.0781058 0.41670331 1.6226703 10631717
1.0940567 0.41670331 1.6226703 10762531
1.1100076 0.41670331 1.6226703 10762533
1.1259586 0.41670331 1.6226703 10696741
1.1419095 0.41670331 1.6226703 10696742
1.1578604 0.41670331 1.6226703 10828326
1.1738113 0.41670331 1.6226703 10959398
1.1897622 0.41670331 1.6226703 10893604
1.2057132 0.41670331 1.6226703 10894118
1.2216641 0.41670331 1.6226703 10565411
1.237615 0.41670331 1.6226703 10303780
1.2535659 0.41670331 1.6226703 10303269
1.2695168 0.41670331 1.6226703 10303782
1.3390288 0.43406594 1.6902815 10434085
1.3556443 0.43406594 1.6902815 10698280
1.4970108 0.47352648 1.8439435 10371368
1.5872862 0.49607536 1.9317503 10239786
1.6865894 0.52087915 2.028338 10502445
1.7065281 0.52087915 2.028338 10502704
1.6442538 0.49607536 1.9317503 10503728
1.6632431 0.49607536 1.9317503 10372397
1.766344 0.52087915 2.028338 9911848
1.7012215 0.49607536 1.9317503 10109483
1.7202107 0.49607536 1.9317503 10174509
1.7391998 0.49607536 1.9317503 10043436
1.758189 0.49607536 1.9317503 10043436
1.7771782 0.49607536 1.9317503 10173996
1.8859758 0.52087915 2.028338 9780009
1.9059145 0.52087915 2.028338 9649193
1.9258533 0.52087915 2.028338 9582887
1.3419253 0.359227 1.3988537 9648678
1.3104869 0.34725276 1.3522252 9321512
1.3237793 0.34725276 1.3522252 9584173
1.3370718 0.34725276 1.3522252 10108718
1.3503642 0.34725276 1.3522252 9714986
1.4106793 0.359227 1.3988537 9846572
1.4753026 0.37205651 1.4488127 9911852
2.0853624 0.52087915 2.028338 9583657
0 0 0 9650220
0 0 0 9781036
0 0 0 9583914
8.6604681 2.0835166 8.1133518 9584683
5.4626389 1.3021978 5.0708447 9452839
4.8999872 1.1575093 4.5074177 9650220
4.0453324 0.94705296 3.687887 9256235
2.9931619 0.69450551 2.7044504 9256750
3.0197468 0.69450551 2.7044504 8209457
3.8079147 0.86813188 3.380563 7751988
3.8411458 0.86813188 3.380563 8278846
3.5763481 0.80135256 3.1205199 8016447
3.1260862 0.69450551 2.7044504 6765874
0 0 0 6437677
0 0 0 7028270
0 0 0 8340530
0 0 0 9389618
0 0 0 9586224
0 0 0 9717040
9.9365416 2.0835166 8.1133518 9717040
10.016296 2.0835166 8.1133518 9518380
16.826752 3.4725275 13.522252 9846830
0 0 0 9781294
0 0 0 9649966
0 0 0 10043436
0 0 0 9518635
0 0 0 9583659
0 0 0 9659208
0 0 0 9527621
-1.6138487 0.36054519 1.3522252 6633763
-1.6557479 0.37297779 1.3988537 5648677
-1.7636266 0.4006058 1.5024725 7032894
-1.8161209 0.41601372 1.5602599 6244409
-1.8007835 0.41601372 1.5602599 5059633
-1.8568639 0.43265423 1.6226703 7687224
-2.0009923 0.47027633 1.763772 9659204
-2.2812026 0.5408178 2.028338 8476216
-2.5125155 0.6009087 2.2537088 6964267
-3.4481928 0.83202744 3.1205199 4137492
-3.7023108 0.90136296 3.380563 3086612
-3.6690798 0.90136296 3.380563 2889238
-3.6358488 0.90136296 3.380563 2692119
-3.6026175 0.90136296 3.380563 2955546
-3.5693865 0.90136296 3.380563 3152666
-3.5361555 0.90136296 3.380563 3283737
-3.821372 0.9833051 3.687887 3218456
-3.78512 0.9833051 3.687887 3415833
-3.4364622 0.90136296 3.380563 3940636
-3.1414442 0.83202744 3.1205199 3744029
-3.1107693 0.83202744 3.1205199 4467234
-3.3367689 0.90136296 3.380563 5124133
-3.3035378 0.90136296 3.380563 6109484
-3.2703068 0.90136296 3.380563 7029040
-3.2370756 0.90136296 3.380563 7225905
-2.9573951 0.83202744 3.1205199 7291442
-2.9267204 0.83202744 3.1205199 7422255
-2.6891849 0.77259684 2.8976254 7093805
-2.8653705 0.83202744 3.1205199 7225133
-3.0709202 0.90136296 3.380563 7554095
-3.6452272 1.0816356 4.0566759 7554093
-3.60535 1.0816356 4.0566759 7290921
-3.5654726 1.0816356 4.0566759 7093542
-3.5255952 1.0816356 4.0566759 6239523
-3.485718 1.0816356 4.0566759 4860702
-3.8287117 1.2018174 4.5074177 3481623
-3.7844038 1.2018174 4.5074177 2496790
-1.1220286 0.36054519 1.3522252 2233617
-1.1087362 0.36054519 1.3522252 2233365
-1.3145325 0.43265423 1.6226703 2232848
-1.5459304 0.51506454 1.9317503 2232851
-1.5269413 0.51506454 1.9317503 2167315
-0.83334196 0.28464094 1.0675462 2167059
-0.8228479 0.28464094 1.0675462 2429975
-0.81235391 0.28464094 1.0675462 4204578
-0.80185986 0.28464094 1.0675462 5980207
-0.77107441 0.27734247 1.0401733 5779237
-0.74182826 0.2704089 1.014169 2167572
-0.73185891 0.2704089 1.014169 2561561
0 0 0 4008999
0 0 0 6961706
0 0 0 6831147
0 0 0 6767407
0 0 0 7096372
-2.2401431 0.90136296 3.380563 7687222
-2.206912 0.90136296 3.380563 8212794
-2.1736808 0.90136296 3.380563 8344636
-2.8539333 1.2018174 4.5074177 8474934
-2.8096251 1.2018174 4.5074177 8737850
-2.765317 1.2018174 4.5074177 8803899
-2.721009 1.2018174 4.5074177 8936255
-2.6767008 1.2018174 4.5074177 9132350
-2.6323926 1.2018174 4.5074177 9198397
-2.5880845 1.2018174 4.5074177 9198139
-2.5437765 1.2018174 4.5074177 9264445
-2.8119018 1.3520445 5.0708447 9396288
-2.7620552 1.3520445 5.0708447 9855298
-2.7122085 1.3520445 5.0708447 10249542
-2.6623619 1.3520445 5.0708447 10577730
-2.6125152 1.3520445 5.0708447 10775109
-2.5626686 1.3520445 5.0708447 10841159
-2.5128219 1.3520445 5.0708447 10841931
-2.4629753 1.3520445 5.0708447 10447173
-2.1450033 1.2018174 4.5074177 10776136
-2.1006951 1.2018174 4.5074177 10710343
-2.0563872 1.2018174 4.5074177 10710343
-2.012079 1.2018174 4.5074177 11103301
-2.2137423 1.3520445 5.0708447 11365446
-1.9234627 1.2018174 4.5074177 11168581
-1.8791547 1.2018174 4.5074177 11101250
-1.8348465 1.2018174 4.5074177 11425076
-1.7905384 1.2018174 4.5074177 11947052
-1.7462304 1.2018174 4.5074177 12011305
-1.5317299 1.0816356 4.0566759 12338730
-1.4918526 1.0816356 4.0566759 12666155
-1.4519753 1.0816356 4.0566759 12600362
-1.7651225 1.3520445 5.0708447 12469546
0 0 0 12469287
0 0 0 12403494
-1.2924662 1.0816356 4.0566759 12272682
-0.62629443 0.5408178 2.028338 12206631
-0.31095168 0.27734247 1.0401733 12468776
-0.29320854 0.2704089 1.014169 12402983
-0.28323922 0.2704089 1.014169 12403494
-0.27326989 0.2704089 1.014169 12468775
-0.25687858 0.26381356 0.98943311 12206119
-0.24715243 0.26381356 0.98943311 12468006
-0.23742625 0.26381356 0.98943311 12271910
-0.22770008 0.26381356 0.98943311 12337190
-0.2179739 0.26381356 0.98943311 12206376
-0.20824774 0.26381356 0.98943311 12140582
-0.1808752 0.24036346 0.90148348 12336677
-0.17201358 0.24036346 0.90148348 11811877
-0.16685995 0.24582627 0.92197174 11548962
-0.16531107 0.25753227 0.96587515 11812131
-0.15961687 0.26381356 0.98943311 12008992
-0.14989071 0.26381356 0.98943311 12009254
-0.14366865 0.2704089 1.014169 12271397
-0.13369933 0.2704089 1.014169 12074531
-0.12373 0.2704089 1.014169 12204834
-0.11098602 0.26381356 0.98943311 12008738
-0.10125985 0.26381356 0.98943311 11942694
-0.091533676 0.26381356 0.98943311 11942948
-0.081807502 0.26381356 0.98943311 11745828
-0.072081327 0.26381356 0.98943311 11614497
-0.062355161 0.26381356 0.98943311 11811361
-0.052628987 0.26381356 0.98943311 11614496
-0.042902816 0.26381356 0.98943311 11876641
-0.031633545 0.25154316 0.94341296 12008738
-0.022359751 0.25154316 0.94341296 12074531
-0.013397531 0.25753227 0.96587515 12074533
-0.003902934 0.25753227 0.96587515 11811107
0.0054616234 0.25154316 0.94341296 11287332
0.014735416 0.25154316 0.94341296 11352353
0.024580855 0.25753227 0.96587515 11418146
0.03407545 0.25753227 0.96587515 11155746
0.043570045 0.25753227 0.96587515 11156259
0 0 0 11483939
0 0 0 11287330
0 0 0 11484193
0 0 0 11680802
0 0 0 12074533
0 0 0 11942947
0 0 0 11942947
0.35858044 0.77259684 2.8976254 12074020
0.38706425 0.77259684 2.8976254 11877666
0.41554803 0.77259684 2.8976254 12009000
0.51803714 0.90136296 3.380563 12205606
0.50886297 0.83202744 3.1205199 12140326
0.21254519 0.32776836 1.2292956 11942950
0.20591013 0.30045435 1.1268544 11812388
0.21698716 0.30045435 1.1268544 11943204
0.22190028 0.29233393 1.0963988 12008995
0.23267794 0.29233393 1.0963988 12075046
0.24345559 0.29233393 1.0963988 12074789
0.34839371 0.4006058 1.5024725 12075045
0 0 0 12008997
0 0 0 12205604
0 0 0 12074533
0.52389151 0.51506454 1.9317503 12075047
0.51820433 0.49165255 1.8439435 12140840
0.56186992 0.51506454 1.9317503 12206119
0.53034961 0.47027633 1.763772 11747365
0.52486724 0.45068148 1.6902815 12074793
0.59070849 0.49165255 1.8439435 12075303
0.60883456 0.49165255 1.8439435 12337190
0.47562528 0.37297779 1.3988537 12205606
0.48937607 0.37297779 1.3988537 12075045
0.50312686 0.37297779 1.3988537 12206117
0.45422581 0.32776836 1.2292956 12205604
0.42745072 0.30045435 1.1268544 12139811
0.43852776 0.30045435 1.1268544 12008999
0.44960478 0.30045435 1.1268544 11943463
0.46068183 0.30045435 1.1268544 12469543
0.47175884 0.30045435 1.1268544 12009511
0.48283589 0.30045435 1.1268544 11680803
0.49391291 0.30045435 1.1268544 11681830
0.50498992 0.30045435 1.1268544 11943720
0.53081173 0.30903876 1.1590502 11812388
0.63257271 0.36054519 1.3522252 11746855
0.66813642 0.37297779 1.3988537 11877929
0.73239738 0.4006058 1.5024725 11747113
0.74716675 0.4006058 1.5024725 11812649
0.76193613 0.4006058 1.5024725 11877927
0.74896598 0.38629842 1.4488127 11681061
0.76320785 0.38629842 1.4488127 11418146
0.77744979 0.38629842 1.4488127 11353127
0.82101363 0.4006058 1.5024725 11353127
0.80593354 0.38629842 1.4488127 11549735
0.85055238 0.4006058 1.5024725 11288617
0.93454748 0.43265423 1.6226703 11221539
0.9504984 0.43265423 1.6226703 11156004
1.0982379 0.49165255 1.8439435 11156003
1.1163639 0.49165255 1.8439435 11024675
0 0 0 10958882
1.6905034 0.72109038 2.7044504 11221541
1.430907 0.6009087 2.2537088 11221800
1.0059654 0.41601372 1.5602599 10828069
1.0621549 0.43265423 1.6226703 10696483
1.0781058 0.43265423 1.6226703 10630947
1.0940567 0.43265423 1.6226703 10696740
1.1100076 0.43265423 1.6226703 10565667
1.1259586 0.43265423 1.6226703 10828836
1.1419095 0.43265423 1.6226703 10631460
1.1578604 0.43265423 1.6226703 10632230
1.1738113 0.43265423 1.6226703 10369573
1.1897622 0.43265423 1.6226703 10369060
1.2057132 0.43265423 1.6226703 10499876
1.2216641 0.43265423 1.6226703 10434082
1.237615 0.43265423 1.6226703 10631462
1.2535659 0.43265423 1.6226703 10893607
1.2695168 0.43265423 1.6226703 10565411
1.3390288 0.45068148 1.6902815 10368290
1.3556443 0.45068148 1.6902815 10566952
1.568297 0.51506454 1.9317503 10371372
1.5872862 0.51506454 1.9317503 10502444
1.6062754 0.51506454 1.9317503 10370859
1.6252646 0.51506454 1.9317503 10239532
1.6442538 0.51506454 1.9317503 10173739
1.6632431 0.51506454 1.9317503 9977386
1.6822323 0.51506454 1.9317503 9846057
1.7012215 0.51506454 1.9317503 9781034
1.7202107 0.51506454 1.9317503 10109483
1.7391998 0.51506454 1.9317503 10239532
1.758189 0.51506454 1.9317503 10305837
1.7771782 0.51506454 1.9317503 10043178
1.7961674 0.51506454 1.9317503 10042925
1.8151566 0.51506454 1.9317503 9977644
1.8341458 0.51506454 1.9317503 9781295
1.3419253 0.37297779 1.3988537 9912622
1.3556761 0.37297779 1.3988537 9846060
1.3694268 0.37297779 1.3988537 9714986
1.3831778 0.37297779 1.3988537 9911337
1.4468188 0.38629842 1.4488127 9517610
1.4610606 0.38629842 1.4488127 9517610
1.4753026 0.38629842 1.4488127 9386794
1.4895445 0.38629842 1.4488127 9255465
1.5037863 0.38629842 1.4488127 9386538
0 0 0 9584430
0 0 0 9584430
0 0 0 9650223
5.4626389 1.3520445 5.0708447 9782063
4.4099889 1.0816356 4.0566759 9847599
4.0453324 0.9833051 3.687887 9716527
3.7414525 0.90136296 3.380563 9585199
3.7746835 0.90136296 3.380563 9192238
3.8079147 0.90136296 3.380563 7750959
3.8411458 0.90136296 3.380563 7686454
3.5763481 0.83202744 3.1205199 8080699
1.6169412 0.37297779 1.3988537 7884349
0 0 0 6371371
0 0 0 6502957
0 0 0 7028012
0 0 0 7946800
0 0 0 9257520
0 0 0 9781552
0 0 0 9847599
12.52037 2.7040889 10.141689 9716014
16.826752 3.6054518 13.522252 9584685
0 0 0 9518891
0 0 0 9913392
0 0 0 9782063
0 0 0 9847856
0 0 0 9781806
0 0 0 7686966
0 0 0 3545619
-1.6138487 0.37383762 1.3522252 8479057
-1.6557479 0.38672858 1.3988537 9003594
-1.7006398 0.40054032 1.4488127 9527876
-1.8161209 0.43135113 1.5602599 9528134
-1.8728148 0.44860515 1.6226703 8542273
-1.8568639 0.44860515 1.6226703 6499617
-2.1915629 0.53405374 1.9317503 6702907
-2.4012659 0.59026992 2.1350925 8935219
-3.230377 0.80108064 2.8976254 6898214
-3.7355418 0.93459404 3.380563 3941145
-3.4175179 0.86270225 3.1205199 3414807
-3.386843 0.86270225 3.1205199 3283735
-3.3561683 0.86270225 3.1205199 3415063
-3.3254933 0.86270225 3.1205199 3744026
-3.2948184 0.86270225 3.1205199 4467747
-3.2641437 0.86270225 3.1205199 5322284
-3.2334688 0.86270225 3.1205199 5847856
-3.2027938 0.86270225 3.1205199 5714984
-3.1721191 0.86270225 3.1205199 6043689
-3.1414442 0.86270225 3.1205199 6436904
-3.1107693 0.86270225 3.1205199 6962732
-3.0800946 0.86270225 3.1205199 7028011
-3.0494196 0.86270225 3.1205199 6962473
-1.7838037 0.50977856 1.8439435 6831403
-1.7656777 0.50977856 1.8439435 6502956
-1.7475516 0.50977856 1.8439435 6110258
-1.7294255 0.50977856 1.8439435 5322028
-1.4480227 0.43135113 1.5602599 4072222
-1.2844764 0.38672858 1.3988537 3217683
-1.2707256 0.38672858 1.3988537 2560009
-2.4301512 0.74767524 2.7044504 2297869
-2.7733459 0.86270225 3.1205199 2101521
-2.7426713 0.86270225 3.1205199 1904402
-1.6788548 0.53405374 1.9317503 2101010
-1.2019717 0.38672858 1.3988537 2035987
-1.0441941 0.33985236 1.2292956 2364695
-1.03211 0.33985236 1.2292956 3153437
-0.99002528 0.32985672 1.1931399 2298903
-0.97829664 0.32985672 1.1931399 1969425
-0.96656799 0.32985672 1.1931399 2957341
-0.85433 0.29513496 1.0675462 3418917
