# .PCD v0.7 - Point Cloud Data file format
VERSION 0.7
FIELDS x y z rgb
SIZE 4 4 4 4
TYPE F F F U
COUNT 1 1 1 1
WIDTH 1300
HEIGHT 1
VIEWPOINT 0 0 0 1 0 0 0
POINTS 1300
DATA ascii
-0.011483598 0.21260373 0.82789302 12204836
-0.0033453722 0.21260373 0.82789302 12140326
0.0048927041 0.21703297 0.84514076 11351583
0.013200476 0.21703297 0.84514076 11417378
0.025180388 0.25408739 0.98943311 11221539
0.035779227 0.26043957 1.014169 11745830
0.048156369 0.27414691 1.0675462 11484713
0 0 0 11745828
0 0 0 11942695
0 0 0 12467236
0 0 0 12074531
0 0 0 12140324
0 0 0 12468776
0 0 0 12664869
0 0 0 12337190
0 0 0 12795940
0 0 0 12664356
0.69071621 1.1575093 4.5074177 12796455
0.66152191 1.0417583 4.0566759 12861733
0.70139921 1.0417583 4.0566759 12336672
0.57021266 0.80135256 3.1205199 12730147
0.37197798 0.49607536 1.9317503 12599334
0.63156235 0.80135256 3.1205199 12796969
1.2298691 1.4882261 5.7952509 12599591
1.2868366 1.4882261 5.7952509 12598822
1.5677716 1.7362638 6.761126 12534055
1.0894892 1.1575093 4.5074177 12861735
0.78493661 0.80135256 3.1205199 12665127
0.5049023 0.49607536 1.9317503 12599847
0.50007826 0.47352648 1.8439435 12599850
0.49567369 0.45293838 1.763772 12731689
0.53633034 0.47352648 1.8439435 12599846
0.58085907 0.49607536 1.9317503 12861735
0.57258248 0.47352648 1.8439435 12992807
0.61883748 0.49607536 1.9317503 12665639
0.60883456 0.47352648 1.8439435 12862762
0.65681589 0.49607536 1.9317503 12928297
0.64508665 0.47352648 1.8439435 12665899
0.69479424 0.49607536 1.9317503 12469032
0.62456053 0.43406594 1.6902815 12403756
0.53062844 0.359227 1.3988537 12666155
0.54437923 0.359227 1.3988537 12665641
0.53952569 0.34725276 1.3522252 12862246
0.51826704 0.32554945 1.2677112 12731178
0.5307287 0.32554945 1.2677112 12797225
0.54319036 0.32554945 1.2677112 12534571
0.61313319 0.359227 1.3988537 12600361
0.60598785 0.34725276 1.3522252 12665383
0.61928028 0.34725276 1.3522252 12271912
0.63257271 0.34725276 1.3522252 12600105
0.66813642 0.359227 1.3988537 12206633
0.68188721 0.359227 1.3988537 12141351
0.77590394 0.40067628 1.5602599 12271912
0.97963214 0.49607536 1.9317503 12404011
0.99862134 0.49607536 1.9317503 12469289
1.0176105 0.49607536 1.9317503 12599848
0.9464606 0.45293838 1.763772 12599847
1.0076076 0.47352648 1.8439435 12206119
0.9811365 0.45293838 1.763772 12074791
1.0438597 0.47352648 1.8439435 12206379
0.9734869 0.43406594 1.6902815 11878181
0.99010247 0.43406594 1.6902815 12075050
1.006718 0.43406594 1.6902815 11812646
1.0233335 0.43406594 1.6902815 11616040
1.0399491 0.43406594 1.6902815 11616297
1.0565646 0.43406594 1.6902815 11680805
1.0731802 0.43406594 1.6902815 11812906
1.2454808 0.49607536 1.9317503 11812647
1.1545161 0.45293838 1.763772 11877927
1.2251202 0.47352648 1.8439435 11484713
1.2432462 0.47352648 1.8439435 11483942
1.2613722 0.47352648 1.8439435 11353125
1.2238679 0.45293838 1.763772 11681320
1.1419095 0.41670331 1.6226703 11353638
1.1578604 0.41670331 1.6226703 11222053
1.1738113 0.41670331 1.6226703 11550504
1.2393357 0.43406594 1.6902815 11353126
1.4353727 0.49607536 1.9317503 11222311
1.4543619 0.49607536 1.9317503 11025193
1.3452337 0.45293838 1.763772 10763048
1.3625716 0.45293838 1.763772 10631204
1.3799095 0.45293838 1.763772 10828327
1.5303187 0.49607536 1.9317503 10565410
1.5493079 0.49607536 1.9317503 10894118
1.4319234 0.45293838 1.763772 10959397
1.3888755 0.43406594 1.6902815 10499876
1.3492714 0.41670331 1.6226703 10958630
1.3652223 0.41670331 1.6226703 10893607
1.4387221 0.43406594 1.6902815 10696740
1.4553376 0.43406594 1.6902815 10763046
1.4130751 0.41670331 1.6226703 10499362
1.429026 0.41670331 1.6226703 10369061
1.4449769 0.41670331 1.6226703 10041380
1.6601453 0.47352648 1.8439435 9844515
0 0 0 10238504
0 0 0 10697257
0 0 0 10500391
0 0 0 10106658
1.7507756 0.47352648 1.8439435 10502957
1.7689016 0.47352648 1.8439435 10633777
1.7870276 0.47352648 1.8439435 10436398
1.6547242 0.43406594 1.6902815 10372401
1.5427752 0.40067628 1.5602599 10109229
1.5581126 0.40067628 1.5602599 10108972
1.5734501 0.40067628 1.5602599 10043436
1.5299435 0.38583642 1.5024725 10043177
1.4895445 0.37205651 1.4488127 10239789
1.6194624 0.40067628 1.5602599 9650220
1.6347997 0.40067628 1.5602599 9781035
1.589021 0.38583642 1.5024725 9846827
1.6037904 0.38583642 1.5024725 9846828
1.6185597 0.38583642 1.5024725 9847084
1.6961495 0.40067628 1.5602599 9912874
1.5892377 0.37205651 1.4488127 10109999
1.6034796 0.37205651 1.4488127 10044206
1.4611679 0.33605108 1.3086051 10175794
1.4740316 0.33605108 1.3086051 9979187
1.4868952 0.33605108 1.3086051 9846060
1.6031904 0.359227 1.3988537 9583914
1.6169412 0.359227 1.3988537 9386794
0 0 0 9518121
0 0 0 9386536
0 0 0 9452330
0 0 0 9649195
0 0 0 10108717
4.4803576 0.94705296 3.687887 9781549
4.5166097 0.94705296 3.687887 9847086
5.0081482 1.0417583 4.0566759 9650477
0 0 0 9912879
0 0 0 9716270
0 0 0 9454126
0 0 0 8995375
0 0 0 9062710
0 0 0 9130042
0 0 0 918282
0 0 0 786953
0 0 0 787210
0 0 0 721673
0 0 0 918282
-15.739714 3.6054518 13.522252 852489
-23.410185 5.4081779 20.283379 721673
0 0 0 852489
0 0 0 984075
0 0 0 918542
0 0 0 984593
0 0 0 1312531
0 0 0 3876658
0 0 0 7953753
-21.815092 5.4081779 20.283379 9135180
-4.8034906 1.2018174 4.5074177 9724488
-3.0594742 0.77259684 2.8976254 8607294
-2.8289242 0.72109038 2.7044504 8016445
-2.8023393 0.72109038 2.7044504 6046252
-2.7757545 0.72109038 2.7044504 7493450
-2.7491696 0.72109038 2.7044504 9794387
-2.9170551 0.77259684 2.8976254 6373661
-3.1107693 0.83202744 3.1205199 4334355
-3.6401114 0.9833051 3.687887 3940889
-3.6038594 0.9833051 3.687887 4597278
-3.5676074 0.9833051 3.687887 5386020
-3.5313554 0.9833051 3.687887 5846569
-3.4951031 0.9833051 3.687887 6372913
-3.4588511 0.9833051 3.687887 6766899
-3.4225991 0.9833051 3.687887 6502695
-4.1388688 1.2018174 4.5074177 6633512
-4.0945606 1.2018174 4.5074177 6830889
-3.0376892 0.90136296 3.380563 7488302
-2.5752497 0.77259684 2.8976254 7159851
-2.2284203 0.67602223 2.5354223 6830631
-1.6025432 0.49165255 1.8439435 6502437
-1.5844171 0.49165255 1.8439435 5518115
-1.5662911 0.49165255 1.8439435 4073501
-1.6218872 0.51506454 1.9317503 2694165
-1.5300391 0.49165255 1.8439435 2298894
-1.5839088 0.51506454 1.9317503 2758674
-1.6431657 0.5408178 2.028338 5253410
-3.2464542 1.0816356 4.0566759 3411465
0 0 0 2295051
0 0 0 1442568
-2.605685 0.90136296 3.380563 1575438
-0.75291336 0.26381356 0.98943311 2167832
-0.74318719 0.26381356 0.98943311 3083534
-0.97006136 0.34891471 1.3086051 1507846
-0.95719773 0.34891471 1.3086051 1311753
-0.71400869 0.26381356 0.98943311 1180681
-0.70428252 0.26381356 0.98943311 1574669
-0.8375532 0.31812811 1.1931399 2164750
-1.3370494 0.51506454 1.9317503 3151385
-1.5377369 0.6009087 2.2537088 4267548
-1.6047347 0.63625622 2.3862798 4332312
-1.7921144 0.72109038 2.7044504 4726297
-2.206912 0.90136296 3.380563 5580576
-2.8982413 1.2018174 4.5074177 6172453
-2.8539333 1.2018174 4.5074177 6369058
-3.1608281 1.3520445 5.0708447 6105887
0 0 0 5580315
-3.0611348 1.3520445 5.0708447 5185562
-2.1900277 0.9833051 3.687887 5120282
-1.1281682 0.51506454 1.9317503 5251611
-1.109179 0.51506454 1.9317503 5448733
-1.2718883 0.6009087 2.2537088 4527894
-1.2497342 0.6009087 2.2537088 4398359
-1.2997906 0.63625622 2.3862798 4134932
-1.4465111 0.72109038 2.7044504 3740691
-1.7749078 0.90136296 3.380563 3609361
-1.7416768 0.90136296 3.380563 3346962
-1.7084457 0.90136296 3.380563 2821390
-0.91375339 0.49165255 1.8439435 2822421
-0.7881521 0.43265423 1.6226703 2559760
-0.77220118 0.43265423 1.6226703 1772045
-0.82201111 0.47027633 1.763772 2625039
-0.84124923 0.49165255 1.8439435 3478548
-0.82312316 0.49165255 1.8439435 3084563
-0.84333032 0.51506454 1.9317503 2165775
-0.96173137 0.6009087 2.2537088 2165775
-1.0570245 0.67602223 2.5354223 3084051
-1.1795441 0.77259684 2.8976254 1837325
-1.2396035 0.83202744 3.1205199 1640972
-1.2089287 0.83202744 3.1205199 2953748
-1.0940927 0.77259684 2.8976254 2952976
-0.93240786 0.67602223 2.5354223 2297106
-0.85410309 0.63625622 2.3862798 2559504
-0.45551547 0.34891471 1.3086051 2887445
-0.42881897 0.33801112 1.2677112 2690064
-0.3700954 0.30045435 1.1268544 4135962
-0.35901836 0.30045435 1.1268544 8272426
-0.30550945 0.26381356 0.98943311 11355437
-0.24749213 0.22074196 0.82789302 12666670
-0.23935391 0.22074196 0.82789302 12732461
-0.23121569 0.22074196 0.82789302 12994862
-0.22307746 0.22074196 0.82789302 12929322
-0.20651025 0.21208541 0.79542661 13256748
-0.19869116 0.21208541 0.79542661 13060395
-0.19866279 0.22074196 0.82789302 13059112
-0.19052456 0.22074196 0.82789302 13388074
-0.19014744 0.23013523 0.86312246 13256234
-0.18561211 0.23513816 0.88188601 12928039
-0.184986 0.24582627 0.92197174 13453353
-0.18879539 0.26381356 0.98943311 13190183
-0.17906922 0.26381356 0.98943311 12665124
-0.16531107 0.25753227 0.96587515 12927528
-0.13088584 0.21632712 0.81133515 12468258
-0.12050037 0.21208541 0.79542661 12927524
-0.11972387 0.22534074 0.84514076 12468776
-0.1114161 0.22534074 0.84514076 13189930
-0.09517692 0.20800686 0.78012997 12927269
-0.087508209 0.20800686 0.78012997 12468260
-0.083033077 0.21632712 0.81133515 12861991
-0.076589406 0.22074196 0.82789302 12796455
-0.069877237 0.22534074 0.84514076 12861478
-0.060312953 0.22074196 0.82789302 12599076
-0.05113123 0.21632712 0.81133515 12861221
-0.0440365 0.22074196 0.82789302 12270627
-0.036646154 0.22534074 0.84514076 12270627
-0.030227607 0.24036346 0.90148348 12205604
-0.021365985 0.24036346 0.90148348 12599076
-0.012504362 0.24036346 0.90148348 12140324
-0.0034150674 0.22534074 0.84514076 12401697
0.0048927041 0.22534074 0.84514076 11746595
0.013200476 0.22534074 0.84514076 12008225
0.021508247 0.22534074 0.84514076 11614755
0.031803753 0.24036346 0.90148348 11614757
0.04574855 0.2704089 1.014169 11745828
0 0 0 12074531
0 0 0 12007973
0 0 0 12074020
0 0 0 12467490
0 0 0 12402983
0 0 0 12467490
0 0 0 12861219
0 0 0 12599076
0 0 0 12468006
1.1635345 2.1632712 8.1133518 12796201
0.62164456 1.0816356 4.0566759 12532770
0.66152191 1.0816356 4.0566759 12206117
0.63763559 0.9833051 3.687887 12008740
0.67388767 0.9833051 3.687887 11418402
0.60088754 0.83202744 3.1205199 12402725
0.63156235 0.83202744 3.1205199 12599334
0.66223723 0.83202744 3.1205199 12467235
0.90078574 1.0816356 4.0566759 12599846
1.0451812 1.2018174 4.5074177 12664612
0.98054034 1.0816356 4.0566759 12600102
0.72886968 0.77259684 2.8976254 12467749
0.46099776 0.47027633 1.763772 12599849
0.47833574 0.47027633 1.763772 12467493
0.49567369 0.47027633 1.763772 12206633
0 0 0 12534053
0 0 0 12075560
0.59984827 0.51506454 1.9317503 13059114
0.54148281 0.45068148 1.6902815 12600103
0.58236349 0.47027633 1.763772 12796454
0.65681589 0.51506454 1.9317503 12862246
0.67580503 0.51506454 1.9317503 12731689
0.69479424 0.51506454 1.9317503 12599078
0.62456053 0.45068148 1.6902815 12927274
0.53062844 0.37297779 1.3988537 12600616
0.54437923 0.37297779 1.3988537 12730919
0.55813003 0.37297779 1.3988537 12665641
0.51826704 0.33801112 1.2677112 12862248
0.51464599 0.32776836 1.2292956 12468517
0.52673 0.32776836 1.2292956 12337448
0.55565202 0.33801112 1.2677112 12271139
0.53469521 0.31812811 1.1931399 12600362
0.56298208 0.32776836 1.2292956 12206117
0.63257271 0.36054519 1.3522252 12271912
0.66813642 0.37297779 1.3988537 12271912
0.68188721 0.37297779 1.3988537 12535082
0.72048217 0.38629842 1.4488127 12337190
0.97963214 0.51506454 1.9317503 12009253
0.99862134 0.51506454 1.9317503 12009766
0.92912263 0.47027633 1.763772 12272680
0.9464606 0.47027633 1.763772 12337705
0.96379858 0.47027633 1.763772 12402985
0.9811365 0.47027633 1.763772 12140583
0.95687139 0.45068148 1.6902815 12074533
0.9734869 0.45068148 1.6902815 11878181
0.9504984 0.43265423 1.6226703 12337705
0.96644932 0.43265423 1.6226703 12075047
1.0233335 0.45068148 1.6902815 11878697
1.0399491 0.45068148 1.6902815 11745830
1.1025022 0.47027633 1.763772 11877416
1.170742 0.49165255 1.8439435 11682090
1.2454808 0.51506454 1.9317503 11550502
1.1545161 0.47027633 1.763772 11484710
1.1230268 0.45068148 1.6902815 11484712
1.1396424 0.45068148 1.6902815 11483940
1.1562579 0.45068148 1.6902815 11549732
1.1728734 0.45068148 1.6902815 11222824
1.1419095 0.43265423 1.6226703 11354408
1.1578604 0.43265423 1.6226703 11484710
1.1738113 0.43265423 1.6226703 11352870
1.1897622 0.43265423 1.6226703 11483941
1.3701285 0.49165255 1.8439435 11353125
1.4543619 0.51506454 1.9317503 11155750
1.4733511 0.51506454 1.9317503 11352873
1.3625716 0.47027633 1.763772 10959398
1.3224133 0.45068148 1.6902815 10959655
1.3390288 0.45068148 1.6902815 10762791
1.4145855 0.47027633 1.763772 10632234
1.3173696 0.43265423 1.6226703 10894115
1.3333205 0.43265423 1.6226703 10763045
1.3492714 0.43265423 1.6226703 10893605
1.3652223 0.43265423 1.6226703 11154981
1.3811733 0.43265423 1.6226703 10762533
1.3971242 0.43265423 1.6226703 10565413
1.3587261 0.41601372 1.5602599 10631461
1.2319189 0.37297779 1.3988537 11090214
1.2456697 0.37297779 1.3988537 10696740
1.3043998 0.38629842 1.4488127 10499619
1.8460985 0.5408178 2.028338 10631975
1.9642496 0.56928188 2.1350925 10236703
0 0 0 9975075
1.7326494 0.49165255 1.8439435 10237732
1.4265579 0.4006058 1.5024725 10107941
1.4413272 0.4006058 1.5024725 9978413
1.4560966 0.4006058 1.5024725 10108459
1.5274378 0.41601372 1.5602599 10108715
1.4325769 0.38629842 1.4488127 10043177
1.5004047 0.4006058 1.5024725 10042923
1.4610606 0.38629842 1.4488127 10370605
1.4244301 0.37297779 1.3988537 10175024
1.4381809 0.37297779 1.3988537 10305325
1.4519317 0.37297779 1.3988537 10305580
1.4656825 0.37297779 1.3988537 10109231
1.4794333 0.37297779 1.3988537 9912622
1.4931841 0.37297779 1.3988537 9978415
1.4567037 0.36054519 1.3522252 10108716
1.5206857 0.37297779 1.3988537 9846057
1.5892377 0.38629842 1.4488127 9649450
0 0 0 9650216
1.3322413 0.31812811 1.1931399 9452071
1.2349994 0.29233393 1.0963988 9780266
1.245777 0.29233393 1.0963988 10042925
1.6031904 0.37297779 1.3988537 9714989
1.6169412 0.37297779 1.3988537 9584173
0 0 0 9781039
0 0 0 9584172
0 0 0 9650220
0 0 0 9716013
0 0 0 9912620
4.4803576 0.9833051 3.687887 9716270
4.5166097 0.9833051 3.687887 9650993
5.0081482 1.0816356 4.0566759 9584428
10.096051 2.1632712 8.1133518 9781293
0 0 0 9781551
0 0 0 9386796
0 0 0 9649196
0 0 0 9126704
0 0 0 8473911
0 0 0 787467
0 0 0 787466
0 0 0 787467
0 0 0 721674
0 0 0 721673
-5.9023929 1.4018911 5.0708447 787466
-23.410185 5.6075644 20.283379 852746
0 0 0 655882
0 0 0 721675
0 0 0 721673
0 0 0 655882
0 0 0 918284
-22.213865 5.6075644 20.283379 1313290
-22.014479 5.6075644 20.283379 1773071
-10.907546 2.8037822 10.141689 2362642
-3.6026175 0.93459404 3.380563 1573643
-2.519567 0.65971345 2.3862798 917770
-2.6521165 0.70094556 2.5354223 1640978
-2.8023393 0.74767524 2.7044504 4402987
-2.9740229 0.80108064 2.8976254 4464919
-2.945539 0.80108064 2.8976254 6242095
-2.9170551 0.80108064 2.8976254 6505263
-3.1107693 0.86270225 3.1205199 6766638
-3.0800946 0.86270225 3.1205199 6634798
-3.0494196 0.86270225 3.1205199 6635311
-3.0187449 0.86270225 3.1205199 7094573
-2.5896604 0.74767524 2.7044504 7225901
-2.4028835 0.70094556 2.5354223 7226157
-1.9023682 0.5607565 2.028338 7554609
-2.3530369 0.70094556 2.5354223 6961706
-3.1041512 0.93459404 3.380563 5910565
-3.0709202 0.93459404 3.380563 3544589
-2.0251262 0.62306273 2.2537088 2166538
-1.0925301 0.33985236 1.2292956 1904657
-1.0804461 0.33985236 1.2292956 1641488
-1.2157224 0.38672858 1.3988537 1773074
-1.3942871 0.44860515 1.6226703 1838867
-1.4357668 0.46729702 1.6902815 1838867
-1.4191513 0.46729702 1.6902815 1903632
-1.4025358 0.46729702 1.6902815 2363925
-1.3859202 0.46729702 1.6902815 4793634
-1.3693047 0.46729702 1.6902815 2754827
-1.6232271 0.5607565 2.028338 1573383
0 0 0 1639691
-0.70371097 0.24922508 0.90148348 1575440
-0.69484931 0.24922508 0.90148348 2101524
-0.68598771 0.24922508 0.90148348 1640972
-0.67712611 0.24922508 0.90148348 1377546
-0.66826445 0.24922508 0.90148348 2298389
-0.65940285 0.24922508 0.90148348 2562329
-0.63639903 0.24380715 0.88188601 2298902
-0.62773001 0.24380715 0.88188601 1443597
-0.61906105 0.24380715 0.88188601 1311498
-0.61039209 0.24380715 0.88188601 2954006
-0.58892047 0.23861976 0.86312246 4200728
-0.58043593 0.23861976 0.86312246 4792606
-0.58438516 0.24380715 0.88188601 4990496
-0.58850986 0.24922508 0.90148348 5382684
-0.96608043 0.41537514 1.5024725 5317404
-1.0274159 0.44860515 1.6226703 4989469
-1.4874486 0.65971345 2.3862798 4398618
0 0 0 3741204
-0.97956318 0.44860515 1.6226703 3872790
-0.96361226 0.44860515 1.6226703 3741202
-0.94766134 0.44860515 1.6226703 3872789
-0.93171042 0.44860515 1.6226703 3674640
-1.0406357 0.50977856 1.8439435 2229770
-1.1839586 0.59026992 2.1350925 2493967
-1.2275801 0.62306273 2.2537088 2493710
-1.1419826 0.59026992 2.1350925 2493967
-1.2528762 0.65971345 2.3862798 2361870
-1.3933414 0.74767524 2.7044504 2033164
-1.2059617 0.65971345 2.3862798 2230543
-0.9572655 0.53405374 1.9317503 1902860
-0.89562738 0.50977856 1.8439435 1640461
-0.83934909 0.4876143 1.763772 1508876
-0.82201111 0.4876143 1.763772 1640459
-0.84124923 0.50977856 1.8439435 2165261
-0.82312316 0.50977856 1.8439435 2952206
-0.80499715 0.50977856 1.8439435 2296332
-1.0819478 0.70094556 2.5354223 1837069
-1.208028 0.80108064 2.8976254 1640718
0 0 0 2297362
0 0 0 2034704
0 0 0 2428691
0 0 0 2691605
0 0 0 4004892
-0.55845207 0.43135113 1.5602599 5582379
-0.3620764 0.28756741 1.0401733 8667707
-0.35185146 0.28756741 1.0401733 10569525
-0.34162652 0.28756741 1.0401733 12142896
-0.31523561 0.27353972 0.98943311 12797223
-0.30550945 0.27353972 0.98943311 12993832
-0.24749213 0.22888018 0.82789302 12863016
-0.22554503 0.21567556 0.78012997 13191213
-0.21787633 0.21567556 0.78012997 13125418
-0.21020761 0.21567556 0.78012997 12928553
-0.20253889 0.21567556 0.78012997 13059114
-0.19869116 0.21990448 0.79542661 13059111
-0.19087209 0.21990448 0.79542661 13256493
-0.183053 0.21990448 0.79542661 13256489
-0.17873861 0.22430257 0.81133515 13189670
-0.17787828 0.23364851 0.84514076 12928297
-0.17694312 0.24380715 0.88188601 13059625
-0.17201358 0.24922508 0.90148348 13124905
-0.17480567 0.26702687 0.96587515 12927784
-0.15429033 0.24922508 0.90148348 12862246
-0.13088584 0.22430257 0.81133515 12731432
-0.11818306 0.21567556 0.78012997 12534823
-0.11268129 0.21990448 0.79542661 12928041
-0.1091423 0.22888018 0.82789302 12403496
-0.10310832 0.23364851 0.84514076 12861221
-0.091008537 0.22430257 0.81133515 12337187
-0.08472763 0.22888018 0.82789302 12271397
-0.075057611 0.22430257 0.81133515 12402213
-0.068451174 0.22888018 0.82789302 12795942
-0.060312953 0.22888018 0.82789302 12730662
-0.052174725 0.22888018 0.82789302 12468006
-0.0440365 0.22888018 0.82789302 12074018
-0.036646154 0.23364851 0.84514076 12074533
-0.030914599 0.25488928 0.92197174 12403237
-0.021851575 0.25488928 0.92197174 12139813
-0.0137243 0.27353972 0.98943311 11942434
-0.0034150674 0.23364851 0.84514076 11877154
0.0048927041 0.23364851 0.84514076 12205606
0.013200476 0.23364851 0.84514076 11615009
0.021508247 0.23364851 0.84514076 11680289
0.031803753 0.24922508 0.90148348 11877154
0.04574855 0.28037825 1.014169 11942945
0.057146542 0.28756741 1.0401733 12270629
0 0 0 12140326
0 0 0 12271397
0 0 0 12336420
0 0 0 12599076
0 0 0 12795426
0 0 0 12401697
0 0 0 12402215
0.23560432 0.4876143 1.763772 12664869
0.34221601 0.65971345 2.3862798 12598563
0.36567327 0.65971345 2.3862798 12795944
0.66152191 1.121513 4.0566759 12271397
0.5844993 0.93459404 3.380563 12271400
0.67388767 1.0195571 3.687887 11878696
0.65096146 0.93459404 3.380563 12074278
0.91225678 1.2461255 4.5074177 12665381
0.78264397 1.0195571 3.687887 12599079
0.90078574 1.121513 4.0566759 12402470
0.78388578 0.93459404 3.380563 12861736
0.42632186 0.4876143 1.763772 12533286
0.44365981 0.4876143 1.763772 12599333
0.46099776 0.4876143 1.763772 12468517
0.47833574 0.4876143 1.763772 12730408
0.49567369 0.4876143 1.763772 12469030
0 0 0 12665639
0 0 0 12337190
0 0 0 12665896
0.54148281 0.46729702 1.6902815 12534566
0.55809832 0.46729702 1.6902815 12271909
0.57471389 0.46729702 1.6902815 12534822
0.64508665 0.50977856 1.8439435 12404264
0.63437736 0.4876143 1.763772 12534569
0.51687765 0.38672858 1.3988537 12797223
0.48088205 0.35047278 1.2677112 12402982
0.49334371 0.35047278 1.2677112 12403496
0.53952569 0.37383762 1.3522252 12469289
0.51826704 0.35047278 1.2677112 12534568
0.51464599 0.33985236 1.2292956 12731177
0.52673 0.33985236 1.2292956 12665896
0.52296656 0.32985672 1.1931399 12403496
0.53469521 0.32985672 1.1931399 12665639
0.54642379 0.32985672 1.1931399 12205604
0.57506615 0.33985236 1.2292956 12862503
0.66813642 0.38672858 1.3988537 12468776
0.68188721 0.38672858 1.3988537 12271658
0.695638 0.38672858 1.3988537 11943462
0.85717809 0.46729702 1.6902815 12272169
0.87379366 0.46729702 1.6902815 12271658
0.85479283 0.44860515 1.6226703 12337450
0.83725363 0.43135113 1.5602599 12205606
0.88669467 0.44860515 1.6226703 12139812
0.94025582 0.46729702 1.6902815 12075306
0.95687139 0.46729702 1.6902815 11943719
0.9734869 0.46729702 1.6902815 12009511
0.9504984 0.44860515 1.6226703 11812388
0.96644932 0.44860515 1.6226703 12008742
1.0233335 0.46729702 1.6902815 11812134
1.0399491 0.46729702 1.6902815 11943721
1.1025022 0.4876143 1.763772 12009513
1.1198401 0.4876143 1.763772 11681831
1.188868 0.50977856 1.8439435 11615781
1.1064112 0.46729702 1.6902815 11615784
1.0781058 0.44860515 1.6226703 11747113
1.0940567 0.44860515 1.6226703 11746854
1.1562579 0.46729702 1.6902815 11287334
1.1259586 0.44860515 1.6226703 11812395
1.1419095 0.44860515 1.6226703 11484711
1.1578604 0.44860515 1.6226703 11286819
1.1738113 0.44860515 1.6226703 11287847
1.1897622 0.44860515 1.6226703 11548962
1.2057132 0.44860515 1.6226703 11418148
1.2725667 0.46729702 1.6902815 10893860
1.4063807 0.50977856 1.8439435 11090211
1.3057978 0.46729702 1.6902815 11286564
1.3224133 0.46729702 1.6902815 11090213
1.2854677 0.44860515 1.6226703 11221541
1.3014187 0.44860515 1.6226703 11222052
1.3173696 0.44860515 1.6226703 10959912
1.3333205 0.44860515 1.6226703 10762535
1.3492714 0.44860515 1.6226703 11024678
1.3652223 0.44860515 1.6226703 11023908
1.3811733 0.44860515 1.6226703 10696740
1.0584273 0.33985236 1.2292956 10762273
1.0705113 0.33985236 1.2292956 10631972
1.0825955 0.33985236 1.2292956 10500387
1.1288882 0.35047278 1.2677112 10500130
1.2594205 0.38672858 1.3988537 10172194
1.2731713 0.38672858 1.3988537 10041378
1.2869221 0.38672858 1.3988537 10434853
1.3006729 0.38672858 1.3988537 10041638
1.2706096 0.37383762 1.3522252 10237990
1.2036582 0.35047278 1.2677112 10239529
1.2161199 0.35047278 1.2677112 10305836
1.2285815 0.35047278 1.2677112 10437165
1.3694268 0.38672858 1.3988537 10043436
1.3831778 0.38672858 1.3988537 10371118
1.3969285 0.38672858 1.3988537 10173996
1.2396878 0.33985236 1.2292956 10042154
1.2517718 0.33985236 1.2292956 9845287
1.3902415 0.37383762 1.3522252 10042923
1.4035339 0.37383762 1.3522252 9846057
1.4656825 0.38672858 1.3988537 9781034
1.4794333 0.38672858 1.3988537 9584430
1.4931841 0.38672858 1.3988537 9650478
1.5069349 0.38672858 1.3988537 9912109
1.5206857 0.38672858 1.3988537 10043438
1.5344365 0.38672858 1.3988537 9846575
1.5481873 0.38672858 1.3988537 10043438
1.1324052 0.28037825 1.014169 10043184
1.1145116 0.27353972 0.98943311 9582633
1.1242378 0.27353972 0.98943311 9714217
1.3283578 0.32043228 1.1590502 9911082
1.465353 0.35047278 1.2677112 9780523
0 0 0 9583915
0 0 0 9321258
0 0 0 9452846
0 0 0 9649196
0 0 0 9912110
0 0 0 9780779
9.9365416 2.243026 8.1133518 9912622
10.016296 2.243026 8.1133518 9913135
0 0 0 10044978
0 0 0 10176564
0 0 0 9847345
0 0 0 9847601
0 0 0 9650219
0 0 0 9193264
0 0 0 918282
0 0 0 852489
0 0 0 786697
0 0 0 852744
0 0 0 852488
-3.6322417 0.89337713 3.1205199 786696
-3.601567 0.89337713 3.1205199 786953
-3.5708921 0.89337713 3.1205199 721675
-5.1136475 1.2904336 4.5074177 655368
-5.0693393 1.2904336 4.5074177 590088
-5.0250311 1.2904336 4.5074177 655881
-6.4037862 1.6591288 5.7952509 655880
-7.4046216 1.9356503 6.761126 852489
-7.3381596 1.9356503 6.761126 459015
-2.5664814 0.68317068 2.3862798 459016
-2.2753375 0.61125803 2.1350925 393222
-2.0396495 0.55304295 1.9317503 655625
-2.3574371 0.64521682 2.2537088 1312269
-3.0025065 0.82956439 2.8976254 3940386
-3.2027938 0.89337713 3.1205199 2691858
0 0 0 5059622
-2.9170551 0.82956439 2.8976254 6701101
-2.8885715 0.82956439 2.8976254 7028782
-2.3553662 0.68317068 2.3862798 6896426
-1.7235849 0.50495225 1.763772 6766124
-1.3532304 0.40047938 1.3988537 7093544
-1.0222344 0.30562901 1.0675462 7554607
-0.96115345 0.29034758 1.014169 7488300
-0.92798448 0.28326592 0.98943311 5847847
-0.9412148 0.29034758 1.014169 2429196
-0.93124545 0.29034758 1.014169 1904401
-0.94489861 0.29779238 1.0401733 1970196
-0.93467361 0.29779238 1.0401733 1641231
-0.97441882 0.31388924 1.0963988 1707024
-0.99040908 0.32260841 1.1268544 1838608
-1.0683621 0.3519364 1.2292956 1772818
-1.1619059 0.38713005 1.3522252 1969683
-1.1882209 0.40047938 1.3988537 1838608
-1.3623853 0.4645561 1.6226703 1904403
-0.8415215 0.29034758 1.014169 2821905
-0.70770395 0.24710429 0.86312246 2163464
-0.69921941 0.24710429 0.86312246 1442568
-0.69073486 0.24710429 0.86312246 983559
-0.68225032 0.24710429 0.86312246 852490
-0.67376578 0.24710429 0.86312246 918284
-0.6652813 0.24710429 0.86312246 1312270
-0.65679675 0.24710429 0.86312246 5518906
-0.64831221 0.24710429 0.86312246 8018767
-0.65373695 0.25247613 0.88188601 5318937
-0.64506799 0.25247613 0.88188601 4266771
-0.63639903 0.25247613 0.88188601 4399131
-0.62773001 0.25247613 0.88188601 4268570
-0.60588956 0.24710429 0.86312246 3676698
-0.58495909 0.24195629 0.84514076 5318180
-0.57665133 0.24195629 0.84514076 5974815
-0.56834352 0.24195629 0.84514076 5185049
-0.56003577 0.24195629 0.84514076 4594455
-0.56346691 0.24710429 0.86312246 4397077
-0.56704718 0.25247613 0.88188601 3872277
-0.5707866 0.25808671 0.90148348 3806742
-0.574696 0.26395231 0.92197174 3412242
-0.59256792 0.27652147 0.96587515 2952974
-0.58307332 0.27652147 0.96587515 2953489
-0.73000926 0.3519364 1.2292956 2756110
-0.84612614 0.4147822 1.4488127 2230795
-0.93171042 0.4645561 1.6226703 2296331
0 0 0 1705483
0 0 0 1837067
-1.2997906 0.68317068 2.3862798 1968141
-1.0332222 0.55304295 1.9317503 2033934
-1.0142331 0.55304295 1.9317503 1443083
-0.99524385 0.55304295 1.9317503 1312267
-0.97625464 0.55304295 1.9317503 984329
-0.91375339 0.52790463 1.8439435 1378062
-0.89562738 0.52790463 1.8439435 1246476
-0.83934909 0.50495225 1.763772 1508620
-0.8593753 0.52790463 1.8439435 1181454
-0.84124923 0.52790463 1.8439435 1246217
-0.86231953 0.55304295 1.9317503 2099727
-1.1806624 0.7742601 2.7044504 2296336
0 0 0 1443596
0 0 0 2231569
0 0 0 3543826
0 0 0 6432030
0 0 0 9911079
0 0 0 12207660
0 0 0 12403496
-0.60498971 0.48391259 1.6902815 12666922
-0.35302451 0.29034758 1.014169 12469543
-0.34305519 0.29034758 1.014169 12600362
-0.32496181 0.28326592 0.98943311 12600618
-0.31523561 0.28326592 0.98943311 12469031
-0.28467926 0.26395231 0.92197174 12140839
-0.2526482 0.24195629 0.84514076 12600361
-0.22554503 0.22334428 0.78012997 12863018
-0.21787633 0.22334428 0.78012997 13255977
-0.21020761 0.22334428 0.78012997 13256491
-0.20253889 0.22334428 0.78012997 13190698
-0.19869116 0.22772357 0.79542661 13256232
-0.19087209 0.22772357 0.79542661 13059112
-0.183053 0.22772357 0.79542661 12928039
-0.17523393 0.22772357 0.79542661 13124905
-0.17076315 0.23227805 0.81133515 12928039
-0.16610989 0.23701841 0.82789302 13059113
-0.16827415 0.25247613 0.88188601 12994088
-0.16315195 0.25808671 0.90148348 13058856
-0.15429033 0.25808671 0.90148348 12665382
-0.1454287 0.25808671 0.90148348 12993320
-0.12541875 0.23701841 0.82789302 12796970
-0.11728053 0.23701841 0.82789302 12861990
-0.1091423 0.23701841 0.82789302 12205604
-0.10530212 0.24710429 0.86312246 12271910
-0.09892232 0.25247613 0.88188601 12140324
-0.088333055 0.24710429 0.86312246 12139813
-0.076589406 0.23701841 0.82789302 12205604
-0.067082152 0.23227805 0.81133515 12467236
-0.059106693 0.23227805 0.81133515 12205606
-0.052174725 0.23701841 0.82789302 12402213
-0.044953924 0.24195629 0.84514076 12335650
-0.036646154 0.24195629 0.84514076 12532516
-0.030914599 0.26395231 0.92197174 12269857
-0.021851575 0.26395231 0.92197174 11942947
-0.0137243 0.28326592 0.98943311 11745828
-0.0038121683 0.27009076 0.94341296 11548449
0.0052188844 0.25808671 0.90148348 11221537
0.014080508 0.25808671 0.90148348 11286562
0.024009207 0.27009076 0.94341296 11811361
0.034906559 0.28326592 0.98943311 11942693
0.046921592 0.29779238 1.0401733 11877927
0.060235541 0.31388924 1.0963988 12270627
0 0 0 12336420
0 0 0 12139811
0 0 0 12599076
0 0 0 12795942
0 0 0 12664869
0 0 0 12598563
0.20080505 0.4645561 1.6226703 12270627
0.21675597 0.4645561 1.6226703 12270627
0.26443964 0.52790463 1.8439435 12336420
0.29602119 0.55304295 1.9317503 12074018
0.36751217 0.64521682 2.2537088 12337447
0.38966623 0.64521682 2.2537088 12337190
0.61773038 0.96782517 3.380563 12402211
0.60088754 0.89337713 3.1205199 12533026
0.63156235 0.89337713 3.1205199 12468006
0.66223723 0.89337713 3.1205199 12205604
0.6929121 0.89337713 3.1205199 12467493
0.39194289 0.48391259 1.6902815 12599077
0.40855846 0.48391259 1.6902815 12533797
0.425174 0.48391259 1.6902815 12467747
0.44178954 0.48391259 1.6902815 12271912
0.45840508 0.48391259 1.6902815 12271910
0.49567369 0.50495225 1.763772 12271399
0 0 0 12598822
0 0 0 12534313
0 0 0 12402982
0.54148281 0.48391259 1.6902815 12664611
0.55809832 0.48391259 1.6902815 12533540
0.57471389 0.48391259 1.6902815 12402215
0.5913294 0.48391259 1.6902815 12796203
0.54039556 0.43014452 1.5024725 12599844
0.51687765 0.40047938 1.3988537 12731432
0.46630985 0.3519364 1.2292956 12665897
0.47839388 0.3519364 1.2292956 12731178
0.50580537 0.36293444 1.2677112 12665129
0.50256193 0.3519364 1.2292956 12731179
0.51464599 0.3519364 1.2292956 12469031
0.48283589 0.32260841 1.1268544 12337190
0.49391291 0.32260841 1.1268544 12533799
0.51941818 0.33182579 1.1590502 12402983
0.54642379 0.34158534 1.1931399 12337448
0.57506615 0.3519364 1.2292956 12665387
0.6458652 0.38713005 1.3522252 12140330
0.65915763 0.38713005 1.3522252 12140327
0.67245007 0.38713005 1.3522252 12140326
0.822891 0.4645561 1.6226703 11747881
0.83884192 0.4645561 1.6226703 11813161
0.68934906 0.37464201 1.3086051 11878699
0.83725363 0.44668856 1.5602599 12206119
0.88669467 0.4645561 1.6226703 12205862
0.94025582 0.48391259 1.6902815 11812388
0.99847448 0.50495225 1.763772 11877924
1.0158124 0.50495225 1.763772 12205604
0.9504984 0.4645561 1.6226703 11877927
0.96644932 0.4645561 1.6226703 11878439
0.9446156 0.44668856 1.5602599 11943209
0.99835116 0.4645561 1.6226703 11812391
1.014302 0.4645561 1.6226703 11484198
1.0302529 0.4645561 1.6226703 11418661
1.046204 0.4645561 1.6226703 11615527
1.0213027 0.44668856 1.5602599 11549732
1.0781058 0.4645561 1.6226703 11418148
1.0940567 0.4645561 1.6226703 11352873
1.1100076 0.4645561 1.6226703 11418919
1.1259586 0.4645561 1.6226703 11352870
1.1419095 0.4645561 1.6226703 11418917
1.1578604 0.4645561 1.6226703 11156007
1.1286647 0.44668856 1.5602599 11221800
1.0256571 0.40047938 1.3988537 11221541
1.1164011 0.43014452 1.5024725 11286821
1.174677 0.44668856 1.5602599 11090727
1.237615 0.4645561 1.6226703 10828326
1.2535659 0.4645561 1.6226703 10499874
1.2695168 0.4645561 1.6226703 11090468
1.2854677 0.4645561 1.6226703 10631461
1.3014187 0.4645561 1.6226703 10696740
1.3173696 0.4645561 1.6226703 10762019
1.3333205 0.4645561 1.6226703 11222054
1.3492714 0.4645561 1.6226703 10828326
1.3127139 0.44668856 1.5602599 11156007
1.0463433 0.3519364 1.2292956 11025445
1.0584273 0.3519364 1.2292956 10827814
1.0705113 0.3519364 1.2292956 10828066
1.0825955 0.3519364 1.2292956 10827555
1.1288882 0.36293444 1.2677112 10827299
1.2174399 0.38713005 1.3522252 10434081
1.2307323 0.38713005 1.3522252 10762535
1.2440248 0.38713005 1.3522252 10368290
1.1787349 0.36293444 1.2677112 10106916
1.1911966 0.36293444 1.2677112 10237222
1.1671836 0.3519364 1.2292956 10172710
1.1792676 0.3519364 1.2292956 10305324
1.1913517 0.3519364 1.2292956 10305579
1.2410432 0.36293444 1.2677112 10108457
1.2535049 0.36293444 1.2677112 10043436
1.2659665 0.36293444 1.2677112 10109229
1.2396878 0.3519364 1.2292956 10174763
1.2517718 0.3519364 1.2292956 10240556
1.3902415 0.38713005 1.3522252 10108970
1.4035339 0.38713005 1.3522252 9846825
1.4168264 0.38713005 1.3522252 9977899
1.4794333 0.40047938 1.3988537 9583659
1.4931841 0.40047938 1.3988537 9584173
1.5607539 0.4147822 1.4488127 9977132
1.5206857 0.40047938 1.3988537 9780266
1.5344365 0.40047938 1.3988537 9911082
1.5481873 0.40047938 1.3988537 9845803
1.3322413 0.34158534 1.1931399 9780008
1.5756888 0.40047938 1.3988537 9648935
1.5894396 0.40047938 1.3988537 9517608
1.6031904 0.40047938 1.3988537 9846061
0 0 0 10043182
0 0 0 9977647
0 0 0 9846060
0 0 0 9518124
0 0 0 9518382
0 0 0 9715759
0 0 0 9846829
0 0 0 9583657
0 0 0 9978415
0 0 0 9716015
0 0 0 9847856
0 0 0 9913392
0 0 0 9716016
0 0 0 9913393
0 0 0 9519148
0 0 0 787466
0 0 0 853261
0 0 0 787466
0 0 0 853513
0 0 0 786952
-3.1479428 0.80084497 2.7044504 852489
-3.1213579 0.80084497 2.7044504 786696
-3.0947731 0.80084497 2.7044504 786696
-3.0681882 0.80084497 2.7044504 786696
-3.2588606 0.8580482 2.8976254 786696
-3.4788675 0.92405194 3.1205199 786696
-3.4481928 0.92405194 3.1205199 721673
-6.3468184 1.7160964 5.7952509 852489
-2.3173137 0.63224608 2.1350925 656138
-2.0776279 0.57203215 1.9317503 655625
-1.9650642 0.5460307 1.8439435 918284
-1.9469382 0.5460307 1.8439435 1576212
-2.0206602 0.57203215 1.9317503 1904403
-2.2123733 0.63224608 2.1350925 1772304
-2.6022699 0.75079221 2.5354223 1312779
-2.5773466 0.75079221 2.5354223 2691604
-2.5524235 0.75079221 2.5354223 5386279
-2.3788235 0.70662796 2.3862798 7094317
-1.7409229 0.52229023 1.763772 6896940
-1.0714177 0.32466689 1.0963988 6831147
-0.95716298 0.29299209 0.98943311 7093804
-0.92487878 0.28601608 0.96587515 7356977
-0.93771064 0.29299209 0.98943311 5649442
-0.92798448 0.29299209 0.98943311 1904653
-0.91825831 0.29299209 0.98943311 1772815
-0.90853214 0.29299209 0.98943311 1707023
-0.92127615 0.3003169 1.014169 1904145
-0.93467361 0.30801731 1.0401733 1903889
-0.92444867 0.30801731 1.0401733 1772815
-0.96364117 0.32466689 1.0963988 1773074
-0.97933203 0.33368543 1.1268544 1838610
-0.96825498 0.33368543 1.1268544 1772817
-0.86146015 0.3003169 1.014169 1838610
-0.8109436 0.28601608 0.96587515 1772817
-0.71618849 0.25558883 0.86312246 1772817
-0.69296008 0.25026405 0.84514076 1114888
-0.68465233 0.25026405 0.84514076 786696
-0.67634457 0.25026405 0.84514076 983561
-0.66803682 0.25026405 0.84514076 1180939
-0.659729 0.25026405 0.84514076 1312267
-0.65142125 0.25026405 0.84514076 3543575
-0.64311349 0.25026405 0.84514076 3676445
-0.63480568 0.25026405 0.84514076 3675157
-0.62649792 0.25026405 0.84514076 4134939
-0.61819017 0.25026405 0.84514076 5317922
-0.60988241 0.25026405 0.84514076 5909285
-0.6015746 0.25026405 0.84514076 5908768
-0.59326684 0.25026405 0.84514076 5250841
-0.58495909 0.25026405 0.84514076 4593681
-0.57665133 0.25026405 0.84514076 4002833
-0.56834352 0.25026405 0.84514076 3411985
-0.56003577 0.25026405 0.84514076 3216403
-0.55172801 0.25026405 0.84514076 2821906
-0.55498236 0.25558883 0.86312246 2821651
-0.55837822 0.26114511 0.88188601 2756110
-0.5497092 0.26114511 0.88188601 2755858
-0.55306339 0.26694834 0.90148348 2427918
-0.55656999 0.27301535 0.92197174 2230542
-0.54750693 0.27301535 0.92197174 1442055
-0.5778423 0.29299209 0.98943311 1114888
-0.83188426 0.4290241 1.4488127 1180680
-0.9157595 0.48050702 1.6226703 1246474
-0.89980853 0.48050702 1.6226703 1377545
-0.81838673 0.44491389 1.5024725 1771785
-0.80361736 0.44491389 1.5024725 1705995
-0.8191883 0.46202597 1.5602599 1641488
-0.99524385 0.57203215 1.9317503 1443082
-1.0250674 0.6006338 2.028338 1377803
-1.1825044 0.70662796 2.3862798 1639948
-1.2314876 0.75079221 2.5354223 1836299
0 0 0 1508875
0 0 0 1312266
0 0 0 1902603
0 0 0 3216146
0 0 0 5515557
0 0 0 8535344
0 0 0 10831668
0 0 0 12011055
-2.3021207 1.7160964 5.7952509 12534310
-1.7462304 1.3347417 4.5074177 12665897
-1.1782538 0.92405194 3.1205199 12600360
-0.62160522 0.5005281 1.6902815 12468260
-0.48399174 0.40042248 1.3522252 12206117
-0.34441414 0.29299209 0.98943311 12336674
-0.33468798 0.29299209 0.98943311 12599076
-0.31722459 0.28601608 0.96587515 12469289
-0.31523561 0.29299209 0.98943311 12469545
-0.29823542 0.28601608 0.96587515 12732202
-0.2526482 0.25026405 0.84514076 12993831
-0.23456684 0.24025351 0.81133515 12862761
-0.21787633 0.23101299 0.78012997 12862249
-0.21020761 0.23101299 0.78012997 12863016
-0.20651025 0.23554265 0.79542661 12731430
-0.19869116 0.23554265 0.79542661 13125161
-0.19087209 0.23554265 0.79542661 13059368
-0.183053 0.23554265 0.79542661 12731434
-0.17523393 0.23554265 0.79542661 12665637
-0.16741484 0.23554265 0.79542661 13125420
-0.15959577 0.23554265 0.79542661 13125420
-0.16126272 0.25026405 0.84514076 12797225
-0.15960518 0.26114511 0.88188601 12796455
-0.15093619 0.26114511 0.88188601 12796199
-0.14226721 0.26114511 0.88188601 12861732
-0.13359824 0.26114511 0.88188601 12796454
-0.12227119 0.25558883 0.86312246 12796453
-0.11378665 0.25558883 0.86312246 12664611
-0.10998221 0.26694834 0.90148348 12664355
-0.10112059 0.26694834 0.90148348 11680287
-0.090253338 0.26114511 0.88188601 12599074
-0.081584357 0.26114511 0.88188601 12271649
-0.069877237 0.25026405 0.84514076 11942432
-0.061569467 0.25026405 0.84514076 12599592
-0.053261697 0.25026405 0.84514076 12467236
-0.052628987 0.29299209 0.98943311 12270629
-0.039977621 0.27301535 0.92197174 12270627
-0.030914599 0.27301535 0.92197174 12074020
-0.022892127 0.28601608 0.96587515 11877152
-0.0137243 0.29299209 0.98943311 11811873
-0.003725528 0.27301535 0.92197174 12205606
0.0053374954 0.27301535 0.92197174 12074020
0.014735416 0.27936453 0.94341296 11679773
0.027902592 0.32466689 1.0963988 11615779
0.038680241 0.32466689 1.0963988 11089953
0 0 0 11286562
0.060235541 0.32466689 1.0963988 11942947
0.090603031 0.41423017 1.3988537 12205604
0.10435383 0.41423017 1.3988537 12533799
0.12232265 0.4290241 1.4488127 12926760
0.15295228 0.48050702 1.6226703 12860967
0.16890322 0.48050702 1.6226703 13058598
0.18485413 0.48050702 1.6226703 12730660
0.20080505 0.48050702 1.6226703 12467233
0.2463136 0.5460307 1.8439435 12598309
0.27703202 0.57203215 1.9317503 12927272
0.3453581 0.66737086 2.2537088 12534057
0.36751217 0.66737086 2.2537088 12270627
0.3506996 0.6006338 2.028338 11812131
0.5294832 0.8580482 2.8976254 11943462
0.55796695 0.8580482 2.8976254 12599592
0.58645076 0.8580482 2.8976254 12467749
0.39132199 0.5460307 1.8439435 12532515
0.40944803 0.5460307 1.8439435 12468517
0.39194289 0.5005281 1.6902815 12664868
0.40855846 0.5005281 1.6902815 12795940
0.425174 0.5005281 1.6902815 12729895
0.44178954 0.5005281 1.6902815 12599076
0.45840508 0.5005281 1.6902815 12729635
0.47502062 0.5005281 1.6902815 12730662
0 0 0 12599592
0 0 0 12403240
0 0 0 12599850
0.51982349 0.48050702 1.6226703 12534057
0.53577441 0.48050702 1.6226703 12533542
0.53050512 0.46202597 1.5602599 12599592
0.56767625 0.48050702 1.6226703 12730660
0.54039556 0.44491389 1.5024725 12337192
0.51687765 0.41423017 1.3988537 12206115
0.48088205 0.3753961 1.2677112 12337188
0.47839388 0.36402044 1.2292956 12600104
0.50580537 0.3753961 1.2677112 12796200
0.50256193 0.36402044 1.2292956 12796201
0.51464599 0.36402044 1.2292956 12075047
0.48283589 0.33368543 1.1268544 11943717
0.52296656 0.35331398 1.1931399 12009513
0.55089808 0.36402044 1.2292956 12337703
0.56298208 0.36402044 1.2292956 12271398
0.63257271 0.40042248 1.3522252 12206120
0.6458652 0.40042248 1.3522252 12271912
0.68188721 0.41423017 1.3988537 12337704
0.72048217 0.4290241 1.4488127 12469543
0.822891 0.48050702 1.6226703 12205604
0.67648542 0.38750565 1.3086051 12140071
0.66780692 0.3753961 1.2677112 12205865
0.68026859 0.3753961 1.2677112 12206632
0.92364031 0.5005281 1.6902815 12140326
0.94025582 0.5005281 1.6902815 11877927
0.99847448 0.52229023 1.763772 11747110
1.0158124 0.52229023 1.763772 12139813
1.0331504 0.52229023 1.763772 11419174
1.0504884 0.52229023 1.763772 11550502
0.98240024 0.48050702 1.6226703 11287333
0.99835116 0.48050702 1.6226703 11483427
1.014302 0.48050702 1.6226703 11418150
1.0302529 0.48050702 1.6226703 11484456
0.96870732 0.44491389 1.5024725 11746596
0.9834767 0.44491389 1.5024725 11614755
0.99824607 0.44491389 1.5024725 11352612
1.0519776 0.46202597 1.5602599 11352869
1.0277848 0.44491389 1.5024725 11680550
1.0053201 0.4290241 1.4488127 11156261
1.0573236 0.44491389 1.5024725 11157031
1.1133273 0.46202597 1.5602599 11156261
1.0868623 0.44491389 1.5024725 11156517
1.0256571 0.41423017 1.3988537 10959396
1.0394078 0.41423017 1.3988537 10631460
1.0907714 0.4290241 1.4488127 11024675
1.1459398 0.44491389 1.5024725 11025190
1.2053518 0.46202597 1.5602599 11221802
1.2695168 0.48050702 1.6226703 10893607
1.2854677 0.48050702 1.6226703 10696998
1.3014187 0.48050702 1.6226703 10565670
1.3173696 0.48050702 1.6226703 10762019
1.2820389 0.46202597 1.5602599 10697255
1.2973764 0.46202597 1.5602599 10959400
1.0342593 0.36402044 1.2292956 10696482
1.0463433 0.36402044 1.2292956 10631203
1.0584273 0.36402044 1.2292956 10237735
1.1039649 0.3753961 1.2677112 10237987
1.1164266 0.3753961 1.2677112 10566952
1.1288882 0.3753961 1.2677112 10565926
1.2174399 0.40042248 1.3522252 10434340
1.1538116 0.3753961 1.2677112 10761506
1.2440248 0.40042248 1.3522252 10499876
1.1787349 0.3753961 1.2677112 10237989
1.3144237 0.41423017 1.3988537 10172194
1.2036582 0.3753961 1.2677112 10434083
1.2161199 0.3753961 1.2677112 10436651
1.2285815 0.3753961 1.2677112 10306608
1.2410432 0.3753961 1.2677112 10175534
1.2535049 0.3753961 1.2677112 10108970
1.2659665 0.3753961 1.2677112 10043435
1.2784282 0.3753961 1.2677112 9912107
1.2517718 0.36402044 1.2292956 9780523
1.3902415 0.40042248 1.3522252 9780265
1.4519317 0.41423017 1.3988537 9911337
1.4656825 0.41423017 1.3988537 10173993
1.4794333 0.41423017 1.3988537 10108972
1.4931841 0.41423017 1.3988537 9978415
1.5607539 0.4290241 1.4488127 9978159
1.5206857 0.41423017 1.3988537 9977388
1.5344365 0.41423017 1.3988537 10174509
1.5481873 0.41423017 1.3988537 10174509
1.561938 0.41423017 1.3988537 10371118
1.5756888 0.41423017 1.3988537 9911081
1.5894396 0.41423017 1.3988537 9649194
1.6031904 0.41423017 1.3988537 9386537
0 0 0 9255208
0 0 0 9714473
0 0 0 9976360
0 0 0 9910567
0 0 0 9714730
0 0 0 9387305
0 0 0 9387048
0 0 0 9584427
0 0 0 9650220
0 0 0 9912620
0 0 0 9979183
0 0 0 9913135
0 0 0 9847601
0 0 0 9650481
0 0 0 9321773
0 0 0 786696
0 0 0 787468
0 0 0 655880
0 0 0 721417
-2.506206 0.65323412 2.1350925 590345
-2.485218 0.65323412 2.1350925 721675
-2.4642301 0.65323412 2.1350925 721675
-2.5789776 0.68952495 2.2537088 721418
-2.5568237 0.68952495 2.2537088 786954
-2.8515031 0.77571553 2.5354223 656138
-3.230377 0.88653201 2.8976254 787210
-3.4481928 0.95472682 3.1205199 721675
0 0 0 852489
0 0 0 721675
-2.0776279 0.5910213 1.9317503 787466
-1.6627467 0.47736341 1.5602599 1641232
-1.7846932 0.51714367 1.6902815 1509644
-2.0206602 0.5910213 1.9317503 1246730
-2.0016711 0.5910213 1.9317503 1444110
-0.94628 0.28207836 0.92197174 2758938
-0.93721694 0.28207836 0.92197174 4927277
-2.2688208 0.68952495 2.2537088 6175275
-1.092973 0.33544454 1.0963988 7225645
-0.93119133 0.28863832 0.94341296 6765352
-0.92191756 0.28863832 0.94341296 6831917
-0.89190185 0.28207836 0.92197174 6962735
-0.88283885 0.28207836 0.92197174 4136464
-0.87377578 0.28207836 0.92197174 1969677
-0.88482237 0.28863832 0.94341296 1772817
-0.91825831 0.30271825 0.98943311 1773073
-0.90853214 0.30271825 0.98943311 1707023
-0.89880592 0.30271825 0.98943311 1838867
-0.9113068 0.31028622 1.014169 2035219
-0.92444867 0.31824228 1.0401733 1838354
-0.91422373 0.31824228 1.0401733 1576208
-0.8813988 0.31028622 1.014169 1707281
-0.81063205 0.28863832 0.94341296 1838610
-0.80135828 0.28863832 0.94341296 1575438
-0.72467297 0.26407334 0.86312246 1509902
-0.7012679 0.25857183 0.84514076 1773073
-0.69296008 0.25857183 0.84514076 1970452
-0.68465233 0.25857183 0.84514076 1312523
-0.67634457 0.25857183 0.84514076 918023
-0.66803682 0.25857183 0.84514076 1312524
-0.659729 0.25857183 0.84514076 1967884
-0.65142125 0.25857183 0.84514076 2362642
-0.64311349 0.25857183 0.84514076 4135965
-0.63480568 0.25857183 0.84514076 4661531
-0.61371231 0.25329486 0.82789302 4726813
-0.61819017 0.25857183 0.84514076 4397333
-0.59743583 0.25329486 0.82789302 3872275
-0.6015746 0.25857183 0.84514076 3412244
-0.58115941 0.25329486 0.82789302 2625296
-0.57302117 0.25329486 0.82789302 2756112
-0.56488293 0.25329486 0.82789302 2427917
-0.56834352 0.25857183 0.84514076 2492686
-0.56003577 0.25857183 0.84514076 1902092
-0.55172801 0.25857183 0.84514076 2099985
-0.5434202 0.25857183 0.84514076 2033934
-0.54649782 0.26407334 0.86312246 2099212
-0.5497092 0.26981407 0.88188601 1967371
-0.54104024 0.26981407 0.88188601 1179910
-0.54420173 0.27580994 0.90148348 917766
-0.53534013 0.27580994 0.90148348 1049097
-0.52647847 0.27580994 0.90148348 1443338
-0.52938092 0.28207836 0.92197174 1640458
-0.52031785 0.28207836 0.92197174 2035215
-0.52314448 0.28863832 0.94341296 2561044
-0.5261057 0.29551065 0.96587515 8938576
-0.72325557 0.41371492 1.3522252 9134925
-1.0649447 0.62057245 2.028338 7753271
0 0 0 6042147
0 0 0 3480085
0 0 0 2955288
0 0 0 3743775
0 0 0 5779756
0 0 0 8863284
0 0 0 11158318
0 0 0 12141352
0 0 0 12666409
-1.9234627 1.3790499 4.5074177 12534569
-1.8791547 1.3790499 4.5074177 12403496
-1.8348465 1.3790499 4.5074177 12402983
-1.7905384 1.3790499 4.5074177 12337190
-1.4287338 1.1283134 3.687887 12140582
-0.76586497 0.62057245 2.028338 12206377
-0.62160522 0.51714367 1.6902815 12403242
-0.5006811 0.42798096 1.3988537 12731432
-0.37160474 0.32661706 1.0675462 12731432
-0.33468798 0.30271825 0.98943311 12928041
-0.32496181 0.30271825 0.98943311 12075045
-0.31523561 0.30271825 0.98943311 12402470
-0.29823542 0.29551065 0.96587515 12600357
-0.26363292 0.26981407 0.88188601 12403749
-0.24434045 0.25857183 0.84514076 12796709
-0.23603266 0.25857183 0.84514076 12731177
-0.23762599 0.26981407 0.88188601 12600359
-0.21941712 0.25857183 0.84514076 12862246
-0.19869116 0.24336173 0.79542661 13124391
-0.19087209 0.24336173 0.79542661 13058596
-0.18671407 0.24822897 0.81133515 12600616
-0.17873861 0.24822897 0.81133515 12731430
-0.17076315 0.24822897 0.81133515 12600614
-0.16278769 0.24822897 0.81133515 13190184
-0.15481222 0.24822897 0.81133515 13190182
-0.15295495 0.25857183 0.84514076 12928041
-0.15093619 0.26981407 0.88188601 13124649
-0.1454287 0.27580994 0.90148348 12862244
-0.13656709 0.27580994 0.90148348 12600100
-0.12770545 0.27580994 0.90148348 12599075
-0.11884384 0.27580994 0.90148348 12533283
-0.10998221 0.27580994 0.90148348 12402725
-0.10341879 0.28207836 0.92197174 12598817
-0.092258967 0.27580994 0.90148348 12533542
-0.083397344 0.27580994 0.90148348 12730148
-0.072915383 0.26981407 0.88188601 12008225
-0.065674096 0.27580994 0.90148348 11943207
-0.06087051 0.29551065 0.96587515 11877154
-0.052628987 0.30271825 0.98943311 12074018
-0.039977621 0.28207836 0.92197174 12139041
-0.029570486 0.26981407 0.88188601 11746082
-0.021851575 0.28207836 0.92197174 12270627
-0.012788552 0.28207836 0.92197174 12336422
-0.003725528 0.28207836 0.92197174 12074018
0.0053374954 0.28207836 0.92197174 11942947
0.014735416 0.28863832 0.94341296 11811873
0.027902592 0.33544454 1.0963988 11680035
0.038680241 0.33544454 1.0963988 12008486
0.048156369 0.32661706 1.0675462 12139811
0.069647342 0.38785776 1.2677112 12401443
0.090603031 0.42798096 1.3988537 11877668
0.10435383 0.42798096 1.3988537 12336420
0 0 0 12533026
0 0 0 12533025
0.16890322 0.49645793 1.6226703 12533283
0.18485413 0.49645793 1.6226703 12336161
0.22818756 0.56415671 1.8439435 12730405
0.28520525 0.65323412 2.1350925 12401956
0.32320404 0.68952495 2.2537088 12467749
0.3453581 0.68952495 2.2537088 12730665
0.33076096 0.62057245 2.028338 12795942
0.30495614 0.53962815 1.763772 12533538
