# .PCD v0.7 - Point Cloud Data file format
VERSION 0.7
FIELDS x y z rgb
SIZE 4 4 4 4
TYPE F F F U
COUNT 1 1 1 1
WIDTH 1278
HEIGHT 1
VIEWPOINT 0 0 0 1 0 0 0
POINTS 1278
DATA ascii
0.92364031 0.25129497 1.6902815 10896685
1.074578 0.28719425 1.9317503 10175020
1.0935673 0.28719425 1.9317503 10108970
1.1681844 0.30155399 2.028338 9715758
1.1315457 0.28719425 1.9317503 8469289
1.0982379 0.27413997 1.8439435 8010796
1.1695241 0.28719425 1.9317503 7486508
1.1885133 0.28719425 1.9317503 6765100
1.2075025 0.28719425 1.9317503 6174506
1.2878163 0.30155399 2.028338 6175018
1.2454808 0.28719425 1.9317503 6174250
1.26447 0.28719425 1.9317503 6304038
1.2251202 0.27413997 1.8439435 6108969
1.2432462 0.27413997 1.8439435 5450530
1.3214376 0.28719425 1.9317503 5187873
1.2794983 0.27413997 1.8439435 4858911
1.2976243 0.27413997 1.8439435 4728095
1.3157504 0.27413997 1.8439435 4727837
1.3973943 0.28719425 1.9317503 4727837
1.4163835 0.28719425 1.9317503 4597278
1.4353727 0.28719425 1.9317503 4596766
1.3882545 0.27413997 1.8439435 4596511
1.4063807 0.27413997 1.8439435 4465949
1.4245067 0.27413997 1.8439435 4465948
1.4426327 0.27413997 1.8439435 5057312
1.3972476 0.26222083 1.763772 5517088
1.4788848 0.27413997 1.8439435 5517089
1.4970108 0.27413997 1.8439435 5319711
1.515137 0.27413997 1.8439435 5319968
1.533263 0.27413997 1.8439435 5254433
1.4839373 0.26222083 1.763772 5451042
1.5695151 0.27413997 1.8439435 5188386
1.5876411 0.27413997 1.8439435 4793631
1.6057671 0.27413997 1.8439435 4794144
1.6238931 0.27413997 1.8439435 4531488
1.6420193 0.27413997 1.8439435 4530972
1.6601453 0.27413997 1.8439435 4662558
1.605303 0.26222083 1.763772 4596767
1.6963974 0.27413997 1.8439435 4596766
1.7145234 0.27413997 1.8439435 4465693
1.7326494 0.27413997 1.8439435 4269087
1.7507756 0.27413997 1.8439435 4137245
1.6919928 0.26222083 1.763772 4203294
1.6381086 0.25129497 1.6902815 4136732
1.5885353 0.24124318 1.6226703 3940126
1.6044862 0.24124318 1.6226703 3678237
1.6204371 0.24124318 1.6226703 3677979
1.6363881 0.24124318 1.6226703 3808793
1.652339 0.24124318 1.6226703 3610903
1.7378019 0.25129497 1.6902815 3611159
1.8306965 0.26222083 1.763772 3874072
1.8480344 0.26222083 1.763772 4005656
1.7876486 0.25129497 1.6902815 5057312
1.8827103 0.26222083 1.763772 5976869
1.9000483 0.26222083 1.763772 6042404
1.9173863 0.26222083 1.763772 5647906
1.9347242 0.26222083 1.763772 5517092
1.9520621 0.26222083 1.763772 6042921
1.9694002 0.26222083 1.763772 6372397
1.9867381 0.26222083 1.763772 6700333
2.004076 0.26222083 1.763772 6700849
2.021414 0.26222083 1.763772 6634540
2.0387518 0.26222083 1.763772 6831405
2.0560899 0.26222083 1.763772 6634540
2.1676745 0.27413997 1.8439435 6569262
2.1858006 0.27413997 1.8439435 6502699
2.2039268 0.27413997 1.8439435 6634286
2.3278649 0.28719425 1.9317503 6502956
2.7379966 0.33505997 2.2537088 6371368
4.1402254 0.50258994 3.380563 6503470
0 0 0 6898995
0 0 0 7491132
0 0 0 7951425
0 0 0 8213826
0 0 0 8279104
0 0 0 8475714
0 0 0 8213055
0 0 0 4400409
0 0 0 1836803
-4.4014053 0.58453202 3.687887 1180938
-4.3651533 0.58453202 3.687887 1312524
-3.9681594 0.53582102 3.380563 2428692
-4.2926493 0.58453202 3.687887 3216914
-4.2563972 0.58453202 3.687887 3282452
-4.6421599 0.64298528 4.0566759 3217172
-4.1838932 0.58453202 3.687887 3348501
-4.1476407 0.58453202 3.687887 3479574
-4.1113887 0.58453202 3.687887 3414035
-4.0751367 0.58453202 3.687887 3545878
-4.0388846 0.58453202 3.687887 3283222
-4.0026326 0.58453202 3.687887 3217429
-3.9663804 0.58453202 3.687887 3348245
-3.9301283 0.58453202 3.687887 3217429
-3.8938763 0.58453202 3.687887 3347732
-4.2433867 0.64298528 4.0566759 3151379
-3.821372 0.58453202 3.687887 2954258
-4.1636324 0.64298528 4.0566759 2625295
-4.123755 0.64298528 4.0566759 1246730
-4.5376415 0.71442807 4.5074177 1115915
-5.0550003 0.80373156 5.0708447 1115915
-5.0051537 0.80373156 5.0708447 1115145
-4.955307 0.80373156 5.0708447 1180938
-4.9054604 0.80373156 5.0708447 1246477
-4.3161011 0.71442807 4.5074177 1312013
-3.8446138 0.64298528 4.0566759 1115145
-3.8047364 0.64298528 4.0566759 918538
-3.7648592 0.64298528 4.0566759 918025
-3.7249818 0.64298528 4.0566759 852489
-3.6851046 0.64298528 4.0566759 721418
-3.6452272 0.64298528 4.0566759 655880
-3.60535 0.64298528 4.0566759 984075
-3.5654726 0.64298528 4.0566759 984075
-3.5255952 0.64298528 4.0566759 1246731
-3.485718 0.64298528 4.0566759 1246731
-3.8287117 0.71442807 4.5074177 1180938
-3.7844038 0.71442807 4.5074177 1312269
-3.7400956 0.71442807 4.5074177 1246731
-3.6957874 0.71442807 4.5074177 1246988
-4.107914 0.80373156 5.0708447 1378317
-4.0580673 0.80373156 5.0708447 1114890
-3.5628631 0.71442807 4.5074177 1773074
-3.5185549 0.71442807 4.5074177 2166803
-3.474247 0.71442807 4.5074177 2035474
-3.858681 0.80373156 5.0708447 2166803
-3.8088343 0.80373156 5.0708447 2232083
-3.7589877 0.80373156 5.0708447 2495255
-3.709141 0.80373156 5.0708447 2561046
-4.1820507 0.91855031 5.7952509 2495252
-4.125083 0.91855031 5.7952509 2364437
-3.5596011 0.80373156 5.0708447 2167060
-3.5097547 0.80373156 5.0708447 1970194
-3.459908 0.80373156 5.0708447 852230
-3.4100614 0.80373156 5.0708447 2101786
-3.3602147 0.80373156 5.0708447 2231313
-3.3103681 0.80373156 5.0708447 2035215
-3.2605214 0.80373156 5.0708447 1575436
-3.2106748 0.80373156 5.0708447 1115145
-3.1608281 0.80373156 5.0708447 1246731
-3.5554073 0.91855031 5.7952509 1443854
-3.0611348 0.80373156 5.0708447 1707023
-3.0112882 0.80373156 5.0708447 1246217
-2.9614415 0.80373156 5.0708447 1180681
-3.3275371 0.91855031 5.7952509 1771787
-2.8617485 0.80373156 5.0708447 2429460
-2.8119018 0.80373156 5.0708447 3151638
-2.7620552 0.80373156 5.0708447 3743000
-2.7122085 0.80373156 5.0708447 4136730
-3.0426991 0.91855031 5.7952509 4662044
-2.9857316 0.91855031 5.7952509 5187871
-2.9287641 0.91855031 5.7952509 5778977
-2.5128219 0.80373156 5.0708447 5910305
-0.41049588 0.13395526 0.84514076 6172708
-0.38610059 0.12859705 0.81133515 7683630
-0.37812513 0.12859705 0.81133515 6631460
-0.37014967 0.12859705 0.81133515 5712160
-0.32924926 0.1169064 0.73757738 4530207
-0.31070065 0.11280444 0.71169752 2561305
-0.30370465 0.11280444 0.71169752 918539
-0.28665072 0.10898055 0.68757218 721675
-0.26634869 0.1037073 0.65430254 721675
-0.25579119 0.10206115 0.64391679 721675
-0.24556363 0.10046645 0.63385558 984847
-0.2393328 0.10046645 0.63385558 786696
-0.23310196 0.10046645 0.63385558 918284
-0.22338082 0.098920807 0.62410396 1247247
-0.21724585 0.098920807 0.62410396 786696
-0.21111088 0.098920807 0.62410396 655625
-0.2049759 0.098920807 0.62410396 721162
-0.19884093 0.098920807 0.62410396 918798
-0.19270596 0.098920807 0.62410396 852486
-0.186571 0.098920807 0.62410396 919052
-0.17504987 0.095967948 0.605474 787467
-0.16909803 0.095967948 0.605474 1115663
-0.1631462 0.095967948 0.605474 1378063
-0.15719436 0.095967948 0.605474 590602
-0.15124252 0.095967948 0.605474 655880
-0.14749205 0.097422004 0.61464781 721418
-0.14145005 0.097422004 0.61464781 786955
-0.13142544 0.094556652 0.59656996 721161
-0.12556113 0.094556652 0.59656996 786696
-0.11627692 0.091855034 0.57952511 655625
-0.11058016 0.091855034 0.57952511 983822
-0.1048834 0.091855034 0.57952511 720903
-0.099186644 0.091855034 0.57952511 590089
-0.094844811 0.093186267 0.587924 1444626
-0.089065492 0.093186267 0.587924 655370
-0.083286174 0.093186267 0.587924 524296
-0.077506848 0.093186267 0.587924 590089
-0.071727529 0.093186267 0.587924 524296
-0.066918038 0.094556652 0.59656996 655367
-0.061053731 0.094556652 0.59656996 721162
-0.05518942 0.094556652 0.59656996 655625
-0.049325112 0.094556652 0.59656996 655625
-0.043460801 0.094556652 0.59656996 590088
-0.037596494 0.094556652 0.59656996 720903
-0.031732183 0.094556652 0.59656996 851976
-0.025867874 0.094556652 0.59656996 852489
-0.020302124 0.095967948 0.605474 917512
-0.014139255 0.094556652 0.59656996 852489
-0.0082749454 0.094556652 0.59656996 787209
-0.0024106358 0.094556652 0.59656996 851975
0 0 0 917514
0 0 0 917512
0 0 0 1443854
0 0 0 2627098
0 0 0 6107953
0 0 0 9386287
0 0 0 10959400
0.061760433 0.13122149 0.82789302 11615525
0.069898658 0.13122149 0.82789302 11877666
0.079662651 0.13395526 0.84514076 12009000
0.091795221 0.1397794 0.88188601 11812134
0.1004642 0.1397794 0.88188601 12009000
0.11155836 0.14288561 0.90148348 12205606
0.12041999 0.14288561 0.90148348 12403496
0.12928161 0.14288561 0.90148348 12338730
0.13814323 0.14288561 0.90148348 12666409
0.14700486 0.14288561 0.90148348 12469803
0.17107296 0.15682568 0.98943311 12666668
0.20591013 0.17860702 1.1268544 12536108
0 0 0 12601389
0 0 0 12798508
0.25320834 0.1891133 1.1931399 12667182
0.26493695 0.1891133 1.1931399 12667695
0.27666557 0.1891133 1.1931399 12602156
0.29713342 0.19484401 1.2292956 12667436
0.3188805 0.20093289 1.2677112 12864301
0.33134216 0.20093289 1.2677112 12667436
0.34380382 0.20093289 1.2677112 12536107
0.36775792 0.2074146 1.3086051 12799022
0.38062155 0.2074146 1.3086051 12799278
0.39348519 0.2074146 1.3086051 12667693
0.39365044 0.20093289 1.2677112 12537135
0.4061121 0.20093289 1.2677112 12471342
0.41857377 0.20093289 1.2677112 12602928
0.43103543 0.20093289 1.2677112 12536109
0.47306353 0.21432841 1.3522252 12012588
0.50312686 0.22171904 1.3988537 12077613
0.51687765 0.22171904 1.3988537 12667949
0.56993431 0.23814268 1.5024725 12142892
0.75176179 0.30618346 1.9317503 11945773
0.770751 0.30618346 1.9317503 12011053
0.7897402 0.30618346 1.9317503 12012336
0.67933273 0.2571941 1.6226703 11946543
0.66854197 0.24730203 1.5602599 11749678
0.68387938 0.24730203 1.5602599 11289899
0.72718549 0.2571941 1.6226703 11093550
0.74313641 0.2571941 1.6226703 11224363
0.67775649 0.22963758 1.4488127 11289900
0.69199842 0.22963758 1.4488127 11289643
0.73239738 0.23814268 1.5024725 11157543
0.74716675 0.23814268 1.5024725 11289644
0.79124135 0.24730203 1.5602599 11355437
0.80657881 0.24730203 1.5602599 11551789
0.85479283 0.2571941 1.6226703 11486510
0.90702474 0.26791051 1.6902815 11289644
0.92364031 0.26791051 1.6902815 11420715
1.0257336 0.29226601 1.8439435 11092779
1.0935673 0.30618346 1.9317503 10633770
1.1125565 0.30618346 1.9317503 10765354
1.0801117 0.29226601 1.8439435 10699306
1.0982379 0.29226601 1.8439435 10698792
1.1163639 0.29226601 1.8439435 10567720
1.1885133 0.30618346 1.9317503 10633513
1.2075025 0.30618346 1.9317503 10567720
1.2878163 0.32149264 2.028338 10305064
1.2454808 0.30618346 1.9317503 10371372
1.2069941 0.29226601 1.8439435 10436650
1.1230268 0.26791051 1.6902815 10436136
1.1396424 0.26791051 1.6902815 10174507
1.1562579 0.26791051 1.6902815 9519150
1.1728734 0.26791051 1.6902815 8863791
1.189489 0.26791051 1.6902815 8142382
1.2061045 0.26791051 1.6902815 7618352
1.3338765 0.29226601 1.8439435 6896175
1.4163835 0.30618346 1.9317503 6371114
1.3701285 0.29226601 1.8439435 6042920
1.3278956 0.27955881 1.763772 5977126
1.2891822 0.26791051 1.6902815 5516577
1.3625716 0.27955881 1.763772 5516063
1.3799095 0.27955881 1.763772 6436649
1.3972476 0.27955881 1.763772 6699305
1.4788848 0.29226601 1.8439435 6633257
1.4970108 0.29226601 1.8439435 6501673
1.515137 0.29226601 1.8439435 6502700
1.533263 0.29226601 1.8439435 6765874
1.551389 0.29226601 1.8439435 6700333
1.5695151 0.29226601 1.8439435 6831406
1.5876411 0.29226601 1.8439435 6896942
1.6057671 0.29226601 1.8439435 6699309
1.5532892 0.27955881 1.763772 6437166
1.5706271 0.27955881 1.763772 5977646
1.6601453 0.29226601 1.8439435 5385766
1.6782713 0.29226601 1.8439435 5057060
1.6963974 0.29226601 1.8439435 4793631
1.7145234 0.29226601 1.8439435 4728351
1.7326494 0.29226601 1.8439435 4728349
1.7507756 0.29226601 1.8439435 4727838
1.7689016 0.29226601 1.8439435 4596765
1.6381086 0.26791051 1.6902815 4793890
1.6547242 0.26791051 1.6902815 4597535
1.6044862 0.2571941 1.6226703 4662558
1.6204371 0.2571941 1.6226703 4793886
1.6363881 0.2571941 1.6226703 4860194
1.652339 0.2571941 1.6226703 4794658
1.6682899 0.2571941 1.6226703 4663073
1.6842408 0.2571941 1.6226703 4663585
1.7710329 0.26791051 1.6902815 4729633
1.7876486 0.26791051 1.6902815 5649446
1.8042641 0.26791051 1.6902815 6240553
1.9000483 0.27955881 1.763772 6634542
2.0045402 0.29226601 1.8439435 6370601
2.0226662 0.29226601 1.8439435 6174762
1.9520621 0.27955881 1.763772 6569518
1.9694002 0.27955881 1.763772 6569261
1.9867381 0.27955881 1.763772 6765870
2.004076 0.27955881 1.763772 6700846
2.021414 0.27955881 1.763772 6568747
2.0387518 0.27955881 1.763772 6766126
2.0560899 0.27955881 1.763772 6503724
2.1676745 0.29226601 1.8439435 6503724
2.1858006 0.29226601 1.8439435 6437418
2.2039268 0.29226601 1.8439435 6371625
2.4442582 0.32149264 2.028338 6240298
2.899055 0.37822661 2.3862798 6305836
0 0 0 6174763
0 0 0 6306602
0 0 0 6766897
0 0 0 7358004
0 0 0 7751992
0 0 0 7818814
0 0 0 7753021
0 0 0 7819582
0 0 0 4531996
0 0 0 1902597
-4.4014053 0.6207841 3.687887 1181452
-4.3651533 0.6207841 3.687887 1115661
-4.3289013 0.6207841 3.687887 2101012
-4.2926493 0.6207841 3.687887 2954518
-4.2563972 0.6207841 3.687887 3151638
-4.6421599 0.68286258 4.0566759 3020309
-4.1838932 0.6207841 3.687887 3217429
-4.1476407 0.6207841 3.687887 3217686
-4.1113887 0.6207841 3.687887 3086100
-4.0751367 0.6207841 3.687887 3085844
-4.0388846 0.6207841 3.687887 3150866
-4.0026326 0.6207841 3.687887 2954002
-3.9663804 0.6207841 3.687887 2888723
-3.9301283 0.6207841 3.687887 2757139
-3.8938763 0.6207841 3.687887 2822930
-3.5361555 0.5690521 3.380563 2888466
-3.821372 0.6207841 3.687887 2757137
-3.78512 0.6207841 3.687887 2559760
-4.123755 0.68286258 4.0566759 1509643
-4.0838776 0.68286258 4.0566759 1181708
-4.4933338 0.75873619 4.5074177 1115915
-5.0051537 0.85357821 5.0708447 1181451
-4.955307 0.85357821 5.0708447 1312270
-4.3604093 0.75873619 4.5074177 1312267
-3.884491 0.68286258 4.0566759 1180427
-3.8446138 0.68286258 4.0566759 1049098
-3.8047364 0.68286258 4.0566759 852746
-3.7648592 0.68286258 4.0566759 721674
-3.7249818 0.68286258 4.0566759 590089
-3.3500948 0.6207841 3.687887 590089
-3.3138428 0.6207841 3.687887 655624
-3.2775905 0.6207841 3.687887 852489
-3.5654726 0.68286258 4.0566759 984075
-3.5255952 0.68286258 4.0566759 984075
-3.485718 0.68286258 4.0566759 1115403
-3.4458406 0.68286258 4.0566759 1049866
-3.7844038 0.75873619 4.5074177 1312524
-3.7400956 0.75873619 4.5074177 1772817
-3.6957874 0.75873619 4.5074177 2101782
-4.107914 0.85357821 5.0708447 2035217
-4.0580673 0.85357821 5.0708447 1903890
-3.5628631 0.75873619 4.5074177 1246988
-3.5185549 0.75873619 4.5074177 2035732
-3.474247 0.75873619 4.5074177 2101010
-3.858681 0.85357821 5.0708447 2232596
-3.8088343 0.85357821 5.0708447 2298389
-3.7589877 0.85357821 5.0708447 2364695
-3.709141 0.85357821 5.0708447 2495766
-4.1820507 0.97551793 5.7952509 2495253
-4.125083 0.97551793 5.7952509 2363924
-3.5596011 0.85357821 5.0708447 2035218
-3.5097547 0.85357821 5.0708447 1970452
-3.459908 0.85357821 5.0708447 1904146
-3.4100614 0.85357821 5.0708447 2890780
-3.3602147 0.85357821 5.0708447 2033672
-3.3103681 0.85357821 5.0708447 1443853
-3.2605214 0.85357821 5.0708447 1115145
-3.2106748 0.85357821 5.0708447 852744
-3.612375 0.97551793 5.7952509 1049352
-3.5554073 0.97551793 5.7952509 1246730
-3.4984398 0.97551793 5.7952509 1772817
-3.4414723 0.97551793 5.7952509 1180424
-2.9614415 0.85357821 5.0708447 1246731
-3.3275371 0.97551793 5.7952509 1640460
-3.2705696 0.97551793 5.7952509 2428690
-2.8119018 0.85357821 5.0708447 3151638
-2.7620552 0.85357821 5.0708447 3611414
-2.7122085 0.85357821 5.0708447 4005914
-2.6623619 0.85357821 5.0708447 4596765
-2.6125152 0.85357821 5.0708447 5187616
-2.5626686 0.85357821 5.0708447 6436391
-0.51545066 0.17509297 1.0401733 7749425
-0.41049588 0.14226303 0.84514076 7025447
-0.39398021 0.13935971 0.82789302 6566179
-0.38584197 0.13935971 0.82789302 5515297
-0.37770376 0.13935971 0.82789302 4793117
-0.36956552 0.13935971 0.82789302 4464928
-0.32199883 0.12415683 0.73757738 3216921
-0.30370465 0.11980045 0.71169752 1049353
-0.27278051 0.11013912 0.65430254 918282
-0.26634869 0.11013912 0.65430254 786698
-0.25579119 0.10839088 0.64391679 655880
-0.24556363 0.10669728 0.63385558 1181456
-0.2393328 0.10669728 0.63385558 786697
-0.23310196 0.10669728 0.63385558 853261
-0.22687113 0.10669728 0.63385558 1180684
-0.21724585 0.10505578 0.62410396 918284
-0.21111088 0.10505578 0.62410396 720905
-0.2049759 0.10505578 0.62410396 721160
-0.19884093 0.10505578 0.62410396 590089
-0.19270596 0.10505578 0.62410396 655883
-0.186571 0.10505578 0.62410396 1049354
-0.18043603 0.10505578 0.62410396 655625
-0.16909803 0.10191979 0.605474 720905
-0.16074699 0.10042096 0.59656996 852491
-0.15488268 0.10042096 0.59656996 655882
-0.15124252 0.10191979 0.605474 917771
-0.14749205 0.10346401 0.61464781 1378317
-0.14145005 0.10346401 0.61464781 1050126
-0.13142544 0.10042096 0.59656996 983818
-0.1237414 0.098965585 0.587924 852489
-0.11627692 0.097551793 0.57952511 786697
-0.11058016 0.097551793 0.57952511 985105
-0.10640345 0.098965585 0.587924 786696
-0.10062413 0.098965585 0.587924 721418
-0.094844811 0.098965585 0.587924 1115145
-0.089065492 0.098965585 0.587924 590089
-0.083286174 0.098965585 0.587924 655882
-0.077506848 0.098965585 0.587924 655369
-0.071727529 0.098965585 0.587924 720903
-0.066918038 0.10042096 0.59656996 655623
-0.061964981 0.10191979 0.605474 721161
-0.056013145 0.10191979 0.605474 589831
-0.050061308 0.10191979 0.605474 655368
-0.043460801 0.10042096 0.59656996 720904
-0.037596494 0.10042096 0.59656996 655368
-0.033196747 0.10505578 0.62410396 786698
0 0 0 786697
0 0 0 786696
0 0 0 983305
0 0 0 1574670
0 0 0 3546655
0 0 0 6435629
0 0 0 9189164
0 0 0 10631204
0 0 0 11222052
0 0 0 11418663
0 0 0 11812134
0 0 0 11746341
0.061760433 0.13935971 0.82789302 12075045
0.067157529 0.13389462 0.79542661 12009765
0.078036882 0.13935971 0.82789302 12075045
0.086175106 0.13935971 0.82789302 11811873
0.1004642 0.14844838 0.88188601 12009767
0.11155836 0.15174723 0.90148348 12272424
0.12041999 0.15174723 0.90148348 12469803
0.13221982 0.15519603 0.92197174 12338217
0.13814323 0.15174723 0.90148348 12338217
0.15034588 0.15519603 0.92197174 12469543
0.16311608 0.15880525 0.94341296 12600875
0 0 0 12404264
0 0 0 12666668
0 0 0 12600875
0.25320834 0.20084192 1.1931399 12536109
0.26493695 0.20084192 1.1931399 12535596
0.28504938 0.20692803 1.2292956 12863016
0.30641884 0.21339455 1.2677112 12929327
0.3188805 0.21339455 1.2677112 12798254
0.33134216 0.21339455 1.2677112 12994603
0.35489425 0.22027825 1.3086051 12864300
0.36775792 0.22027825 1.3086051 12797995
0.38062155 0.22027825 1.3086051 12732458
0.39348519 0.22027825 1.3086051 12405037
0.40634885 0.22027825 1.3086051 12733230
0.4061121 0.21339455 1.2677112 12470827
0.41857377 0.21339455 1.2677112 12274479
0.44493979 0.22027825 1.3086051 12536881
0.47306353 0.22762084 1.3522252 12405295
0.50312686 0.23546983 1.3988537 12405293
0.53533757 0.24387948 1.4488127 12273708
0.56993431 0.25291207 1.5024725 12470572
0.63147992 0.27314502 1.6226703 12733489
0.64743084 0.27314502 1.6226703 12272937
0.66338181 0.27314502 1.6226703 12142893
0.65320456 0.26263946 1.5602599 11815214
0.69528365 0.27314502 1.6226703 11552300
0.71123457 0.27314502 1.6226703 11289641
0.72718549 0.27314502 1.6226703 11093033
0.71455425 0.26263946 1.5602599 10961706
0.70285863 0.25291207 1.5024725 11223850
0.717628 0.25291207 1.5024725 11354406
0.73239738 0.25291207 1.5024725 11289642
0.74716675 0.25291207 1.5024725 11420203
0.79124135 0.26263946 1.5602599 11354923
0.80657881 0.26263946 1.5602599 11091752
0.85479283 0.27314502 1.6226703 11748654
0.9464606 0.29689676 1.763772 11289131
0.96379858 0.29689676 1.763772 11092265
1.0257336 0.31039205 1.8439435 10961195
0.99847448 0.29689676 1.763772 11026989
1.0158124 0.29689676 1.763772 10960935
1.0331504 0.29689676 1.763772 10961447
1.0982379 0.31039205 1.8439435 10698277
1.1163639 0.31039205 1.8439435 10764329
1.1344899 0.31039205 1.8439435 10763816
1.1526159 0.31039205 1.8439435 10764331
1.170742 0.31039205 1.8439435 10763818
1.188868 0.31039205 1.8439435 10764330
1.1545161 0.29689676 1.763772 10633257
1.1230268 0.28452605 1.6902815 10633516
1.1396424 0.28452605 1.6902815 10698025
1.1562579 0.28452605 1.6902815 10567210
1.1728734 0.28452605 1.6902815 10305321
1.189489 0.28452605 1.6902815 10370341
1.2061045 0.28452605 1.6902815 10436393
1.22272 0.28452605 1.6902815 10567208
1.3520025 0.31039205 1.8439435 10173739
1.3701285 0.31039205 1.8439435 10173736
1.3278956 0.29689676 1.763772 10108201
1.2891822 0.28452605 1.6902815 9977130
1.3625716 0.29689676 1.763772 9780524
1.3799095 0.29689676 1.763772 9650479
1.3972476 0.29689676 1.763772 9389364
1.4145855 0.29689676 1.763772 9322543
1.4319234 0.29689676 1.763772 9453874
1.515137 0.31039205 1.8439435 9257520
1.6062754 0.32517263 1.9317503 9519920
1.551389 0.31039205 1.8439435 9519407
1.5695151 0.31039205 1.8439435 9322543
1.5876411 0.31039205 1.8439435 8798769
1.6057671 0.31039205 1.8439435 8405810
1.5532892 0.29689676 1.763772 7749680
1.5706271 0.29689676 1.763772 7224880
1.6601453 0.31039205 1.8439435 7224880
1.6782713 0.31039205 1.8439435 7355950
1.6963974 0.31039205 1.8439435 7290413
1.7145234 0.31039205 1.8439435 7291698
1.7326494 0.31039205 1.8439435 7225653
1.6746548 0.29689676 1.763772 6832181
1.7689016 0.31039205 1.8439435 6174766
1.7870276 0.31039205 1.8439435 5517607
1.8051536 0.31039205 1.8439435 4991524
1.8232797 0.31039205 1.8439435 4728096
1.7613447 0.29689676 1.763772 4662558
1.6363881 0.27314502 1.6226703 4596766
1.652339 0.27314502 1.6226703 4596511
1.6682899 0.27314502 1.6226703 4596768
1.6842408 0.27314502 1.6226703 4531487
1.7001917 0.27314502 1.6226703 4859679
1.7161427 0.27314502 1.6226703 5648675
1.8042641 0.28452605 1.6902815 6174502
1.9000483 0.29689676 1.763772 6371625
2.0999944 0.32517263 1.9317503 6173989
2.0226662 0.31039205 1.8439435 6239782
2.0407922 0.31039205 1.8439435 6568747
1.9694002 0.29689676 1.763772 6765356
1.9867381 0.29689676 1.763772 6896942
2.004076 0.29689676 1.763772 6831919
2.021414 0.29689676 1.763772 6962735
2.0387518 0.29689676 1.763772 7159599
2.1495485 0.31039205 1.8439435 6896684
2.1676745 0.31039205 1.8439435 6766383
2.2898865 0.32517263 1.9317503 6503726
2.4243195 0.34143129 2.028338 6503469
2.8755977 0.40168384 2.3862798 6634540
3.7910719 0.52527893 3.1205199 6765102
3.8217468 0.52527893 3.1205199 6699309
0 0 0 6634286
0 0 0 6568493
0 0 0 6634798
0 0 0 6767152
0 0 0 7030581
0 0 0 7227194
0 0 0 7358265
0 0 0 4663840
0 0 0 1771270
-4.4014053 0.65703624 3.687887 1246474
-4.3651533 0.65703624 3.687887 1378060
-3.9681594 0.60228318 3.380563 1969682
-4.2926493 0.65703624 3.687887 2692116
-4.2563972 0.65703624 3.687887 3020051
-4.2201452 0.65703624 3.687887 3085844
-3.8352351 0.60228318 3.380563 2888723
-3.8020041 0.60228318 3.380563 2954516
-4.1113887 0.65703624 3.687887 2691859
-4.0751367 0.65703624 3.687887 2954774
-4.0388846 0.65703624 3.687887 3020567
-4.4028959 0.72273988 4.0566759 2561559
-4.3630185 0.72273988 4.0566759 2494996
-3.9301283 0.65703624 3.687887 2757139
-3.8938763 0.65703624 3.687887 2822932
-3.8576241 0.65703624 3.687887 2757138
-3.821372 0.65703624 3.687887 2560530
-3.78512 0.65703624 3.687887 2559760
-4.5819497 0.80304432 4.5074177 2297104
-4.5376415 0.80304432 4.5074177 1378059
-4.4933338 0.80304432 4.5074177 1246731
-4.4490256 0.80304432 4.5074177 1115661
-4.4047174 0.80304432 4.5074177 984075
-4.3604093 0.80304432 4.5074177 918282
-4.3161011 0.80304432 4.5074177 983818
-4.2717929 0.80304432 4.5074177 983306
-3.8047364 0.72273988 4.0566759 918025
-3.7648592 0.72273988 4.0566759 786696
-3.7249818 0.72273988 4.0566759 720903
-3.3500948 0.65703624 3.687887 852489
-3.3138428 0.65703624 3.687887 852489
-3.2775905 0.65703624 3.687887 984075
-3.5654726 0.72273988 4.0566759 852489
-3.5255952 0.72273988 4.0566759 1181454
-3.485718 0.72273988 4.0566759 1641488
-3.4458406 0.72273988 4.0566759 1707025
-3.7844038 0.80304432 4.5074177 2101780
-3.7400956 0.80304432 4.5074177 2166803
-3.6957874 0.80304432 4.5074177 2101010
-3.6514795 0.80304432 4.5074177 2101010
-4.0580673 0.9034248 5.0708447 2101012
-4.0082207 0.9034248 5.0708447 1773075
-3.9583743 0.9034248 5.0708447 2035474
-3.9085276 0.9034248 5.0708447 1838352
-3.858681 0.9034248 5.0708447 1838096
-3.8088343 0.9034248 5.0708447 1903887
-3.7589877 0.9034248 5.0708447 1969423
-3.709141 0.9034248 5.0708447 1904401
-3.6592944 0.9034248 5.0708447 1838608
-3.6094477 0.9034248 5.0708447 1772816
-3.5596011 0.9034248 5.0708447 1707024
-3.5097547 0.9034248 5.0708447 1838610
-3.459908 0.9034248 5.0708447 1837840
-3.4100614 0.9034248 5.0708447 1970452
-3.3602147 0.9034248 5.0708447 1640203
-3.3103681 0.9034248 5.0708447 1444109
-3.2605214 0.9034248 5.0708447 1180936
-3.2106748 0.9034248 5.0708447 1115915
-3.612375 1.0324855 5.7952509 1509903
-3.5554073 1.0324855 5.7952509 1838610
-3.4984398 1.0324855 5.7952509 1969424
-3.4414723 1.0324855 5.7952509 1115145
-3.3845046 1.0324855 5.7952509 1114888
-3.3275371 1.0324855 5.7952509 1705741
-3.2705696 1.0324855 5.7952509 2232082
-3.2136018 1.0324855 5.7952509 2758167
-2.7620552 0.9034248 5.0708447 3545367
-2.7122085 0.9034248 5.0708447 3743003
-2.6623619 0.9034248 5.0708447 4596765
-2.6125152 0.9034248 5.0708447 7225907
-2.5626686 0.9034248 5.0708447 6828835
-0.44672388 0.16060886 0.90148348 5778727
-0.41049588 0.15057079 0.84514076 4857620
-0.40218809 0.15057079 0.84514076 4069651
-0.38584197 0.14749794 0.82789302 4858654
-0.37770376 0.14749794 0.82789302 4727326
-0.36956552 0.14749794 0.82789302 4662049
-0.36142731 0.14749794 0.82789302 4400162
-0.30912793 0.12906069 0.72440636 1049609
-0.28665072 0.12249829 0.68757218 853004
-0.26634869 0.11657094 0.65430254 787468
-0.25579119 0.11472061 0.64391679 787468
-0.24556363 0.1129281 0.63385558 852489
-0.2393328 0.1129281 0.63385558 852747
-0.23310196 0.1129281 0.63385558 1049870
-0.22687113 0.1129281 0.63385558 1181454
-0.22064032 0.1129281 0.63385558 852489
-0.21111088 0.11119075 0.62410396 720905
-0.2049759 0.11119075 0.62410396 720905
-0.19884093 0.11119075 0.62410396 786698
-0.19270596 0.11119075 0.62410396 852491
-0.186571 0.11119075 0.62410396 1378062
-0.18043603 0.11119075 0.62410396 590602
-0.17166013 0.10950603 0.61464781 786954
-0.16074699 0.10628527 0.59656996 786696
-0.15488268 0.10628527 0.59656996 655882
-0.15124252 0.10787162 0.605474 1312527
-0.14749205 0.10950603 0.61464781 852491
-0.13933885 0.10787162 0.605474 655626
-0.13142544 0.10628527 0.59656996 721675
-0.1237414 0.1047449 0.587924 918797
-0.11796208 0.1047449 0.587924 984076
-0.11218277 0.1047449 0.587924 787211
-0.10640345 0.1047449 0.587924 721160
-0.10062413 0.1047449 0.587924 589832
-0.094844811 0.1047449 0.587924 786696
-0.089065492 0.1047449 0.587924 655371
-0.083286174 0.1047449 0.587924 655882
-0.077506848 0.1047449 0.587924 590089
-0.071727529 0.1047449 0.587924 720905
-0.067916818 0.10787162 0.605474 721161
-0.061964981 0.10787162 0.605474 655882
0 0 0 655368
0 0 0 786698
0 0 0 851977
0 0 0 984076
0 0 0 1509392
0 0 0 3546143
0 0 0 7025711
0 0 0 9516845
0 0 0 10893607
0 0 0 11352868
0 0 0 11483943
0 0 0 11221284
0.029497026 0.2064971 1.1590502 11221283
0.042093202 0.21257055 1.1931399 11549219
0.053821824 0.21257055 1.1931399 11418146
0.065550439 0.21257055 1.1931399 11680548
0.075071089 0.2064971 1.1590502 12008484
0 0 0 11943462
0.071354873 0.15057079 0.84514076 12009000
0.076476142 0.14454797 0.81133515 12009513
0.084451608 0.14454797 0.81133515 12140840
0.094313331 0.14749794 0.82789302 12337703
0.11155836 0.16060886 0.90148348 12469030
0.12041999 0.16060886 0.90148348 12599592
0.13221982 0.16425906 0.92197174 12272426
0.14128286 0.16425906 0.92197174 12075560
0.15034588 0.16425906 0.92197174 12666922
0.16311608 0.16807903 0.94341296 12863018
0 0 0 12469803
0 0 0 12666409
0.23458031 0.2064971 1.1590502 12666409
0.25320834 0.21257055 1.1931399 12535336
0.27296534 0.21901207 1.2292956 12600875
0.28504938 0.21901207 1.2292956 12600875
0.30641884 0.2258562 1.2677112 12863534
0.3188805 0.2258562 1.2677112 12666668
0.34203061 0.23314188 1.3086051 12601129
0.35489425 0.23314188 1.3086051 12601386
0.38001648 0.24091327 1.3522252 12666667
0.39330891 0.24091327 1.3522252 12666924
0.40660137 0.24091327 1.3522252 12666668
0.40634885 0.23314188 1.3086051 12797997
0.4061121 0.2258562 1.2677112 12798254
0.41857377 0.2258562 1.2677112 12601127
0.43103543 0.2258562 1.2677112 12666922
0.47306353 0.24091327 1.3522252 12600362
0.50312686 0.24922064 1.3988537 12666157
0.53533757 0.25812137 1.4488127 12666410
0.59185487 0.27797687 1.5602599 12666667
0.63147992 0.28909594 1.6226703 12470316
0.64743084 0.28909594 1.6226703 12142123
0.66338181 0.28909594 1.6226703 12404525
0.67933273 0.28909594 1.6226703 11945772
0.69528365 0.28909594 1.6226703 11683370
0.71123457 0.28909594 1.6226703 11748649
0.69921684 0.27797687 1.5602599 11814444
0.68808925 0.26768142 1.5024725 11682601
0.70285863 0.26768142 1.5024725 11747625
0.717628 0.26768142 1.5024725 12010283
0.76056653 0.27797687 1.5602599 11487023
0.77590394 0.27797687 1.5602599 11617065
0.79124135 0.27797687 1.5602599 11354922
0.83884192 0.28909594 1.6226703 11551015
0.85479283 0.28909594 1.6226703 10962221
0.9464606 0.3142347 1.763772 10765099
0.96379858 0.3142347 1.763772 10502185
1.0257336 0.32851812 1.8439435 10830891
0.95687139 0.30114159 1.6902815 10763817
1.0158124 0.3142347 1.763772 10960682
1.0331504 0.3142347 1.763772 10960679
1.0504884 0.3142347 1.763772 10960680
1.1163639 0.32851812 1.8439435 11026472
1.1344899 0.32851812 1.8439435 10961195
1.1526159 0.32851812 1.8439435 10763816
1.170742 0.32851812 1.8439435 10829609
1.188868 0.32851812 1.8439435 10764073
1.2069941 0.32851812 1.8439435 10829609
1.1230268 0.30114159 1.6902815 10894632
1.1396424 0.30114159 1.6902815 10698536
1.1562579 0.30114159 1.6902815 10698536
1.1728734 0.30114159 1.6902815 10567720
1.2412059 0.3142347 1.763772 10566954
1.2585438 0.3142347 1.763772 10764331
1.3338765 0.32851812 1.8439435 10698281
1.2932198 0.3142347 1.763772 10500903
1.3105577 0.3142347 1.763772 10239015
1.3278956 0.3142347 1.763772 10042152
1.3452337 0.3142347 1.763772 10041896
1.4245067 0.32851812 1.8439435 10239019
1.4426327 0.32851812 1.8439435 10437678
1.4607588 0.32851812 1.8439435 10766128
1.4145855 0.3142347 1.763772 11028785
1.4319234 0.3142347 1.763772 10635057
1.4492614 0.3142347 1.763772 10306862
1.533263 0.32851812 1.8439435 10372400
1.6252646 0.34416184 1.9317503 10634802
1.6442538 0.34416184 1.9317503 10306864
1.5876411 0.32851812 1.8439435 10700594
1.6057671 0.32851812 1.8439435 10503987
1.5532892 0.3142347 1.763772 10635573
1.5706271 0.3142347 1.763772 10570034
1.6601453 0.32851812 1.8439435 10438964
1.6782713 0.32851812 1.8439435 10307378
1.7771782 0.34416184 1.9317503 10176819
1.8859758 0.36136994 2.028338 9717810
1.8151566 0.34416184 1.9317503 9324342
1.7507756 0.32851812 1.8439435 8471348
1.7689016 0.32851812 1.8439435 8078902
1.7870276 0.32851812 1.8439435 7882295
1.8911134 0.34416184 1.9317503 7947316
1.9101025 0.34416184 1.9317503 8210488
1.9290917 0.34416184 1.9317503 8275511
1.9480809 0.34416184 1.9317503 7617324
1.9670701 0.34416184 1.9317503 6632745
1.8133585 0.3142347 1.763772 5450530
1.7544174 0.30114159 1.6902815 5188388
1.7001917 0.28909594 1.6226703 5319971
1.7876486 0.30114159 1.6902815 5911848
0 0 0 6437161
3.6417592 0.60228318 3.380563 6831919
3.6749904 0.60228318 3.380563 6699050
2.2249329 0.36136994 2.028338 6633516
2.2448716 0.36136994 2.028338 6765613
2.0589182 0.32851812 1.8439435 6699565
2.0770445 0.32851812 1.8439435 6503471
2.0951705 0.32851812 1.8439435 6371629
2.1132965 0.32851812 1.8439435 6175020
2.1314225 0.32851812 1.8439435 6240811
2.1495485 0.32851812 1.8439435 6372141
2.2708972 0.34416184 1.9317503 6306348
2.4043808 0.36136994 2.028338 6306604
2.8521404 0.4251411 2.3862798 6306606
2.8755977 0.4251411 2.3862798 6372141
4.1069946 0.60228318 3.380563 6306093
4.1402254 0.60228318 3.380563 6502700
4.5528617 0.65703624 3.687887 6503213
10.096051 1.4454798 8.1133518 6569005
0 0 0 6634540
0 0 0 6634540
0 0 0 6634540
0 0 0 6700849
0 0 0 6964534
0 0 0 4860701
0 0 0 1640197
-4.0346217 0.63551426 3.380563 1180936
-4.0013905 0.63551426 3.380563 1246731
-3.9681594 0.63551426 3.380563 1773845
-3.9349284 0.63551426 3.380563 2757137
-4.2563972 0.69328833 3.687887 3020052
-4.2201452 0.69328833 3.687887 2954259
-4.1838932 0.69328833 3.687887 2888723
-4.1476407 0.69328833 3.687887 2954515
-4.1113887 0.69328833 3.687887 2823188
-4.0751367 0.69328833 3.687887 2757396
-4.0388846 0.69328833 3.687887 2757140
-4.4028959 0.76261717 4.0566759 2888725
-4.3630185 0.76261717 4.0566759 2757139
-3.9301283 0.69328833 3.687887 2822931
-3.8938763 0.69328833 3.687887 2822930
-3.8576241 0.69328833 3.687887 2822930
-3.821372 0.69328833 3.687887 2691344
-4.6262579 0.84735245 4.5074177 2757137
-4.5819497 0.84735245 4.5074177 2559758
-4.5376415 0.84735245 4.5074177 1377030
-4.4933338 0.84735245 4.5074177 1180683
-4.0041227 0.76261717 4.0566759 1049352
-3.9642456 0.76261717 4.0566759 983816
-3.9243684 0.76261717 4.0566759 918025
-4.3161011 0.84735245 4.5074177 983562
-4.2717929 0.84735245 4.5074177 721416
-3.8047364 0.76261717 4.0566759 786951
-3.7648592 0.76261717 4.0566759 786696
-3.7249818 0.76261717 4.0566759 786696
-3.3500948 0.69328833 3.687887 1049870
-3.3138428 0.69328833 3.687887 2035989
-3.2775905 0.69328833 3.687887 1115144
-3.5654726 0.76261717 4.0566759 1444111
-3.5255952 0.76261717 4.0566759 2035991
-3.485718 0.76261717 4.0566759 2101268
-3.8287117 0.84735245 4.5074177 1641231
-3.7844038 0.84735245 4.5074177 1707023
-3.7400956 0.84735245 4.5074177 1641232
-3.6957874 0.84735245 4.5074177 1509903
-3.6514795 0.84735245 4.5074177 1575695
-4.0580673 0.95327145 5.0708447 1641231
-4.0082207 0.95327145 5.0708447 1838608
-3.9583743 0.95327145 5.0708447 1838608
-3.9085276 0.95327145 5.0708447 1772817
-3.858681 0.95327145 5.0708447 1904403
-3.8088343 0.95327145 5.0708447 2166546
-3.7589877 0.95327145 5.0708447 2364180
-3.709141 0.95327145 5.0708447 2495253
-3.6592944 0.95327145 5.0708447 2035215
-3.6094477 0.95327145 5.0708447 1772560
-3.5596011 0.95327145 5.0708447 2035987
-3.5097547 0.95327145 5.0708447 2296850
-3.9541805 1.0894531 5.7952509 2298646
-3.8972127 1.0894531 5.7952509 2955806
-3.8402452 1.0894531 5.7952509 1837838
-3.3103681 0.95327145 5.0708447 1640717
-3.72631 1.0894531 5.7952509 1575182
-3.2106748 0.95327145 5.0708447 1443339
-3.1608281 0.95327145 5.0708447 1247246
-3.1109815 0.95327145 5.0708447 1378060
-3.4984398 1.0894531 5.7952509 1706511
-3.4414723 1.0894531 5.7952509 1641232
-3.3845046 1.0894531 5.7952509 1378060
-3.3275371 1.0894531 5.7952509 1574668
-3.2705696 1.0894531 5.7952509 2231826
-3.2136018 1.0894531 5.7952509 2364180
-2.4551601 0.84735245 4.5074177 3347988
-2.4108522 0.84735245 4.5074177 6831409
-2.6623619 0.95327145 5.0708447 7683372
-3.4833536 1.2710285 6.761126 6763560
-2.5626686 0.95327145 5.0708447 3874078
-0.44672388 0.16947047 0.90148348 4267800
-0.41049588 0.15887856 0.84514076 3086365
-0.40218809 0.15887856 0.84514076 4006947
-0.40226075 0.16225897 0.86312246 4398619
-0.38557255 0.15887856 0.84514076 4530207
-0.3772648 0.15887856 0.84514076 4464927
-0.36142731 0.15563616 0.82789302 3873306
-0.31474844 0.13865766 0.73757738 1115147
-0.29159296 0.13148572 0.69942683 787211
-0.26634869 0.12300277 0.65430254 852491
-0.25579119 0.12105034 0.64391679 852491
-0.24556363 0.11915893 0.63385558 721421
-0.2393328 0.11915893 0.63385558 787210
-0.23310196 0.11915893 0.63385558 1180683
-0.22687113 0.11915893 0.63385558 1049868
-0.22064032 0.11915893 0.63385558 786698
-0.21440949 0.11915893 0.63385558 655880
-0.20817865 0.11915893 0.63385558 655882
-0.19884093 0.11732572 0.62410396 720905
-0.19270596 0.11732572 0.62410396 720905
-0.186571 0.11732572 0.62410396 786697
-0.17770213 0.11554805 0.61464781 721161
-0.17166013 0.11554805 0.61464781 786698
-0.1631462 0.11382346 0.605474 786698
-0.15488268 0.11214958 0.59656996 655882
-0.15124252 0.11382346 0.605474 590087
-0.14529069 0.11382346 0.605474 655882
-0.13933885 0.11382346 0.605474 655882
-0.13142544 0.11214958 0.59656996 721162
-0.12556113 0.11214958 0.59656996 655368
-0.11969683 0.11214958 0.59656996 787726
-0.11218277 0.11052422 0.587924 1049356
-0.10640345 0.11052422 0.587924 918797
-0.10062413 0.11052422 0.587924 1049869
-0.094844811 0.11052422 0.587924 787210
-0.089065492 0.11052422 0.587924 1180429
-0.083286174 0.11052422 0.587924 786696
-0.077506848 0.11052422 0.587924 786955
0 0 0 786696
0 0 0 786696
0 0 0 853261
0 0 0 1773848
0 0 0 3875622
0 0 0 7747633
0 0 0 10106152
0 0 0 10826784
0 0 0 11089697
0 0 0 11286819
0 0 0 11286564
0 0 0 11548962
0 0 0 11483941
0.0067099947 0.21789062 1.1590502 11680804
0.017600635 0.21183811 1.1268544 11287332
0.028677665 0.21183811 1.1268544 11287075
0.039754696 0.21183811 1.1268544 11090210
0.049457893 0.20611274 1.0963988 11286819
0.063677572 0.21789062 1.1590502 11287845
0.079620846 0.2310961 1.2292956 11812388
0 0 0 12074533
0 0 0 12074020
0 0 0 12206117
0.086175106 0.15563616 0.82789302 12271912
0.10269674 0.16947047 0.90148348 12337703
0.11155836 0.16947047 0.90148348 12337957
0.12041999 0.16947047 0.90148348 12403498
0.13221982 0.17332208 0.92197174 12140326
0.14128286 0.17332208 0.92197174 12403496
0.15034588 0.17332208 0.92197174 12534569
0.16311608 0.17735283 0.94341296 12600362
0.20034499 0.20611274 1.0963988 12469543
0.22318679 0.21789062 1.1590502 12666409
0.23458031 0.21789062 1.1590502 12666668
0.25320834 0.22429916 1.1931399 12732202
0.27296534 0.2310961 1.2292956 12535336
0.28504938 0.2310961 1.2292956 12863788
0.30641884 0.23831786 1.2677112 12732202
0.3188805 0.23831786 1.2677112 12666155
0.34203061 0.24600554 1.3086051 12601389
0.35489425 0.24600554 1.3086051 12600619
0.36775792 0.24600554 1.3086051 12535082
0.38062155 0.24600554 1.3086051 12535337
0.40660137 0.2542057 1.3522252 12666409
0.40634885 0.24600554 1.3086051 12666667
0.4061121 0.23831786 1.2677112 12600616
0.41857377 0.23831786 1.2677112 12535082
0.4597711 0.2542057 1.3522252 12600616
0.48937607 0.26297143 1.3988537 12404010
0.50312686 0.26297143 1.3988537 12404010
0.53533757 0.27236328 1.4488127 12338475
0.59185487 0.29331431 1.5602599 12535853
0.63147992 0.30504686 1.6226703 12338217
0.64743084 0.30504686 1.6226703 12404010
0.66338181 0.30504686 1.6226703 12404010
0.67933273 0.30504686 1.6226703 12403754
0.69528365 0.30504686 1.6226703 12010537
0.68387938 0.29331431 1.5602599 11879208
0.69921684 0.29331431 1.5602599 11879467
0.68808925 0.2824508 1.5024725 11747626
0.70285863 0.2824508 1.5024725 11616809
0.717628 0.2824508 1.5024725 11747881
0.76056653 0.29331431 1.5602599 11616810
0.77590394 0.29331431 1.5602599 11813931
0.822891 0.30504686 1.6226703 11879980
0.83884192 0.30504686 1.6226703 11420458
0.82191622 0.29331431 1.5602599 11748138
0.87074375 0.30504686 1.6226703 11616808
0.92364031 0.31775713 1.6902815 11354923
1.0257336 0.34664416 1.8439435 11420458
0.95687139 0.31775713 1.6902815 11223338
0.9734869 0.31775713 1.6902815 11158058
0.99010247 0.31775713 1.6902815 11092011
1.0504884 0.33157268 1.763772 10895147
1.1163639 0.34664416 1.8439435 10895404
1.1344899 0.34664416 1.8439435 10173223
1.1025022 0.33157268 1.763772 10568236
1.1198401 0.33157268 1.763772 10436136
1.0897957 0.31775713 1.6902815 10435365
1.1064112 0.31775713 1.6902815 10304551
1.1230268 0.31775713 1.6902815 10632745
1.1396424 0.31775713 1.6902815 10501158
1.1562579 0.31775713 1.6902815 10566954
1.1728734 0.31775713 1.6902815 10566954
1.2412059 0.33157268 1.763772 10632745
1.2585438 0.33157268 1.763772 10500903
1.2758818 0.33157268 1.763772 10632488
1.2393357 0.31775713 1.6902815 10501674
1.2559512 0.31775713 1.6902815 10370857
1.3882545 0.34664416 1.8439435 10305066
1.4063807 0.34664416 1.8439435 10173993
1.4923403 0.36315101 1.9317503 10828839
1.4426327 0.34664416 1.8439435 10699306
1.5303187 0.36315101 1.9317503 10570032
1.4788848 0.34664416 1.8439435 10635056
1.568297 0.36315101 1.9317503 10897459
1.515137 0.34664416 1.8439435 10766387
1.533263 0.34664416 1.8439435 10700337
1.551389 0.34664416 1.8439435 10569521
1.5695151 0.34664416 1.8439435 10570034
1.5876411 0.34664416 1.8439435 10635056
1.6057671 0.34664416 1.8439435 10504757
1.5532892 0.33157268 1.763772 10504241
1.5706271 0.33157268 1.763772 10241327
1.6601453 0.34664416 1.8439435 10109997
1.6782713 0.34664416 1.8439435 10240815
1.8660372 0.38130859 2.028338 9781806
1.8859758 0.38130859 2.028338 10044976
2.1176829 0.42367622 2.2537088 10110769
1.8341458 0.36315101 1.9317503 10176562
1.7689016 0.34664416 1.8439435 10242609
1.7870276 0.34664416 1.8439435 10243384
1.8911134 0.36315101 1.9317503 10112309
1.9101025 0.36315101 1.9317503 9914674
1.9290917 0.36315101 1.9317503 10046259
2.4064529 0.44859833 2.3862798 9782061
2.5817795 0.47663572 2.5354223 9651760
2.0853624 0.38130859 2.028338 8930354
2.1053011 0.38130859 2.028338 7485995
0 0 0 6699050
0 0 0 6239528
0 0 0 6567722
3.9728284 0.69328833 3.687887 7226164
4.0090804 0.69328833 3.687887 8079930
3.7082214 0.63551426 3.380563 8342587
4.0815845 0.69328833 3.687887 8080185
3.4843235 0.58662862 3.1205199 7948599
2.6879399 0.44859833 2.3862798 7948340
2.1949403 0.36315101 1.9317503 7619375
2.1132965 0.34664416 1.8439435 7290669
2.1314225 0.34664416 1.8439435 7356463
2.1495485 0.34664416 1.8439435 7159341
2.2708972 0.36315101 1.9317503 7028013
2.6715343 0.42367622 2.2537088 6896685
2.8521404 0.44859833 2.3862798 6962222
3.0553226 0.47663572 2.5354223 6371886
4.1069946 0.63551426 3.380563 6306093
4.1402254 0.63551426 3.380563 6503472
4.5528617 0.69328833 3.687887 6371885
10.096051 1.5252343 8.1133518 6372141
0 0 0 6437935
0 0 0 6371885
0 0 0 6437677
0 0 0 6240556
0 0 0 6043948
0 0 0 4925978
0 0 0 1246469
-4.0346217 0.6687454 3.380563 918793
-4.0013905 0.6687454 3.380563 919051
-3.9681594 0.6687454 3.380563 1773844
-3.9349284 0.6687454 3.380563 3086104
-3.9016974 0.6687454 3.380563 3020051
-4.2201452 0.72954041 3.687887 3020309
-4.1838932 0.72954041 3.687887 3282454
-4.1476407 0.72954041 3.687887 3151638
-4.1113887 0.72954041 3.687887 3085845
-4.0751367 0.72954041 3.687887 3085845
-4.4427733 0.80249453 4.0566759 3020309
-4.4028959 0.80249453 4.0566759 3020308
-4.3630185 0.80249453 4.0566759 3086102
-3.9301283 0.72954041 3.687887 2888723
-4.2832642 0.80249453 4.0566759 2888723
-3.8576241 0.72954041 3.687887 2822930
-4.2035093 0.80249453 4.0566759 2757137
-4.6262579 0.89166057 4.5074177 2625552
-4.5819497 0.89166057 4.5074177 2297102
-4.5376415 0.89166057 4.5074177 1114117
-4.4933338 0.89166057 4.5074177 852489
-4.0041227 0.80249453 4.0566759 918538
-3.9642456 0.80249453 4.0566759 983816
-3.9243684 0.80249453 4.0566759 983305
-3.884491 0.80249453 4.0566759 1049099
-3.8446138 0.80249453 4.0566759 918025
-3.8047364 0.80249453 4.0566759 852489
-3.7648592 0.80249453 4.0566759 852489
-3.3863468 0.72954041 3.687887 720905
-3.3500948 0.72954041 3.687887 1247249
-3.3138428 0.72954041 3.687887 2890780
-3.60535 0.80249453 4.0566759 1049092
-3.5654726 0.80249453 4.0566759 852491
-3.5255952 0.80249453 4.0566759 1378576
-3.485718 0.80249453 4.0566759 2035987
-3.8287117 0.89166057 4.5074177 1246474
-3.7844038 0.89166057 4.5074177 1180938
-3.7400956 0.89166057 4.5074177 1115661
-3.6957874 0.89166057 4.5074177 1181452
-3.6514795 0.89166057 4.5074177 1444879
-4.0580673 1.003118 5.0708447 1838352
-4.0082207 1.003118 5.0708447 2101780
-3.9583743 1.003118 5.0708447 2167060
-3.9085276 1.003118 5.0708447 2298389
-3.858681 1.003118 5.0708447 2232596
-3.8088343 1.003118 5.0708447 2166803
-3.7589877 1.003118 5.0708447 2166801
-3.709141 1.003118 5.0708447 1969166
-3.6592944 1.003118 5.0708447 1772047
-3.6094477 1.003118 5.0708447 2429462
-3.5596011 1.003118 5.0708447 1510673
-3.5097547 1.003118 5.0708447 1378060
-3.459908 1.003118 5.0708447 1378317
-3.4100614 1.003118 5.0708447 1378316
-3.3602147 1.003118 5.0708447 1247501
-3.3103681 1.003118 5.0708447 2036247
-3.2605214 1.003118 5.0708447 4206896
-3.2106748 1.003118 5.0708447 1575179
-3.1608281 1.003118 5.0708447 1509902
-3.1109815 1.003118 5.0708447 1837838
-3.0611348 1.003118 5.0708447 1509388
-3.4414723 1.1464206 5.7952509 2693145
-2.9614415 1.003118 5.0708447 2692888
-2.9115949 1.003118 5.0708447 1707024
-3.2705696 1.1464206 5.7952509 1905177
-3.2136018 1.1464206 5.7952509 5322554
-2.2096441 0.80249453 4.0566759 7224619
-1.5498334 0.5732103 2.8976254 7091495
-1.6383766 0.61730343 3.1205199 6566695
0 0 0 3347986
-2.5626686 1.003118 5.0708447 3086104
-0.43701249 0.17445531 0.88188601 2101012
-0.41922984 0.1707435 0.86312246 3348248
-0.41074529 0.1707435 0.86312246 3939353
-0.40226075 0.1707435 0.86312246 4004376
-0.39377624 0.1707435 0.86312246 4070684
-0.3772648 0.16718635 0.84514076 4070172
-0.36142731 0.16377439 0.82789302 3413786
-0.30912793 0.14330257 0.72440636 1181197
-0.29670861 0.14078851 0.71169752 852747
-0.27989185 0.13601601 0.68757218 655882
-0.25579119 0.12738007 0.64391679 721675
-0.24556363 0.12538975 0.63385558 720903
-0.2393328 0.12538975 0.63385558 721674
-0.23310196 0.12538975 0.63385558 918284
-0.22687113 0.12538975 0.63385558 1115661
-0.22064032 0.12538975 0.63385558 852491
-0.21440949 0.12538975 0.63385558 786696
-0.20817865 0.12538975 0.63385558 786696
-0.20194782 0.12538975 0.63385558 786698
-0.19270596 0.12346069 0.62410396 721161
-0.186571 0.12346069 0.62410396 655625
-0.18043603 0.12346069 0.62410396 721418
-0.17430106 0.12346069 0.62410396 852490
-0.16816609 0.12346069 0.62410396 721162
-0.15957609 0.12159006 0.61464781 721418
-0.15124252 0.1197753 0.605474 655882
-0.14529069 0.1197753 0.605474 852491
-0.13933885 0.1197753 0.605474 721675
-0.13142544 0.11801389 0.59656996 655882
-0.12556113 0.11801389 0.59656996 655882
-0.11969683 0.11801389 0.59656996 852747
-0.11383252 0.11801389 0.59656996 1050124
-0.1079682 0.11801389 0.59656996 983818
-0.1021039 0.11801389 0.59656996 852491
-0.096239589 0.11801389 0.59656996 853004
0 0 0 852746
0 0 0 1379600
0 0 0 3088162
0 0 0 5320493
0 0 0 8271661
0 0 0 10433572
0 0 0 11220769
0 0 0 11417376
0 0 0 11351842
0 0 0 11548707
0 0 0 11680036
0 0 0 11483684
0 0 0 11746085
0 0 0 11745568
0 0 0 11811622
0 0 0 11614244
0 0 0 11483171
0.01810351 0.22928414 1.1590502 11089953
0.028677665 0.22291514 1.1268544 10892574
0.039754696 0.22291514 1.1268544 10762787
0.050831724 0.22291514 1.1268544 10894118
0.065550439 0.23602778 1.1931399 11287332
0.077279061 0.23602778 1.1931399 11877929
0 0 0 11943207
0 0 0 12008740
0.079662651 0.16718635 0.84514076 12337192
0.082795694 0.15735185 0.79542661 12140326
0.094313331 0.16377439 0.82789302 12271397
0.11155836 0.17833211 0.90148348 12337190
0.12041999 0.17833211 0.90148348 12402983
0.12928161 0.17833211 0.90148348 12402983
0.13814323 0.17833211 0.90148348 12600616
0.15034588 0.1823851 0.92197174 12403496
0.16311608 0.18662661 0.94341296 12732202
0.20034499 0.21689039 1.0963988 12666409
0.22318679 0.22928414 1.1590502 12600616
0.23458031 0.22928414 1.1590502 12469289
0.24597383 0.22928414 1.1590502 12600875
0.27296534 0.24318013 1.2292956 12469289
0.28504938 0.24318013 1.2292956 12732202
0.29713342 0.24318013 1.2292956 12535082
0.30921742 0.24318013 1.2292956 12665896
0.33134216 0.25077951 1.2677112 12666410
0.34380382 0.25077951 1.2677112 12731946
0.36775792 0.25886917 1.3086051 12600359
0.39330891 0.26749814 1.3522252 12469802
0.40660137 0.26749814 1.3522252 12667179
0.38172162 0.24318013 1.2292956 12600875
0.39380565 0.24318013 1.2292956 12732461
0.40588969 0.24318013 1.2292956 12535082
0.43103543 0.25077951 1.2677112 12469805
0.48937607 0.27672222 1.3988537 12534569
0.50312686 0.27672222 1.3988537 12601130
0.51687765 0.27672222 1.3988537 12338730
0.53062844 0.27672222 1.3988537 12338732
0.60719228 0.30865172 1.5602599 12535082
0.64743084 0.32099777 1.6226703 12141096
0.66338181 0.32099777 1.6226703 12272683
0.67933273 0.32099777 1.6226703 12535083
0.66854197 0.30865172 1.5602599 12075303
0.68387938 0.30865172 1.5602599 11616808
0.67331988 0.29722017 1.5024725 12075306
0.66351461 0.28660515 1.4488127 11747369
0.67775649 0.28660515 1.4488127 11813676
0.717628 0.29722017 1.5024725 11747881
0.73239738 0.29722017 1.5024725 11812649
0.74716675 0.29722017 1.5024725 11747369
0.76193613 0.29722017 1.5024725 11616297
0.83884192 0.32099777 1.6226703 11878697
