# .PCD v0.7 - Point Cloud Data file format
VERSION 0.7
FIELDS x y z rgb
SIZE 4 4 4 4
TYPE F F F U
COUNT 1 1 1 1
WIDTH 1295
HEIGHT 1
VIEWPOINT 0 0 0 1 0 0 0
POINTS 1295
DATA ascii
-3.8684664 0.53582102 3.380563 3151638
-3.8352351 0.53582102 3.380563 3217430
-3.8020041 0.53582102 3.380563 3348758
-3.7687731 0.53582102 3.380563 3414038
-3.7355418 0.53582102 3.380563 3545365
-3.7023108 0.53582102 3.380563 3348245
-4.0026326 0.58453202 3.687887 3414292
-3.9663804 0.58453202 3.687887 3414292
-3.9301283 0.58453202 3.687887 3413779
-4.2832642 0.64298528 4.0566759 3151380
-4.7148743 0.71442807 4.5074177 2954515
-4.2035093 0.64298528 4.0566759 2823187
-4.1636324 0.64298528 4.0566759 2493966
-4.123755 0.64298528 4.0566759 1312523
-4.5376415 0.71442807 4.5074177 1180681
-4.4933338 0.71442807 4.5074177 1312524
-4.4490256 0.71442807 4.5074177 984329
-3.6038594 0.58453202 3.687887 1115661
-3.5676074 0.58453202 3.687887 1180684
-3.5313554 0.58453202 3.687887 1114891
-3.8446138 0.64298528 4.0566759 918536
-3.4588511 0.58453202 3.687887 1049610
-3.4225991 0.58453202 3.687887 984074
-3.1041512 0.53582102 3.380563 786953
-3.0709202 0.53582102 3.380563 721418
-3.0376892 0.53582102 3.380563 720903
-3.004458 0.53582102 3.380563 984075
-3.2413385 0.58453202 3.687887 1180684
-3.2050865 0.58453202 3.687887 1180938
-3.1688342 0.58453202 3.687887 1115145
-3.1325822 0.58453202 3.687887 1115401
-3.0963302 0.58453202 3.687887 1246988
-3.0600781 0.58453202 3.687887 1377803
-3.3262088 0.64298528 4.0566759 1378316
-3.2863314 0.64298528 4.0566759 1312781
-3.2464542 0.64298528 4.0566759 1180938
-3.2065768 0.64298528 4.0566759 1773074
-3.1666996 0.64298528 4.0566759 1970194
-3.474247 0.71442807 4.5074177 2101010
-3.4299388 0.71442807 4.5074177 2101009
-3.3856306 0.71442807 4.5074177 2166801
-3.7589877 0.80373156 5.0708447 2232596
-3.709141 0.80373156 5.0708447 2495253
-4.1820507 0.91855031 5.7952509 2298130
-4.125083 0.91855031 5.7952509 2429715
-3.5596011 0.80373156 5.0708447 2232339
-3.5097547 0.80373156 5.0708447 1969679
-3.459908 0.80373156 5.0708447 786694
-3.4100614 0.80373156 5.0708447 2036247
-3.3602147 0.80373156 5.0708447 2231570
-3.3103681 0.80373156 5.0708447 1904401
-3.2605214 0.80373156 5.0708447 1509643
-3.6693425 0.91855031 5.7952509 1115145
-3.612375 0.91855031 5.7952509 1050122
-3.5554073 0.91855031 5.7952509 1378317
-3.0611348 0.80373156 5.0708447 1641230
-3.4414723 0.91855031 5.7952509 1180680
-2.9614415 0.80373156 5.0708447 1049352
-3.3275371 0.91855031 5.7952509 1837324
-2.8617485 0.80373156 5.0708447 2429460
-2.8119018 0.80373156 5.0708447 3282454
-2.7620552 0.80373156 5.0708447 3742487
-3.0996668 0.91855031 5.7952509 4267546
-3.0426991 0.91855031 5.7952509 4596506
-2.9857316 0.91855031 5.7952509 4990492
-2.5626686 0.80373156 5.0708447 5844770
-0.41880363 0.13395526 0.84514076 6106913
-0.39407605 0.12859705 0.81133515 5975073
-0.37853 0.12607554 0.79542661 7224366
-0.36358187 0.12365101 0.78012997 6631716
-0.33649969 0.1169064 0.73757738 5448989
-0.32924926 0.1169064 0.73757738 3545368
-0.30016842 0.10898055 0.68757218 918797
-0.28378958 0.10540742 0.66502881 918539
-0.27278051 0.1037073 0.65430254 918282
-0.26212093 0.10206115 0.64391679 787214
-0.25579119 0.10206115 0.64391679 786957
-0.24946146 0.10206115 0.64391679 1181712
-0.2393328 0.10046645 0.63385558 852491
-0.22951579 0.098920807 0.62410396 1312270
-0.22338082 0.098920807 0.62410396 1049868
-0.21724585 0.098920807 0.62410396 1509649
-0.21111088 0.098920807 0.62410396 1182224
-0.2049759 0.098920807 0.62410396 853259
-0.19582818 0.097422004 0.61464781 1181198
-0.18978617 0.097422004 0.61464781 590089
-0.18374415 0.097422004 0.61464781 852743
-0.17770213 0.097422004 0.61464781 919052
-0.16909803 0.095967948 0.605474 720905
-0.1631462 0.095967948 0.605474 1116431
-0.15488268 0.094556652 0.59656996 524809
-0.15124252 0.095967948 0.605474 786698
-0.14315407 0.094556652 0.59656996 787210
-0.13728975 0.094556652 0.59656996 1575700
-0.13142544 0.094556652 0.59656996 786697
-0.12556113 0.094556652 0.59656996 1247504
-0.11969683 0.094556652 0.59656996 852748
-0.11383252 0.094556652 0.59656996 1510675
-0.10640345 0.093186267 0.587924 720903
-0.099186644 0.091855034 0.57952511 655881
-0.093489885 0.091855034 0.57952511 524296
-0.089065492 0.093186267 0.587924 458759
-0.082096368 0.091855034 0.57952511 524294
-0.076399609 0.091855034 0.57952511 458759
-0.070702858 0.091855034 0.57952511 655368
-0.068945855 0.097422004 0.61464781 655367
-0.063871592 0.098920807 0.62410396 589832
-0.057736624 0.098920807 0.62410396 786439
-0.051601656 0.098920807 0.62410396 720905
-0.044109471 0.095967948 0.605474 720903
-0.038157634 0.095967948 0.605474 786440
-0.032693762 0.097422004 0.61464781 720903
-0.027061775 0.098920807 0.62410396 720905
-0.022670705 0.1071642 0.67611259 851977
-0.016867884 0.11280444 0.71169752 851977
0 0 0 918282
0 0 0 720903
0 0 0 720903
0 0 0 786696
0 0 0 1312525
0 0 0 2364696
0 0 0 5976626
0 0 0 9255471
0 0 0 10696742
0 0 0 11812134
0 0 0 11812388
0 0 0 11812388
0 0 0 11877414
0 0 0 12140326
0 0 0 12271910
0.13216828 0.15682568 0.98943311 12271910
0.12647113 0.1397794 0.88188601 12403498
0.13514012 0.1397794 0.88188601 12338217
0.16134679 0.15682568 0.98943311 12469289
0.1753498 0.16074632 1.014169 12338732
0 0 0 12404523
0 0 0 12470316
0.26484874 0.2074146 1.3086051 12798506
0.26903388 0.20093289 1.2677112 12863788
0.28149551 0.20093289 1.2677112 12536363
0.29395717 0.20093289 1.2677112 12535850
0.30641884 0.20093289 1.2677112 12666920
0.3188805 0.20093289 1.2677112 12667182
0.33134216 0.20093289 1.2677112 12732718
0.34380382 0.20093289 1.2677112 12535853
0.35626549 0.20093289 1.2677112 12733743
0.35755357 0.19484401 1.2292956 12733743
0.36963758 0.19484401 1.2292956 12668464
0.38172162 0.19484401 1.2292956 12602926
0.4061121 0.20093289 1.2677112 12602413
0.41857377 0.20093289 1.2677112 12405291
0.44493979 0.2074146 1.3086051 12208686
0.47306353 0.21432841 1.3522252 11946797
0.52109569 0.22963758 1.4488127 12470570
0.59957808 0.2571941 1.6226703 12274731
0.6994648 0.29226601 1.8439435 12142893
0.75176179 0.30618346 1.9317503 12273708
0.80928862 0.32149264 2.028338 12142123
0.82922727 0.32149264 2.028338 12274479
0.67933273 0.2571941 1.6226703 11880750
0.69528365 0.2571941 1.6226703 11355434
0.71123457 0.2571941 1.6226703 11355691
0.75748485 0.26791051 1.6902815 11159598
0.74313641 0.2571941 1.6226703 11224108
0.72989166 0.24730203 1.5602599 11552557
0.74522913 0.24730203 1.5602599 11289384
0.76056653 0.24730203 1.5602599 11222820
0.77590394 0.24730203 1.5602599 11355178
0.822891 0.2571941 1.6226703 11223851
0.83884192 0.2571941 1.6226703 11355183
0.85479283 0.2571941 1.6226703 11551786
0.87074375 0.2571941 1.6226703 11682602
0.88669467 0.2571941 1.6226703 11223849
0.9811365 0.27955881 1.763772 11223850
1.0438597 0.29226601 1.8439435 10633513
1.1125565 0.30618346 1.9317503 10371368
1.3201367 0.35721403 2.2537088 10699307
1.3422908 0.35721403 2.2537088 10567721
1.1695241 0.30618346 1.9317503 10436393
1.1885133 0.30618346 1.9317503 10501929
1.2075025 0.30618346 1.9317503 10436136
1.2264916 0.30618346 1.9317503 10370855
1.307755 0.32149264 2.028338 10174506
1.26447 0.30618346 1.9317503 10240556
1.2834592 0.30618346 1.9317503 10043175
1.3024484 0.30618346 1.9317503 9846314
1.3214376 0.30618346 1.9317503 9518893
1.3404268 0.30618346 1.9317503 8798255
1.359416 0.30618346 1.9317503 7748396
1.3784052 0.30618346 1.9317503 7093808
1.3973943 0.30618346 1.9317503 6240813
1.4872029 0.32149264 2.028338 6109227
1.4353727 0.30618346 1.9317503 5977127
1.4543619 0.30618346 1.9317503 5713954
1.4733511 0.30618346 1.9317503 5517090
1.4923403 0.30618346 1.9317503 5318685
1.4426327 0.29226601 1.8439435 6437416
1.3972476 0.27955881 1.763772 6568233
1.4145855 0.27955881 1.763772 6501927
1.4319234 0.27955881 1.763772 6436392
1.4492614 0.27955881 1.763772 6962479
1.4665993 0.27955881 1.763772 6765102
1.4839373 0.27955881 1.763772 6502957
1.5012753 0.27955881 1.763772 6634798
1.5186132 0.27955881 1.763772 6831149
1.4719532 0.26791051 1.6902815 6633770
1.5532892 0.27955881 1.763772 6436394
1.5706271 0.27955881 1.763772 6042923
1.6601453 0.29226601 1.8439435 5451045
1.6782713 0.29226601 1.8439435 4925728
1.622641 0.27955881 1.763772 4597280
1.6399789 0.27955881 1.763772 4662558
1.6573169 0.27955881 1.763772 4596763
1.6048776 0.26791051 1.6902815 4596763
1.6214931 0.26791051 1.6902815 4662558
1.5725844 0.2571941 1.6226703 4597535
1.6547242 0.26791051 1.6902815 4531488
1.6713398 0.26791051 1.6902815 4531488
1.7613447 0.27955881 1.763772 4793890
1.7786826 0.27955881 1.763772 4794146
1.7960205 0.27955881 1.763772 4728866
1.8133585 0.27955881 1.763772 4991780
1.7544174 0.26791051 1.6902815 4860193
1.7710329 0.26791051 1.6902815 4992291
1.7876486 0.26791051 1.6902815 5714982
1.8827103 0.27955881 1.763772 6634796
1.9000483 0.27955881 1.763772 6700590
1.9173863 0.27955881 1.763772 6239015
1.9347242 0.27955881 1.763772 6108716
1.9520621 0.27955881 1.763772 6634800
1.9694002 0.27955881 1.763772 6634797
1.9867381 0.27955881 1.763772 6635054
2.004076 0.27955881 1.763772 6306604
2.021414 0.27955881 1.763772 6372397
2.0387518 0.27955881 1.763772 6699563
2.0560899 0.27955881 1.763772 6306604
2.0734279 0.27955881 1.763772 6437163
2.1858006 0.29226601 1.8439435 6306092
2.2039268 0.29226601 1.8439435 6175020
2.2220528 0.29226601 1.8439435 6175020
2.5938914 0.3384133 2.1350925 6109226
3.8217468 0.49460405 3.1205199 6174507
0 0 0 6371884
0 0 0 6701104
0 0 0 7292726
0 0 0 7489847
0 0 0 7753019
0 0 0 7753021
0 0 0 7688509
0 0 0 4597275
0 0 0 1902340
-4.4014053 0.6207841 3.687887 1181452
-4.3651533 0.6207841 3.687887 1181454
-3.9681594 0.5690521 3.380563 2101010
-3.9349284 0.5690521 3.380563 3020052
-3.601567 0.52527893 3.1205199 3151636
-3.8684664 0.5690521 3.380563 3216659
-3.8352351 0.5690521 3.380563 3217173
-3.8020041 0.5690521 3.380563 3151123
-3.7687731 0.5690521 3.380563 3085330
-3.7355418 0.5690521 3.380563 3085587
-4.0388846 0.6207841 3.687887 3085331
-4.0026326 0.6207841 3.687887 2954002
-3.9663804 0.6207841 3.687887 2822930
-4.3231416 0.68286258 4.0566759 2822930
-4.2832642 0.68286258 4.0566759 2822673
-3.8576241 0.6207841 3.687887 2756882
-3.821372 0.6207841 3.687887 2691346
-3.78512 0.6207841 3.687887 2559760
-4.123755 0.68286258 4.0566759 1575438
-4.0838776 0.68286258 4.0566759 1115659
-4.0440001 0.68286258 4.0566759 1246731
-4.0041227 0.68286258 4.0566759 1181451
-3.9642456 0.68286258 4.0566759 1049611
-3.9243684 0.68286258 4.0566759 1049352
-3.884491 0.68286258 4.0566759 1049352
-3.4951031 0.6207841 3.687887 918282
-3.4588511 0.6207841 3.687887 655880
-3.4225991 0.6207841 3.687887 721674
-3.1041512 0.5690521 3.380563 655368
-3.0709202 0.5690521 3.380563 524296
-3.0376892 0.5690521 3.380563 655623
-3.004458 0.5690521 3.380563 721161
-3.2413385 0.6207841 3.687887 918282
-3.2050865 0.6207841 3.687887 1115145
-3.1688342 0.6207841 3.687887 1114889
-3.4458406 0.68286258 4.0566759 1115146
-3.4059634 0.68286258 4.0566759 1312524
-3.366086 0.68286258 4.0566759 1772817
-3.3262088 0.68286258 4.0566759 2035989
-3.6514795 0.75873619 4.5074177 1904401
-3.6071713 0.75873619 4.5074177 1904145
-3.5628631 0.75873619 4.5074177 1246731
-3.5185549 0.75873619 4.5074177 2101011
-3.474247 0.75873619 4.5074177 2035987
-3.4299388 0.75873619 4.5074177 2166803
-3.8088343 0.85357821 5.0708447 2232594
-3.7589877 0.85357821 5.0708447 2429973
-3.709141 0.85357821 5.0708447 2692116
-4.1820507 0.97551793 5.7952509 2626323
-4.125083 0.97551793 5.7952509 2429204
-4.0681157 0.97551793 5.7952509 2166545
-4.011148 0.97551793 5.7952509 2035472
-3.9541805 0.97551793 5.7952509 1838866
-3.8972127 0.97551793 5.7952509 2628378
-3.3602147 0.85357821 5.0708447 1968136
-3.3103681 0.85357821 5.0708447 1246731
-3.72631 0.97551793 5.7952509 1049352
-3.6693425 0.97551793 5.7952509 918282
-3.612375 0.97551793 5.7952509 1180681
-3.5554073 0.97551793 5.7952509 1049609
-3.4984398 0.97551793 5.7952509 1838610
-3.4414723 0.97551793 5.7952509 1115144
-2.9614415 0.85357821 5.0708447 1312524
-3.3275371 0.97551793 5.7952509 1705997
-2.8617485 0.85357821 5.0708447 2232082
-2.8119018 0.85357821 5.0708447 3020054
-2.7620552 0.85357821 5.0708447 3808282
-3.0996668 0.97551793 5.7952509 4136984
-3.0426991 0.97551793 5.7952509 4399132
-3.4833536 1.1381042 6.761126 4924958
-2.5626686 0.85357821 5.0708447 6172452
-0.44672388 0.15174723 0.90148348 7159087
-0.40211841 0.13935971 0.82789302 6960422
-0.38610059 0.13657251 0.81133515 6435108
-0.37812513 0.13657251 0.81133515 5449504
-0.36289182 0.13389462 0.79542661 4858653
-0.32924926 0.12415683 0.73757738 4071452
-0.31624886 0.12193974 0.72440636 1509645
-0.27921233 0.11013912 0.65430254 787210
-0.27278051 0.11013912 0.65430254 852491
-0.26212093 0.10839088 0.64391679 655882
-0.25579119 0.10839088 0.64391679 787468
-0.24556363 0.10669728 0.63385558 853004
-0.2393328 0.10669728 0.63385558 786953
-0.22951579 0.10505578 0.62410396 1115661
-0.22338082 0.10505578 0.62410396 918284
-0.21724585 0.10505578 0.62410396 786696
-0.21111088 0.10505578 0.62410396 655882
-0.2049759 0.10505578 0.62410396 786698
-0.19582818 0.10346401 0.61464781 1246220
-0.18978617 0.10346401 0.61464781 853003
-0.18374415 0.10346401 0.61464781 1115659
-0.17770213 0.10346401 0.61464781 655882
-0.16909803 0.10191979 0.605474 918026
-0.1631462 0.10191979 0.605474 1247246
-0.15488268 0.10042096 0.59656996 918030
-0.14901838 0.10042096 0.59656996 655880
-0.14315407 0.10042096 0.59656996 786696
-0.13728975 0.10042096 0.59656996 1444370
-0.13142544 0.10042096 0.59656996 721418
-0.12556113 0.10042096 0.59656996 655623
-0.11969683 0.10042096 0.59656996 721162
-0.11218277 0.098965585 0.587924 1443853
-0.10640345 0.098965585 0.587924 786696
-0.099186644 0.097551793 0.57952511 919053
-0.093489885 0.097551793 0.57952511 590087
-0.089065492 0.098965585 0.587924 590089
-0.083286174 0.098965585 0.587924 590089
-0.076399609 0.097551793 0.57952511 524296
-0.074987873 0.10346401 0.61464781 590088
-0.068945855 0.10346401 0.61464781 524296
-0.062903844 0.10346401 0.61464781 655366
-0.056861825 0.10346401 0.61464781 589832
-0.05081981 0.10346401 0.61464781 655367
-0.044777796 0.10346401 0.61464781 655367
-0.038735777 0.10346401 0.61464781 720905
-0.033196747 0.10505578 0.62410396 655368
0 0 0 655369
0 0 0 851976
0 0 0 918027
0 0 0 1508875
0 0 0 3546143
0 0 0 6238511
0 0 0 9058091
0 0 0 10893605
0 0 0 11156261
0 0 0 11287075
0 0 0 11680548
0 0 0 11811621
0 0 0 12140324
0 0 0 11878181
0 0 0 11813158
0.10556451 0.17071564 1.014169 12009252
0 0 0 12271910
0.12550317 0.17071564 1.014169 12272426
0.11529573 0.1452899 0.86312246 12337703
0.12120151 0.14226303 0.84514076 12600362
0.13514012 0.14844838 0.88188601 12338217
0.1575052 0.16258632 0.96587515 12469030
0.1753498 0.17071564 1.014169 12535336
0 0 0 12535336
0 0 0 12666668
0 0 0 12666409
0.26903388 0.21339455 1.2677112 12601129
0.28149551 0.21339455 1.2677112 12732202
0.29395717 0.21339455 1.2677112 12798506
0.30641884 0.21339455 1.2677112 12732200
0.3188805 0.21339455 1.2677112 12798508
0.33134216 0.21339455 1.2677112 13061165
0.34380382 0.21339455 1.2677112 12732713
0.35626549 0.21339455 1.2677112 12667179
0.35755357 0.20692803 1.2292956 12798765
0.36963758 0.20692803 1.2292956 12667179
0.39365044 0.21339455 1.2677112 12667949
0.4061121 0.21339455 1.2677112 12404779
0.41857377 0.21339455 1.2677112 12339243
0.44493979 0.22027825 1.3086051 12339754
0.48937607 0.23546983 1.3988537 12602156
0.52109569 0.24387948 1.4488127 12470316
0 0 0 12208429
0 0 0 12470316
0.75176179 0.32517263 1.9317503 12667693
0.73571688 0.31039205 1.8439435 12535596
0.63786709 0.26263946 1.5602599 12207662
0.67933273 0.27314502 1.6226703 11683628
0.69528365 0.27314502 1.6226703 11683629
0.80822104 0.31039205 1.8439435 11224362
0.79041898 0.29689676 1.763772 11158571
0.74313641 0.27314502 1.6226703 10961450
0.72989166 0.26263946 1.5602599 11158313
0.74522913 0.26263946 1.5602599 11551015
0.76056653 0.26263946 1.5602599 11158056
0.80694008 0.27314502 1.6226703 11158057
0.822891 0.27314502 1.6226703 11158571
0.83884192 0.27314502 1.6226703 11551019
0.85479283 0.27314502 1.6226703 11485994
0.87074375 0.27314502 1.6226703 11289129
0.88669467 0.27314502 1.6226703 10895403
1.074578 0.32517263 1.9317503 10829866
1.0438597 0.31039205 1.8439435 10764075
1.0619857 0.31039205 1.8439435 10764074
1.0801117 0.31039205 1.8439435 11026729
1.1505349 0.32517263 1.9317503 11025959
1.1695241 0.32517263 1.9317503 11092265
1.1344899 0.31039205 1.8439435 10894632
1.1526159 0.31039205 1.8439435 11026475
1.2264916 0.32517263 1.9317503 10370857
1.307755 0.34143129 2.028338 10567720
1.26447 0.32517263 1.9317503 10501416
1.2834592 0.32517263 1.9317503 10567466
1.3024484 0.32517263 1.9317503 10566952
1.3214376 0.32517263 1.9317503 10370858
1.3404268 0.32517263 1.9317503 10501673
1.2976243 0.31039205 1.8439435 10239271
1.3784052 0.32517263 1.9317503 10501929
1.3973943 0.32517263 1.9317503 10633001
1.4163835 0.32517263 1.9317503 10042923
1.4353727 0.32517263 1.9317503 10370601
1.4543619 0.32517263 1.9317503 9780519
1.4733511 0.32517263 1.9317503 9780523
1.4923403 0.32517263 1.9317503 9714729
1.4426327 0.31039205 1.8439435 9847343
1.4607588 0.31039205 1.8439435 9454641
1.4145855 0.29689676 1.763772 8995120
1.4319234 0.29689676 1.763772 8863534
1.4492614 0.29689676 1.763772 9191725
1.4665993 0.29689676 1.763772 9585454
1.4839373 0.29689676 1.763772 9716016
1.5012753 0.29689676 1.763772 8929070
1.4553376 0.28452605 1.6902815 8470316
1.4719532 0.28452605 1.6902815 8274224
1.4885688 0.28452605 1.6902815 7684144
1.5706271 0.29689676 1.763772 7158833
1.6601453 0.31039205 1.8439435 7093553
1.6782713 0.31039205 1.8439435 7225135
1.6963974 0.31039205 1.8439435 7093292
1.7145234 0.31039205 1.8439435 7422257
1.7326494 0.31039205 1.8439435 6896429
1.7507756 0.31039205 1.8439435 6962740
1.6214931 0.28452605 1.6902815 5977645
1.6381086 0.28452605 1.6902815 5452072
1.6547242 0.28452605 1.6902815 4925731
1.8232797 0.31039205 1.8439435 4400415
1.9290917 0.32517263 1.9317503 4269086
1.9480809 0.32517263 1.9317503 4399904
1.7960205 0.29689676 1.763772 4465696
1.7378019 0.28452605 1.6902815 4465695
1.6842408 0.27314502 1.6226703 4465694
1.7710329 0.28452605 1.6902815 4859678
1.8653724 0.29689676 1.763772 5582627
1.8827103 0.29689676 1.763772 6239783
1.9000483 0.29689676 1.763772 6371627
1.9173863 0.29689676 1.763772 6173737
1.9347242 0.29689676 1.763772 6371116
1.9520621 0.29689676 1.763772 6371886
1.9694002 0.29689676 1.763772 6831149
1.9867381 0.29689676 1.763772 6700079
2.004076 0.29689676 1.763772 6897458
2.1132965 0.31039205 1.8439435 6963251
2.0387518 0.29689676 1.763772 6831665
2.0560899 0.29689676 1.763772 6897458
2.0734279 0.29689676 1.763772 6634799
2.1858006 0.31039205 1.8439435 6437934
2.2039268 0.31039205 1.8439435 6372397
2.3278649 0.32517263 1.9317503 6372399
2.5938914 0.35940135 2.1350925 6306606
3.8217468 0.52527893 3.1205199 6306606
0 0 0 6240813
0 0 0 6372141
0 0 0 6503469
0 0 0 6701103
0 0 0 7029813
0 0 0 7227702
0 0 0 7293238
0 0 0 4860447
0 0 0 1705733
-4.4014053 0.65703624 3.687887 984330
-4.0013905 0.60228318 3.380563 1181454
-3.9681594 0.60228318 3.380563 1904402
-3.9349284 0.60228318 3.380563 2822930
-3.9016974 0.60228318 3.380563 2888979
-3.8684664 0.60228318 3.380563 2889493
-3.8352351 0.60228318 3.380563 2954258
-3.8020041 0.60228318 3.380563 2888979
-3.7687731 0.60228318 3.380563 2626323
-3.7355418 0.60228318 3.380563 2823702
-4.0388846 0.65703624 3.687887 2823702
-4.0026326 0.65703624 3.687887 2757909
-3.9663804 0.65703624 3.687887 2428687
-3.9301283 0.65703624 3.687887 2757139
-3.8938763 0.65703624 3.687887 2691087
-3.8576241 0.65703624 3.687887 2691346
-3.821372 0.65703624 3.687887 2691346
-3.78512 0.65703624 3.687887 2494735
-4.123755 0.72273988 4.0566759 2428172
-4.0838776 0.72273988 4.0566759 1312266
-4.0440001 0.72273988 4.0566759 1312267
-4.0041227 0.72273988 4.0566759 1115915
-3.9642456 0.72273988 4.0566759 918536
-3.9243684 0.72273988 4.0566759 1049609
-3.884491 0.72273988 4.0566759 1049609
-3.4951031 0.65703624 3.687887 918026
-3.4588511 0.65703624 3.687887 852488
-3.4225991 0.65703624 3.687887 786695
-3.1041512 0.60228318 3.380563 590089
-3.3500948 0.65703624 3.687887 721673
-3.3138428 0.65703624 3.687887 721673
-3.2775905 0.65703624 3.687887 918282
-3.2413385 0.65703624 3.687887 721673
-3.2050865 0.65703624 3.687887 1181453
-3.485718 0.72273988 4.0566759 1509644
-3.4458406 0.72273988 4.0566759 1772817
-3.4059634 0.72273988 4.0566759 2035987
-3.366086 0.72273988 4.0566759 2101010
-3.6957874 0.80304432 4.5074177 1904403
-3.6514795 0.80304432 4.5074177 1970194
-3.6071713 0.80304432 4.5074177 1970196
-3.5628631 0.80304432 4.5074177 1707025
-3.5185549 0.80304432 4.5074177 2035217
-3.474247 0.80304432 4.5074177 1772559
-3.4299388 0.80304432 4.5074177 1838353
-3.8088343 0.9034248 5.0708447 1772815
-3.7589877 0.9034248 5.0708447 1904401
-3.709141 0.9034248 5.0708447 1904401
-4.1820507 1.0324855 5.7952509 1772815
-4.125083 1.0324855 5.7952509 1707024
-4.0681157 1.0324855 5.7952509 1707281
-4.011148 1.0324855 5.7952509 1707281
-3.9541805 1.0324855 5.7952509 1903889
-3.4100614 0.9034248 5.0708447 1904660
-3.3602147 0.9034248 5.0708447 1443082
-3.3103681 0.9034248 5.0708447 1378316
-3.2605214 0.9034248 5.0708447 1050121
-3.6693425 1.0324855 5.7952509 1180938
-3.612375 1.0324855 5.7952509 1444110
-3.5554073 1.0324855 5.7952509 1773074
-3.4984398 1.0324855 5.7952509 1838608
-3.4414723 1.0324855 5.7952509 1049098
-2.9614415 0.9034248 5.0708447 1049352
-3.3275371 1.0324855 5.7952509 1640205
-3.2705696 1.0324855 5.7952509 2363155
-3.2136018 1.0324855 5.7952509 2757654
-2.7620552 0.9034248 5.0708447 3479318
-2.7122085 0.9034248 5.0708447 3808283
-2.6623619 0.9034248 5.0708447 4464925
-2.6125152 0.9034248 5.0708447 6830639
-2.0501349 0.72273988 4.0566759 7092259
-0.44672388 0.16060886 0.90148348 5647141
-0.41049588 0.15057079 0.84514076 5383711
-0.40218809 0.15057079 0.84514076 4924186
-0.37812513 0.14454797 0.81133515 4727584
-0.37014967 0.14454797 0.81133515 4333340
-0.34824443 0.13898844 0.78012997 4137503
-0.32199883 0.13140725 0.73757738 2167057
-0.27921233 0.11657094 0.65430254 852491
-0.27278051 0.11657094 0.65430254 853003
-0.26212093 0.11472061 0.64391679 721673
-0.25179446 0.1129281 0.63385558 852491
-0.24556363 0.1129281 0.63385558 918027
-0.2393328 0.1129281 0.63385558 721675
-0.23310196 0.1129281 0.63385558 1115661
-0.22338082 0.11119075 0.62410396 787468
-0.21724585 0.11119075 0.62410396 786696
-0.20791221 0.10950603 0.61464781 655882
-0.2018702 0.10950603 0.61464781 655369
-0.19582818 0.10950603 0.61464781 655626
-0.18978617 0.10950603 0.61464781 852746
-0.18100171 0.10787162 0.605474 853001
-0.17504987 0.10787162 0.605474 721675
-0.16909803 0.10787162 0.605474 655882
-0.16074699 0.10628527 0.59656996 786954
-0.15488268 0.10628527 0.59656996 655882
-0.14901838 0.10628527 0.59656996 1246477
-0.14315407 0.10628527 0.59656996 1181713
-0.13728975 0.10628527 0.59656996 1904921
-0.13142544 0.10628527 0.59656996 1050638
-0.12556113 0.10628527 0.59656996 655368
-0.11796208 0.1047449 0.587924 984075
-0.11218277 0.1047449 0.587924 919052
-0.10640345 0.1047449 0.587924 720903
-0.099186644 0.10324855 0.57952511 1050383
-0.093489885 0.10324855 0.57952511 524296
-0.089065492 0.1047449 0.587924 655881
-0.083286174 0.1047449 0.587924 720905
-0.081029885 0.10950603 0.61464781 589832
-0.076141536 0.11119075 0.62410396 720905
-0.070006564 0.11119075 0.62410396 720903
-0.063871592 0.11119075 0.62410396 655625
-0.057736624 0.11119075 0.62410396 721159
0 0 0 590089
0 0 0 786440
0 0 0 918026
0 0 0 1443599
0 0 0 3283486
0 0 0 6829360
0 0 0 9517615
0 0 0 10894118
0 0 0 11352868
0 0 0 11483426
0 0 0 11615269
0 0 0 11286562
0 0 0 11548962
0 0 0 11418146
0 0 0 11418146
0 0 0 11680802
0 0 0 11878181
0 0 0 11877927
0.093263589 0.17627801 0.98943311 11943974
0.10298976 0.17627801 0.98943311 12206119
0.11553384 0.18068497 1.014169 12271397
0.1224421 0.17627801 0.98943311 12468776
0.11289374 0.15057079 0.84514076 12599846
0.12120151 0.15057079 0.84514076 12271910
0.13814323 0.16060886 0.90148348 12207146
0.1575052 0.17208092 0.96587515 12600362
0.1753498 0.18068497 1.014169 12666922
0.20034499 0.19533509 1.0963988 12338217
0 0 0 12600875
0 0 0 12600875
0.28696945 0.24091327 1.3522252 12732200
0.29057604 0.23314188 1.3086051 12535596
0.30343968 0.23314188 1.3086051 12994602
0.30641884 0.2258562 1.2677112 12667182
0.3188805 0.2258562 1.2677112 12797993
0.33134216 0.2258562 1.2677112 12666666
0.34380382 0.2258562 1.2677112 12797738
0.34546953 0.21901207 1.2292956 12600873
0.36872712 0.2258562 1.2677112 12732715
0.38118878 0.2258562 1.2677112 12601386
0.39365044 0.2258562 1.2677112 12732459
0.39380565 0.21901207 1.2292956 12535336
0.41857377 0.2258562 1.2677112 12666922
0.44493979 0.23314188 1.3086051 12601643
0.48937607 0.24922064 1.3988537 12666409
0.52109569 0.25812137 1.4488127 12732202
0.71378344 0.34416184 1.9317503 12600875
0.6994648 0.32851812 1.8439435 12535594
0.60719228 0.27797687 1.5602599 12535596
0.62252969 0.27797687 1.5602599 12142121
0.63786709 0.27797687 1.5602599 11880494
0.80872941 0.34416184 1.9317503 11749166
0.82771862 0.34416184 1.9317503 11814442
0.84670776 0.34416184 1.9317503 11485993
0.82634711 0.32851812 1.8439435 11748395
0.71455425 0.27797687 1.5602599 11748394
0.72989166 0.27797687 1.5602599 11748138
0.74522913 0.27797687 1.5602599 11945260
0.79098916 0.28909594 1.6226703 11551787
0.80694008 0.28909594 1.6226703 11748140
0.822891 0.28909594 1.6226703 11485992
0.83884192 0.28909594 1.6226703 11289642
0.85479283 0.28909594 1.6226703 10895657
0.90702474 0.30114159 1.6902815 10633256
0.92364031 0.30114159 1.6902815 10633000
1.074578 0.34416184 1.9317503 10698792
1.0935673 0.34416184 1.9317503 10698282
1.1125565 0.34416184 1.9317503 10960425
1.1315457 0.34416184 1.9317503 11157031
1.1505349 0.34416184 1.9317503 10960168
1.2280003 0.36136994 2.028338 10895656
1.247939 0.36136994 2.028338 10894632
1.2678777 0.36136994 2.028338 10960425
1.2264916 0.34416184 1.9317503 10633002
1.307755 0.36136994 2.028338 10698023
1.26447 0.34416184 1.9317503 10764072
1.2834592 0.34416184 1.9317503 10960423
1.3024484 0.34416184 1.9317503 10567720
1.3214376 0.34416184 1.9317503 10632743
1.3404268 0.34416184 1.9317503 10566952
1.359416 0.34416184 1.9317503 10435368
1.3784052 0.34416184 1.9317503 10501161
1.3973943 0.34416184 1.9317503 10959656
1.4163835 0.34416184 1.9317503 10501159
1.4353727 0.34416184 1.9317503 10304809
1.4543619 0.34416184 1.9317503 10042921
1.4733511 0.34416184 1.9317503 9977384
1.4923403 0.34416184 1.9317503 9910821
1.5113295 0.34416184 1.9317503 10502698
1.4607588 0.32851812 1.8439435 11290927
1.4145855 0.3142347 1.763772 10700335
1.4319234 0.3142347 1.763772 10503728
1.4492614 0.3142347 1.763772 10437935
1.4665993 0.3142347 1.763772 10438191
1.4839373 0.3142347 1.763772 10438707
1.4387221 0.30114159 1.6902815 10438706
1.4553376 0.30114159 1.6902815 10700848
1.4719532 0.30114159 1.6902815 10766900
1.4885688 0.30114159 1.6902815 10766898
1.6420193 0.32851812 1.8439435 10701107
1.6601453 0.32851812 1.8439435 10503987
1.6782713 0.32851812 1.8439435 10438451
1.6963974 0.32851812 1.8439435 10045235
1.7145234 0.32851812 1.8439435 9717298
1.7326494 0.32851812 1.8439435 9324085
1.8341458 0.34416184 1.9317503 8602165
1.7689016 0.32851812 1.8439435 7815732
1.7093308 0.3142347 1.763772 7750709
1.6547242 0.30114159 1.6902815 7750709
1.8232797 0.32851812 1.8439435 8013879
2.0255466 0.36136994 2.028338 8078902
2.045485 0.36136994 2.028338 7289388
1.9670701 0.34416184 1.9317503 6304551
1.9860593 0.34416184 1.9317503 5516837
1.7544174 0.30114159 1.6902815 5319716
1.8480344 0.3142347 1.763772 5385507
1.8653724 0.3142347 1.763772 5911335
1.8827103 0.3142347 1.763772 6437161
1.9000483 0.3142347 1.763772 6436907
2.0045402 0.32851812 1.8439435 6765356
2.0226662 0.32851812 1.8439435 6895915
1.9520621 0.3142347 1.763772 6502954
1.9694002 0.3142347 1.763772 6568233
1.9867381 0.3142347 1.763772 6634027
2.004076 0.3142347 1.763772 6372141
2.1132965 0.32851812 1.8439435 6175020
2.0387518 0.3142347 1.763772 6240298
2.0560899 0.3142347 1.763772 6306091
2.0734279 0.3142347 1.763772 6437676
2.1858006 0.32851812 1.8439435 6306346
2.3088756 0.34416184 1.9317503 6240811
2.3278649 0.34416184 1.9317503 6109741
3.7910719 0.55595374 3.1205199 6109484
3.8217468 0.55595374 3.1205199 6306350
0 0 0 6372397
0 0 0 6437934
0 0 0 6503470
0 0 0 6372397
0 0 0 6437677
0 0 0 6701362
0 0 0 6964532
0 0 0 4991517
0 0 0 1705990
-4.8415465 0.76261717 4.0566759 1049352
-4.3651533 0.69328833 3.687887 1115147
-3.9681594 0.63551426 3.380563 1773074
-3.9349284 0.63551426 3.380563 2954516
-4.2563972 0.69328833 3.687887 2954259
-4.2201452 0.69328833 3.687887 2822673
-3.8352351 0.63551426 3.380563 2954257
-3.8020041 0.63551426 3.380563 2888466
-3.7687731 0.63551426 3.380563 2954259
-3.7355418 0.63551426 3.380563 2888468
-4.0388846 0.69328833 3.687887 2822675
-4.0026326 0.69328833 3.687887 2888466
-3.9663804 0.69328833 3.687887 2822930
-3.9301283 0.69328833 3.687887 2822930
-3.8938763 0.69328833 3.687887 2822930
-3.8576241 0.69328833 3.687887 2757139
-3.821372 0.69328833 3.687887 2757139
-4.1636324 0.76261717 4.0566759 2626321
-4.123755 0.76261717 4.0566759 2494479
-4.0838776 0.76261717 4.0566759 1377287
-4.0440001 0.76261717 4.0566759 984072
-4.0041227 0.76261717 4.0566759 918536
-3.9642456 0.76261717 4.0566759 918280
-3.9243684 0.76261717 4.0566759 918026
-3.884491 0.76261717 4.0566759 983562
-3.8446138 0.76261717 4.0566759 852744
-3.4588511 0.69328833 3.687887 852743
-3.4225991 0.69328833 3.687887 721416
-3.3863468 0.69328833 3.687887 852232
-3.3500948 0.69328833 3.687887 918797
-3.3138428 0.69328833 3.687887 2166803
-3.2775905 0.69328833 3.687887 1180937
-3.2413385 0.69328833 3.687887 1378830
-3.5255952 0.76261717 4.0566759 2035990
-3.485718 0.76261717 4.0566759 1969934
-3.4458406 0.76261717 4.0566759 1641231
-3.4059634 0.76261717 4.0566759 1641231
-3.7400956 0.84735245 4.5074177 1641231
-3.6957874 0.84735245 4.5074177 1641231
-3.6514795 0.84735245 4.5074177 1575438
-3.6071713 0.84735245 4.5074177 1772817
-3.5628631 0.84735245 4.5074177 1772817
-3.5185549 0.84735245 4.5074177 1772817
-3.474247 0.84735245 4.5074177 1772817
-3.4299388 0.84735245 4.5074177 1838867
-3.8088343 0.95327145 5.0708447 1969939
-3.7589877 0.95327145 5.0708447 2429973
-3.709141 0.95327145 5.0708447 2364180
-3.6592944 0.95327145 5.0708447 2034702
-4.125083 1.0894531 5.7952509 1706767
-4.0681157 1.0894531 5.7952509 2035987
-4.011148 1.0894531 5.7952509 2231570
-3.9541805 1.0894531 5.7952509 2102039
-3.8972127 1.0894531 5.7952509 2955806
-3.8402452 1.0894531 5.7952509 1640974
-3.3103681 0.95327145 5.0708447 1575183
-3.2605214 0.95327145 5.0708447 1640717
-3.2106748 0.95327145 5.0708447 1443082
-3.1608281 0.95327145 5.0708447 1246731
-3.5554073 1.0894531 5.7952509 1378060
-3.4984398 1.0894531 5.7952509 1772047
-3.4414723 1.0894531 5.7952509 1509645
-2.9614415 0.95327145 5.0708447 1312524
-2.9115949 0.95327145 5.0708447 1443853
-2.8617485 0.95327145 5.0708447 2231825
-3.2136018 1.0894531 5.7952509 2494483
-3.1566343 1.0894531 5.7952509 2888210
-2.7122085 0.95327145 5.0708447 5846576
-2.366544 0.84735245 4.5074177 7814445
-2.3222358 0.84735245 4.5074177 6763558
-2.0501349 0.76261717 4.0566759 4201755
-0.44672388 0.16947047 0.90148348 4465179
-0.41922984 0.16225897 0.86312246 3085080
-0.40218809 0.15887856 0.84514076 3874591
-0.39388034 0.15887856 0.84514076 4332828
-0.38557255 0.15887856 0.84514076 4333084
-0.3772648 0.15887856 0.84514076 4399648
-0.34057572 0.14665715 0.78012997 2559763
-0.29846835 0.13148572 0.69942683 787468
-0.27278051 0.12300277 0.65430254 852489
-0.26212093 0.12105034 0.64391679 1049098
-0.25179446 0.11915893 0.63385558 786698
-0.24556363 0.11915893 0.63385558 786697
-0.2393328 0.11915893 0.63385558 852491
-0.23310196 0.11915893 0.63385558 1246477
-0.22687113 0.11915893 0.63385558 918282
-0.21395423 0.11554805 0.61464781 655882
-0.20480905 0.11382346 0.605474 852489
-0.19885722 0.11382346 0.605474 655882
-0.19290538 0.11382346 0.605474 721162
-0.18695354 0.11382346 0.605474 919055
-0.17833991 0.11214958 0.59656996 786697
-0.17504987 0.11382346 0.605474 786953
-0.1666113 0.11214958 0.59656996 655369
-0.16074699 0.11214958 0.59656996 655882
-0.15488268 0.11214958 0.59656996 655368
-0.14901838 0.11214958 0.59656996 655882
-0.14315407 0.11214958 0.59656996 655882
-0.13728975 0.11214958 0.59656996 852236
-0.13142544 0.11214958 0.59656996 655882
-0.12556113 0.11214958 0.59656996 1115661
-0.11796208 0.11052422 0.587924 918283
-0.11218277 0.11052422 0.587924 787209
-0.10640345 0.11052422 0.587924 589834
-0.099186644 0.10894531 0.57952511 1181712
-0.093489885 0.10894531 0.57952511 721418
-0.087793127 0.10894531 0.57952511 655367
-0.088411473 0.11732572 0.62410396 655882
-0.082276508 0.11732572 0.62410396 655882
-0.077331245 0.11915893 0.63385558 720904
0 0 0 721163
0 0 0 852749
0 0 0 1904665
0 0 0 3875880
0 0 0 7485746
0 0 0 9844777
0 0 0 10630434
0 0 0 11023907
0 0 0 11417891
0 0 0 11417635
0 0 0 11418148
0 0 0 11614757
0 0 0 11615270
0 0 0 11417891
0 0 0 11286818
0 0 0 11220769
0 0 0 11287332
0.054358903 0.18600419 0.98943311 11615012
0.064085074 0.18600419 0.98943311 11812136
0.073811248 0.18600419 0.98943311 11877668
0.074457265 0.16578634 0.88188601 11877927
0.083126239 0.16578634 0.88188601 12140326
0.089842133 0.16225897 0.86312246 12075306
0.1004642 0.16578634 0.88188601 12206119
0.10913318 0.16578634 0.88188601 12009254
0.11780216 0.16578634 0.88188601 12468776
0.12120151 0.15887856 0.84514076 12207146
0.13514012 0.16578634 0.88188601 12403496
0.1575052 0.18157551 0.96587515 12535336
0.17107296 0.18600419 0.98943311 12403237
0.1900709 0.19554287 1.0401733 12665639
0.24411055 0.23831786 1.2677112 12666409
0.27367702 0.2542057 1.3522252 12666409
0.28696945 0.2542057 1.3522252 12732202
0.28149551 0.23831786 1.2677112 12666409
0.29395717 0.23831786 1.2677112 12666668
0.30641884 0.23831786 1.2677112 12535082
0.3188805 0.23831786 1.2677112 12404522
0.33134216 0.23831786 1.2677112 12536108
0.3333855 0.2310961 1.2292956 12666409
0.34546953 0.2310961 1.2292956 12666666
0.35755357 0.2310961 1.2292956 12535594
0.36963758 0.2310961 1.2292956 12600872
0.38172162 0.2310961 1.2292956 12600875
0.39380565 0.2310961 1.2292956 12535082
0.40588969 0.2310961 1.2292956 12469803
0.43103543 0.23831786 1.2677112 12732202
0.48937607 0.26297143 1.3988537 12731948
0.50312686 0.26297143 1.3988537 12404010
0.53533757 0.27236328 1.4488127 12469546
0.54957944 0.27236328 1.4488127 12404011
0.60719228 0.29331431 1.5602599 12535596
0.62252969 0.29331431 1.5602599 12535080
0.72106713 0.33157268 1.763772 12535082
0.77196896 0.34664416 1.8439435 12469548
0.82771862 0.36315101 1.9317503 12141867
0.84670776 0.36315101 1.9317503 11944746
0.75748485 0.31775713 1.6902815 12141353
0.68808925 0.2824508 1.5024725 11878953
0.70285863 0.2824508 1.5024725 11813675
0.77503824 0.30504686 1.6226703 11747881
0.79098916 0.30504686 1.6226703 11747881
0.80694008 0.30504686 1.6226703 11747368
0.822891 0.30504686 1.6226703 11879467
0.83884192 0.30504686 1.6226703 11486249
0.85479283 0.30504686 1.6226703 11551273
0.90702474 0.31775713 1.6902815 11551272
0.92364031 0.31775713 1.6902815 11485481
1.0257336 0.34664416 1.8439435 11485224
1.0935673 0.36315101 1.9317503 11157545
1.1125565 0.36315101 1.9317503 11157545
1.1315457 0.36315101 1.9317503 10895402
1.1505349 0.36315101 1.9317503 10698536
1.1695241 0.36315101 1.9317503 10567722
1.247939 0.38130859 2.028338 10239786
1.334608 0.40137747 2.1350925 10174505
1.3555961 0.40137747 2.1350925 10370343
1.2454808 0.36315101 1.9317503 10566951
1.26447 0.36315101 1.9317503 10435879
1.2834592 0.36315101 1.9317503 10828839
1.3024484 0.36315101 1.9317503 10501158
1.3214376 0.36315101 1.9317503 10698025
1.3404268 0.36315101 1.9317503 10632230
1.4273869 0.38130859 2.028338 10566952
1.4473255 0.38130859 2.028338 10566694
1.2758818 0.33157268 1.763772 10632230
1.4163835 0.36315101 1.9317503 10566952
1.4353727 0.36315101 1.9317503 10436393
1.4543619 0.36315101 1.9317503 10305065
1.5470188 0.38130859 2.028338 10238757
1.4923403 0.36315101 1.9317503 10632745
1.5113295 0.36315101 1.9317503 10502184
1.4607588 0.34664416 1.8439435 10504239
1.4145855 0.33157268 1.763772 10307633
1.4319234 0.33157268 1.763772 10504241
1.515137 0.34664416 1.8439435 10503986
1.533263 0.34664416 1.8439435 10504241
1.4839373 0.33157268 1.763772 10569780
1.4387221 0.31775713 1.6902815 10504241
1.4553376 0.31775713 1.6902815 10569521
1.4719532 0.31775713 1.6902815 10635570
1.4885688 0.31775713 1.6902815 10176046
1.5706271 0.33157268 1.763772 10503214
1.7391998 0.36315101 1.9317503 10175276
1.758189 0.36315101 1.9317503 10043950
1.8660372 0.38130859 2.028338 9913133
1.9852377 0.40137747 2.1350925 10044464
2.1176829 0.42367622 2.2537088 10044465
2.2657096 0.44859833 2.3862798 10046005
1.853135 0.36315101 1.9317503 10046257
1.8721242 0.36315101 1.9317503 10176818
1.8911134 0.36315101 1.9317503 10374455
1.6713398 0.31775713 1.6902815 10308404
1.7613447 0.33157268 1.763772 10045747
1.9480809 0.36315101 1.9317503 9847856
2.1741302 0.40137747 2.1350925 9519920
2.1951182 0.40137747 2.1350925 8667182
0 0 0 7683115
0 0 0 6632741
1.8653724 0.33157268 1.763772 6173219
1.8042641 0.31775713 1.6902815 6502185
1.8208796 0.31775713 1.6902815 7160369
1.9173863 0.33157268 1.763772 8014135
2.0226662 0.34664416 1.8439435 8276792
1.9520621 0.33157268 1.763772 7817527
1.9694002 0.33157268 1.763772 7882293
1.9039574 0.31775713 1.6902815 7882293
2.004076 0.33157268 1.763772 7553843
2.1132965 0.34664416 1.8439435 7422257
2.0387518 0.33157268 1.763772 7487795
2.0560899 0.33157268 1.763772 7356466
2.0734279 0.33157268 1.763772 6896685
2.1858006 0.34664416 1.8439435 6962736
2.3088756 0.36315101 1.9317503 6961968
2.4442582 0.38130859 2.028338 6567723
3.7910719 0.58662862 3.1205199 6502702
4.1402254 0.63551426 3.380563 6437425
0 0 0 6305836
0 0 0 6372140
0 0 0 6438190
0 0 0 6503983
0 0 0 6438190
0 0 0 6371629
0 0 0 6175019
0 0 0 4990746
0 0 0 1312263
-4.4014053 0.72954041 3.687887 984073
-4.3651533 0.72954041 3.687887 1049866
-3.9681594 0.6687454 3.380563 1904659
-4.2926493 0.72954041 3.687887 2888467
-4.2563972 0.72954041 3.687887 3216661
-4.2201452 0.72954041 3.687887 3020309
-4.1838932 0.72954041 3.687887 3151636
-3.8020041 0.6687454 3.380563 3085843
-3.7687731 0.6687454 3.380563 3085843
-3.7355418 0.6687454 3.380563 2954514
-4.0388846 0.72954041 3.687887 3085844
-4.0026326 0.72954041 3.687887 3217173
-3.9663804 0.72954041 3.687887 3085330
-3.9301283 0.72954041 3.687887 2954002
-3.8938763 0.72954041 3.687887 2822931
-3.8576241 0.72954041 3.687887 2822932
-4.2035093 0.80249453 4.0566759 2822932
-4.1636324 0.80249453 4.0566759 2494737
-4.123755 0.80249453 4.0566759 2231310
-4.0838776 0.80249453 4.0566759 983044
-4.0440001 0.80249453 4.0566759 852488
-4.0041227 0.80249453 4.0566759 918538
-3.6038594 0.72954041 3.687887 852489
-3.5676074 0.72954041 3.687887 852489
-3.5313554 0.72954041 3.687887 918282
-3.8446138 0.80249453 4.0566759 918282
-3.8047364 0.80249453 4.0566759 852489
-3.4225991 0.72954041 3.687887 655882
-3.1041512 0.6687454 3.380563 720905
-3.3500948 0.72954041 3.687887 1182226
-3.0376892 0.6687454 3.380563 3153180
-3.2775905 0.72954041 3.687887 1114627
-3.2413385 0.72954041 3.687887 786698
-3.5255952 0.80249453 4.0566759 1312526
-3.485718 0.80249453 4.0566759 1904401
-3.4458406 0.80249453 4.0566759 1312013
-3.7844038 0.89166057 4.5074177 984075
-3.7400956 0.89166057 4.5074177 984075
-3.6957874 0.89166057 4.5074177 1312780
-3.6514795 0.89166057 4.5074177 1444110
-3.6071713 0.89166057 4.5074177 1575695
-3.5628631 0.89166057 4.5074177 2035987
-3.5185549 0.89166057 4.5074177 2232595
-3.9085276 1.003118 5.0708447 2232594
-3.858681 1.003118 5.0708447 2101008
-3.8088343 1.003118 5.0708447 2166290
-3.7589877 1.003118 5.0708447 2232081
-3.709141 1.003118 5.0708447 1772044
-3.6592944 1.003118 5.0708447 1903889
-3.6094477 1.003118 5.0708447 2561047
-4.0681157 1.1464206 5.7952509 1510159
-3.5097547 1.003118 5.0708447 1378059
-3.459908 1.003118 5.0708447 1378060
-3.4100614 1.003118 5.0708447 1640461
-3.3602147 1.003118 5.0708447 1181451
-3.3103681 1.003118 5.0708447 2299419
-3.2605214 1.003118 5.0708447 4206896
-3.2106748 1.003118 5.0708447 1509386
-3.1608281 1.003118 5.0708447 1444108
-3.1109815 1.003118 5.0708447 1772816
-3.0611348 1.003118 5.0708447 1509644
-3.0112882 1.003118 5.0708447 2693145
-2.9614415 1.003118 5.0708447 2627093
-2.9115949 1.003118 5.0708447 1707282
-2.8617485 1.003118 5.0708447 1773589
-3.2136018 1.1464206 5.7952509 4075314
-3.1566343 1.1464206 5.7952509 7224108
-1.6690514 0.61730343 3.1205199 7157286
-1.6383766 0.61730343 3.1205199 6106402
-0.52250308 0.20062363 1.014169 3479574
-0.45558551 0.17833211 0.90148348 3612444
-0.43701249 0.17445531 0.88188601 2166803
-0.41922984 0.1707435 0.86312246 3087648
-0.41074529 0.1707435 0.86312246 4005146
-0.40226075 0.1707435 0.86312246 3807513
-0.38557255 0.16718635 0.84514076 3939613
-0.3772648 0.16718635 0.84514076 3874333
-0.35419875 0.16049889 0.81133515 2953237
-0.30370465 0.14078851 0.71169752 853004
-0.28187317 0.13374907 0.67611259 852747
-0.26634869 0.12943459 0.65430254 787211
-0.25179446 0.12538975 0.63385558 852489
-0.24556363 0.12538975 0.63385558 786698
-0.2393328 0.12538975 0.63385558 721673
-0.23310196 0.12538975 0.63385558 1181197
-0.22687113 0.12538975 0.63385558 983305
-0.21395423 0.12159006 0.61464781 786698
-0.20480905 0.1197753 0.605474 655366
-0.19885722 0.1197753 0.605474 655882
-0.19290538 0.1197753 0.605474 721161
-0.18420424 0.11801389 0.59656996 787468
-0.17833991 0.11801389 0.59656996 721161
-0.16997597 0.11630354 0.587924 786697
-0.16419664 0.11630354 0.587924 655882
-0.16074699 0.11801389 0.59656996 721162
-0.15488268 0.11801389 0.59656996 655369
-0.14901838 0.11801389 0.59656996 590087
-0.14315407 0.11801389 0.59656996 721675
-0.13728975 0.11801389 0.59656996 655628
-0.13142544 0.11801389 0.59656996 590090
-0.12556113 0.11801389 0.59656996 721418
-0.11969683 0.11801389 0.59656996 787725
-0.11383252 0.11801389 0.59656996 852490
-0.10640345 0.11630354 0.587924 918025
-0.10062413 0.11630354 0.587924 1377548
-0.093489885 0.11464207 0.57952511 1115918
0 0 0 1115403
0 0 0 1313040
0 0 0 2562077
0 0 0 5057065
0 0 0 8140077
0 0 0 10368549
0 0 0 11089699
0 0 0 11220770
0 0 0 11417121
0 0 0 11548706
0 0 0 11877156
0 0 0 11745572
0 0 0 11745828
0 0 0 11745828
0 0 0 11614755
0 0 0 11548449
0 0 0 11286562
0 0 0 11024417
0 0 0 10893088
0 0 0 10696480
0 0 0 10894373
0.054358903 0.19573036 0.98943311 11156261
0.064085074 0.19573036 0.98943311 11812136
0.073811248 0.19573036 0.98943311 11746598
0.074457265 0.17445531 0.88188601 12074531
0.079662651 0.16718635 0.84514076 12206117
0.086175106 0.16377439 0.82789302 12206119
0.096278191 0.16718635 0.84514076 12468008
0.10913318 0.17445531 0.88188601 12009767
0.11780216 0.17445531 0.88188601 12469030
0.12378026 0.1707435 0.86312246 12534569
0.13514012 0.17445531 0.88188601 12272424
0.15384229 0.18662661 0.94341296 12535082
0.1753498 0.20062363 1.014169 12600616
0.19507276 0.21118276 1.0675462 12601129
0.24411055 0.25077951 1.2677112 12666155
0.25657222 0.25077951 1.2677112 12600875
0.26903388 0.25077951 1.2677112 12600877
0.27296534 0.24318013 1.2292956 12534823
0.29395717 0.25077951 1.2677112 12535082
0.30641884 0.25077951 1.2677112 12469289
0.3188805 0.25077951 1.2677112 12403753
0.33134216 0.25077951 1.2677112 12797483
0.34380382 0.25077951 1.2677112 12666410
0.34546953 0.24318013 1.2292956 12535338
0.35755357 0.24318013 1.2292956 12469289
0.36963758 0.24318013 1.2292956 12732459
0.38172162 0.24318013 1.2292956 12469803
0.39380565 0.24318013 1.2292956 12272937
0.41857377 0.25077951 1.2677112 12535598
0.43103543 0.25077951 1.2677112 12600875
0.47306353 0.26749814 1.3522252 12665385
0.50312686 0.27672222 1.3988537 12470057
0.51687765 0.27672222 1.3988537 12076071
0.53062844 0.27672222 1.3988537 12666922
0.54437923 0.27672222 1.3988537 12469543
0.59947306 0.29722017 1.5024725 12403754
0.61424243 0.29722017 1.5024725 12403753
0.67933273 0.32099777 1.6226703 12535084
0.75574309 0.34891063 1.763772 12272426
0.71123457 0.32099777 1.6226703 11878951
0.67331988 0.29722017 1.5024725 12009767
0.68808925 0.29722017 1.5024725 11878698
0.70285863 0.29722017 1.5024725 11747625
0.77503824 0.32099777 1.6226703 11879467
0.79098916 0.32099777 1.6226703 11616296
0.80694008 0.32099777 1.6226703 11747113
0.822891 0.32099777 1.6226703 11944746
0.83884192 0.32099777 1.6226703 11813416
0.85479283 0.32099777 1.6226703 11813675
0.87074375 0.32099777 1.6226703 11616295
0.92364031 0.3343727 1.6902815 11682346
0.9811365 0.34891063 1.763772 11485224
0.99847448 0.34891063 1.763772 11091750
1.1125565 0.38214022 1.9317503 11419686
1.1315457 0.38214022 1.9317503 10894886
1.1505349 0.38214022 1.9317503 10436392
1.1695241 0.38214022 1.9317503 10764074
1.1885133 0.38214022 1.9317503 10632231
1.2678777 0.40124726 2.028338 10042662
1.2878163 0.40124726 2.028338 10631461
1.2454808 0.38214022 1.9317503 10762533
1.26447 0.38214022 1.9317503 10697766
1.2251202 0.3647702 1.8439435 10370343
1.2432462 0.3647702 1.8439435 10698536
1.2613722 0.3647702 1.8439435 10764073
1.3404268 0.38214022 1.9317503 10436395
1.4273869 0.40124726 2.028338 9845544
1.3784052 0.38214022 1.9317503 9583912
1.3973943 0.38214022 1.9317503 9649961
1.3520025 0.3647702 1.8439435 9649448
1.4353727 0.38214022 1.9317503 9649702
1.5270802 0.40124726 2.028338 9649707
1.5470188 0.40124726 2.028338 9648680
1.4923403 0.38214022 1.9317503 10304811
1.5113295 0.38214022 1.9317503 10699563
1.5303187 0.38214022 1.9317503 10897456
1.5493079 0.38214022 1.9317503 10700849
1.4970108 0.3647702 1.8439435 10635312
1.515137 0.3647702 1.8439435 10569520
1.533263 0.3647702 1.8439435 10306349
1.4839373 0.34891063 1.763772 10699824
1.5012753 0.34891063 1.763772 10503728
1.4553376 0.3343727 1.6902815 10568750
1.4719532 0.3343727 1.6902815 10306093
1.4885688 0.3343727 1.6902815 10371885
1.5706271 0.34891063 1.763772 10371372
1.7391998 0.38214022 1.9317503 10241069
1.758189 0.38214022 1.9317503 9913390
1.8660372 0.40124726 2.028338 10110512
2.0955288 0.44583029 2.2537088 10306352
2.3823931 0.50155902 2.5354223 10372401
2.4073164 0.50155902 2.5354223 10306605
2.2891667 0.47205555 2.3862798 10306860
2.184145 0.44583029 2.2537088 10044975
1.8911134 0.38214022 1.9317503 9847597
1.4856354 0.29722017 1.5024725 9913390
1.5004047 0.29722017 1.5024725 10111028
1.6363881 0.32099777 1.6226703 10111028
1.9670701 0.38214022 1.9317503 10110774
2.1951182 0.42236552 2.1350925 9847598
0 0 0 8668209
0 0 0 8339244
1.5322702 0.28660515 1.4488127 8207403
1.6037904 0.29722017 1.5024725 7813931
1.7480445 0.32099777 1.6226703 7552812
1.8374952 0.3343727 1.6902815 8276017
1.7799463 0.32099777 1.6226703 9850679
1.7958972 0.32099777 1.6226703 10571579
1.8118482 0.32099777 1.6226703 10176821
1.9039574 0.3343727 1.6902815 10177077
1.9205729 0.3343727 1.6902815 9848885
2.021414 0.34891063 1.763772 9783092
2.0387518 0.34891063 1.763772 9980470
2.0560899 0.34891063 1.763772 9914932
1.987035 0.3343727 1.6902815 10046775
2.0907657 0.34891063 1.763772 9915702
2.2039268 0.3647702 1.8439435 10112311
2.3278649 0.38214022 1.9317503 9259576
3.7910719 0.61730343 3.1205199 9194297
0 0 0 8801338
0 0 0 8342074
0 0 0 7883322
0 0 0 7751736
0 0 0 7685943
0 0 0 7357491
0 0 0 6962733
0 0 0 7094062
0 0 0 4925466
0 0 0 1509382
-4.0346217 0.70197648 3.380563 984074
-4.3651533 0.76579249 3.687887 1181196
-3.9681594 0.70197648 3.380563 2101268
-4.2926493 0.76579249 3.687887 2954777
-4.2563972 0.76579249 3.687887 3085845
-4.2201452 0.76579249 3.687887 3217688
-4.1838932 0.76579249 3.687887 3282452
-3.8020041 0.70197648 3.380563 3217173
-3.7687731 0.70197648 3.380563 3282964
-3.7355418 0.70197648 3.380563 3282964
-4.0388846 0.76579249 3.687887 2954516
-4.0026326 0.76579249 3.687887 2954516
-3.9663804 0.76579249 3.687887 2954516
-3.9301283 0.76579249 3.687887 2888723
-3.8938763 0.76579249 3.687887 3020052
-3.8576241 0.76579249 3.687887 2888724
-4.2035093 0.84237182 4.0566759 2625810
-4.6262579 0.9359687 4.5074177 2428688
-4.123755 0.84237182 4.0566759 2034445
-4.0838776 0.84237182 4.0566759 1114632
