# .PCD v0.7 - Point Cloud Data file format
VERSION 0.7
FIELDS x y z rgb
SIZE 4 4 4 4
TYPE F F F U
COUNT 1 1 1 1
WIDTH 1246
HEIGHT 1
VIEWPOINT 0 0 0 1 0 0 0
POINTS 1246
DATA ascii
0.15937939 0.49405739 1.1931399 11155748
0 0 0 11221539
0 0 0 11483426
0 0 0 11352868
0 0 0 11811106
0 0 0 11483938
0 0 0 11614240
0.48295945 0.98811477 2.3862798 11614242
0.50641668 0.98811477 2.3862798 12139813
0.56299102 1.0498719 2.5354223 11811364
0.62710863 1.1198634 2.7044504 11942689
0.61283767 1.0498719 2.5354223 11811364
0.35186812 0.57923973 1.3988537 12008227
0.35343161 0.5599317 1.3522252 11811361
0.37936971 0.57923973 1.3988537 12271398
0.3931205 0.57923973 1.3988537 11877671
0.39330891 0.5599317 1.3522252 12140325
0.36963758 0.50902879 1.2292956 12337448
0.37049454 0.49405739 1.1931399 11878438
0.38222316 0.49405739 1.1931399 11878179
0.39395177 0.49405739 1.1931399 11747111
0.43103543 0.52493596 1.2677112 11811107
0.54584259 0.64607507 1.5602599 11483426
0 0 0 11615268
0 0 0 11681060
0 0 0 12074533
0 0 0 11745828
0.95210421 0.98811477 2.3862798 11548704
0.97556144 0.98811477 2.3862798 11352355
1.0614574 1.0498719 2.5354223 11548963
1.0863807 1.0498719 2.5354223 11417890
1.111304 1.0498719 2.5354223 11417379
1.1362273 1.0498719 2.5354223 11352355
1.0321339 0.93321955 2.2537088 11548964
1.054288 0.93321955 2.2537088 11352356
1.076442 0.93321955 2.2537088 11417633
0.98873651 0.83989763 2.028338 11286307
1.0086751 0.83989763 2.028338 10958882
0.822891 0.67191809 1.6226703 11286564
1.3106905 1.0498719 2.5354223 11090466
0 0 0 11024675
0 0 0 10696997
1.8472806 1.3998293 3.380563 10630686
1.8805116 1.3998293 3.380563 11024673
2.0877194 1.5270865 3.687887 11024162
2.1239715 1.5270865 3.687887 11023908
1.9802049 1.3998293 3.380563 10958625
2.0134361 1.3998293 3.380563 10892833
1.8892312 1.2921501 3.1205199 10761762
1.9199061 1.2921501 3.1205199 10565156
1.950581 1.2921501 3.1205199 10827812
1.2878163 0.83989763 2.028338 10827553
1.307755 0.83989763 2.028338 10565155
1.5619924 0.98811477 2.3862798 10695456
1.4973692 0.93321955 2.2537088 10434341
1.3024484 0.79990244 1.9317503 10171681
1.2613722 0.76354325 1.8439435 10237475
1.3404268 0.79990244 1.9317503 10302497
1.4273869 0.83989763 2.028338 10368290
1.3784052 0.79990244 1.9317503 10106659
1.3338765 0.76354325 1.8439435 10565669
1.3520025 0.76354325 1.8439435 10302754
1.5071415 0.83989763 2.028338 10302498
1.5270802 0.83989763 2.028338 10236706
1.820022 0.98811477 2.3862798 10368034
1.9586967 1.0498719 2.5354223 10236961
1.8669364 0.98811477 2.3862798 10303267
1.8903937 0.98811477 2.3862798 10106149
1.4145855 0.73034573 1.763772 10500650
1.37226 0.69991463 1.6902815 10172454
1.4492614 0.73034573 1.763772 9909540
1.4665993 0.73034573 1.763772 10040356
1.6252646 0.79990244 1.9317503 10237735
1.9182963 0.93321955 2.2537088 10106405
2.4948645 1.1998537 2.8976254 9975587
2.7174523 1.2921501 3.1205199 9909794
2.748127 1.2921501 3.1205199 9844261
2.1249661 0.98811477 2.3862798 9975330
2.1484234 0.98811477 2.3862798 9778468
2.3076231 1.0498719 2.5354223 9844261
2.4880495 1.1198634 2.7044504 10041126
2.9015014 1.2921501 3.1205199 10041894
2.9321761 1.2921501 3.1205199 9910054
3.5015512 1.5270865 3.687887 10106149
4.3239818 1.8664391 4.5074177 10237989
6.5524344 2.7996585 6.761126 10107173
7.9426765 3.3595905 8.1133518 9910308
5.7303076 2.3997073 5.7952509 9713446
1.9290917 0.79990244 1.9317503 9648165
1.6363881 0.67191809 1.6226703 9778981
1.652339 0.67191809 1.6226703 9778726
1.6682899 0.67191809 1.6226703 9778982
1.7544174 0.69991463 1.6902815 9713442
1.7710329 0.69991463 1.6902815 9845029
2.5237391 0.98811477 2.3862798 9844774
2.5471964 0.98811477 2.3862798 9845031
2.5706537 0.98811477 2.3862798 9844518
2.594111 0.98811477 2.3862798 9844261
3.7082214 1.3998293 3.380563 9910567
3.2069592 1.1998537 2.8976254 10107948
3.2354431 1.1998537 2.8976254 10041640
5.07722 1.8664391 4.5074177 9910567
5.7617188 2.0997438 5.0708447 10108200
7.7487535 2.7996585 6.761126 10502958
0 0 0 10438192
0 0 0 10306608
0 0 0 10306097
0 0 0 10109231
0 0 0 10109231
0 0 0 9715755
0 0 0 9060139
0 0 0 7550501
0 0 0 6172452
0 0 0 6566437
0 0 0 6566950
0 0 0 6106661
0 0 0 5384479
0 0 0 4990749
0 0 0 4925728
0 0 0 2167317
0 0 0 3087388
-0.79369611 0.28191352 0.66502881 5321517
-0.78715885 0.28191352 0.66502881 5387305
-0.78062159 0.28191352 0.66502881 5320486
-0.7869857 0.28661206 0.67611259 4926498
-0.78033948 0.28661206 0.67611259 5517865
-0.77369326 0.28661206 0.67611259 5714730
-0.76704705 0.28661206 0.67611259 5911336
-0.76040083 0.28661206 0.67611259 5977128
-0.75375462 0.28661206 0.67611259 6107688
-0.7471084 0.28661206 0.67611259 7091243
-0.76599532 0.29649526 0.69942683 8270631
-0.77243787 0.30169693 0.71169752 9254438
-0.76544189 0.30169693 0.71169752 9254438
-0.815687 0.3244665 0.76541048 8992036
-0.80816299 0.3244665 0.76541048 9188900
-0.80063897 0.3244665 0.76541048 9319202
-0.79311496 0.3244665 0.76541048 9582117
-0.73046178 0.30169693 0.71169752 9778467
-0.72346574 0.30169693 0.71169752 9844258
-0.68064618 0.28661206 0.67611259 9910051
-0.67399997 0.28661206 0.67611259 9910051
-0.66735375 0.28661206 0.67611259 10040865
-0.67190605 0.29146993 0.68757218 9909792
-0.68848568 0.30169693 0.71169752 9844259
-0.68148965 0.30169693 0.71169752 9975073
-0.72539878 0.3244665 0.76541048 10368288
-0.66749763 0.30169693 0.71169752 10499874
-0.69719613 0.31845787 0.75123626 10697251
-0.68981141 0.31845787 0.75123626 10828069
-0.68242675 0.31845787 0.75123626 10762533
-0.67504203 0.31845787 0.75123626 10958882
-0.68025464 0.3244665 0.76541048 10762530
-0.67273062 0.3244665 0.76541048 10565410
-0.66520661 0.3244665 0.76541048 10631460
-0.6576826 0.3244665 0.76541048 10434081
-0.65015858 0.3244665 0.76541048 10959652
-0.64263457 0.3244665 0.76541048 11024674
-0.6351105 0.3244665 0.76541048 11090724
-0.63965553 0.33070627 0.78012997 11090470
-0.64437866 0.33719069 0.79542661 11287847
-0.63655961 0.33719069 0.79542661 11221796
-0.62874055 0.33719069 0.79542661 11090212
-0.62092143 0.33719069 0.79542661 11025187
-0.61310238 0.33719069 0.79542661 11156259
-0.60528326 0.33719069 0.79542661 11156259
-0.5974642 0.33719069 0.79542661 11024930
-0.58964515 0.33719069 0.79542661 11025445
-0.58182603 0.33719069 0.79542661 11287334
-0.57400697 0.33719069 0.79542661 11221543
-0.56618792 0.33719069 0.79542661 11418148
-0.56953621 0.34393451 0.81133515 10959398
-0.56156075 0.34393451 0.81133515 11156004
-0.55358529 0.34393451 0.81133515 11353638
-0.55674469 0.35095358 0.82789302 11287330
-0.54860646 0.35095358 0.82789302 11287589
-0.52965891 0.34393451 0.81133515 11156259
-0.52168345 0.34393451 0.81133515 11156261
-0.51370794 0.34393451 0.81133515 11156261
-0.50573248 0.34393451 0.81133515 11353125
-0.49775705 0.34393451 0.81133515 11352610
-0.48978159 0.34393451 0.81133515 11418146
-0.4916389 0.35095358 0.82789302 11418146
-0.49357358 0.3582651 0.84514076 11483941
-0.49559063 0.36588776 0.86312246 11287588
-0.45787975 0.34393451 0.81133515 11155747
-0.44990426 0.34393451 0.81133515 11221539
-0.4419288 0.34393451 0.81133515 11353123
-0.44280955 0.35095358 0.82789302 10959652
-0.42597789 0.34393451 0.81133515 11418148
-0.40980631 0.33719069 0.79542661 11483939
-0.39425671 0.33070627 0.78012997 11614499
-0.38658801 0.33070627 0.78012997 11548964
-0.40211841 0.35095358 0.82789302 11418148
-0.39398021 0.35095358 0.82789302 11548962
-0.36358187 0.33070627 0.78012997 11352353
-0.34919778 0.3244665 0.76541048 11745314
-0.34167376 0.3244665 0.76541048 11548707
-0.33414975 0.3244665 0.76541048 11745568
-0.30912793 0.30708435 0.72440636 11614757
-0.28665072 0.29146993 0.68757218 11417634
-0.27522695 0.28661206 0.67611259 11548449
-0.26858073 0.28661206 0.67611259 11351842
-0.26193452 0.28661206 0.67611259 11483171
-0.2552883 0.28661206 0.67611259 11155746
-0.24456599 0.28191352 0.66502881 11090468
-0.24199587 0.28661206 0.67611259 10958628
-0.23534966 0.28661206 0.67611259 11155235
-0.22870344 0.28661206 0.67611259 11090211
-0.21841694 0.28191352 0.66502881 11154976
-0.21187969 0.28191352 0.66502881 11154976
-0.20534243 0.28191352 0.66502881 11089955
-0.19880515 0.28191352 0.66502881 11089696
-0.19226789 0.28191352 0.66502881 11351841
-0.18573064 0.28191352 0.66502881 11613728
-0.17919336 0.28191352 0.66502881 11417378
-0.1726561 0.28191352 0.66502881 11482655
-0.16611885 0.28191352 0.66502881 11351584
-0.16224127 0.28661206 0.67611259 11548450
-0.15823227 0.29146993 0.68757218 11351841
-0.154085 0.29649526 0.69942683 11089183
-0.1472096 0.29649526 0.69942683 11089440
-0.1403342 0.29649526 0.69942683 11351583
-0.12286685 0.27296388 0.64391679 11024162
-0.11653712 0.27296388 0.64391679 11351585
-0.11020738 0.27296388 0.64391679 11417378
-0.10387765 0.27296388 0.64391679 11285792
-0.097547919 0.27296388 0.64391679 11351842
-0.082096368 0.2456675 0.57952511 11351326
-0.075323559 0.24220739 0.57136279 11483170
-0.072782353 0.252893 0.59656996 11417633
-0.0650061 0.2456675 0.57952511 11482912
-0.060168892 0.24922788 0.587924 11482399
-0.054389574 0.24922788 0.587924 11679521
-0.051601656 0.26456499 0.62410396 11744801
-0.046910074 0.27296388 0.64391679 11614496
-0.041234862 0.27736652 0.65430254 11483169
-0.03480304 0.27736652 0.65430254 11482656
-0.028371217 0.27736652 0.65430254 11483169
-0.023054956 0.29146993 0.68757218 11483169
-0.016296091 0.29146993 0.68757218 11351585
-0.0095372256 0.29146993 0.68757218 11417378
-0.0027783602 0.29146993 0.68757218 11417376
0.0044311285 0.3244665 0.76541048 11482656
0.011955148 0.3244665 0.76541048 11286562
0.019479167 0.3244665 0.76541048 11220769
0.027003186 0.3244665 0.76541048 11614242
0.035191193 0.33070627 0.78012997 11417378
0.042859904 0.33070627 0.78012997 11613985
0.050528619 0.33070627 0.78012997 11482914
0 0 0 11614499
0 0 0 11286562
0 0 0 11483170
0 0 0 11614241
0.13592215 0.505786 1.1931399 11417890
0.14343219 0.491335 1.1590502 11679778
0.15052499 0.47768682 1.1268544 11220771
0.16621922 0.491335 1.1590502 11352355
0 0 0 11418146
0 0 0 11352867
0 0 0 11680291
0 0 0 11287332
0 0 0 11418148
0.25657222 0.53739762 1.2677112 11614242
0.26903388 0.53739762 1.2677112 11680034
0.56299102 1.0747952 2.5354223 11745825
0.58791435 1.0747952 2.5354223 11417890
0.30641884 0.53739762 1.2677112 11614244
0.3188805 0.53739762 1.2677112 11680291
0.33134216 0.53739762 1.2677112 11548706
0.34380382 0.53739762 1.2677112 11614496
0.3931205 0.59299052 1.3988537 11352353
0.40687129 0.59299052 1.3988537 11614499
0.40660137 0.57322413 1.3522252 11745828
0.38172162 0.52111286 1.2292956 11614498
0.39380565 0.52111286 1.2292956 12206117
0.39395177 0.505786 1.1931399 11877671
0.40568039 0.505786 1.1931399 11680290
0.417409 0.505786 1.1931399 11680548
0 0 0 11811621
0 0 0 11680802
0 0 0 11680548
0 0 0 11548962
0 0 0 11418148
0.97556144 1.011572 2.3862798 11614243
0.99901867 1.011572 2.3862798 11220771
1.022476 1.011572 2.3862798 11483683
0.93583494 0.90509075 2.1350925 11351585
0.86569697 0.81889164 1.9317503 11286562
0.74313641 0.68786901 1.6226703 11155747
0.75908732 0.68786901 1.6226703 11089697
0.84243286 0.74768364 1.763772 11089953
0.82394701 0.7165302 1.6902815 11417634
0.80694008 0.68786901 1.6226703 11417378
0.79124135 0.66141254 1.5602599 11089955
0 0 0 10828066
0 0 0 11155747
0 0 0 10172451
2.0152152 1.5633386 3.687887 9779235
2.0514672 1.5633386 3.687887 9515809
2.0877194 1.5633386 3.687887 10368802
2.1239715 1.5633386 3.687887 10564638
2.1602235 1.5633386 3.687887 10827556
2.0134361 1.4330604 3.380563 10565154
1.8892312 1.3228251 3.1205199 10696227
1.9199061 1.3228251 3.1205199 10761760
1.950581 1.3228251 3.1205199 10696483
1.5150779 1.011572 2.3862798 10893089
1.5385351 1.011572 2.3862798 11024677
1.5619924 1.011572 2.3862798 10761504
1.4973692 0.95537364 2.2537088 10433826
1.3024484 0.81889164 1.9317503 10695970
1.3214376 0.81889164 1.9317503 10499361
1.3404268 0.81889164 1.9317503 10565151
1.359416 0.81889164 1.9317503 10368289
1.3157504 0.78166932 1.8439435 10368033
1.3338765 0.78166932 1.8439435 10105888
1.4163835 0.81889164 1.9317503 10499876
1.5071415 0.85983628 2.028338 10368290
1.5270802 0.85983628 2.028338 10171169
1.4733511 0.81889164 1.9317503 10433570
1.4923403 0.81889164 1.9317503 10368288
1.3799095 0.74768364 1.763772 10303779
1.2854677 0.68786901 1.6226703 10238502
1.3014187 0.68786901 1.6226703 10172966
1.37226 0.7165302 1.6902815 10237987
1.4492614 0.74768364 1.763772 10303783
1.405491 0.7165302 1.6902815 10237734
1.4221066 0.7165302 1.6902815 10040612
1.5695151 0.78166932 1.8439435 10303782
1.6632431 0.81889164 1.9317503 9975333
2.5233483 1.2283374 2.8976254 9975333
2.748127 1.3228251 3.1205199 9582116
2.7788019 1.3228251 3.1205199 9581602
2.8094769 1.3228251 3.1205199 9778722
3.0768309 1.4330604 3.380563 10041637
3.3927948 1.5633386 3.687887 9712932
4.1910577 1.9107473 4.5074177 9778468
3.4652989 1.5633386 3.687887 9712676
3.5015512 1.5633386 3.687887 9909542
1.853135 0.81889164 1.9317503 9778981
4.9143262 2.1495905 5.0708447 9778470
5.6733398 2.4566748 5.7952509 10106149
2.2284532 0.95537364 2.2537088 9975333
1.6204371 0.68786901 1.6226703 9778978
1.6363881 0.68786901 1.6226703 9844516
1.5887874 0.66141254 1.5602599 9712675
1.6682899 0.68786901 1.6226703 9581602
1.7544174 0.7165302 1.6902815 9779753
0 0 0 9713701
0 0 0 9713958
3.9365761 1.5633386 3.687887 9844774
2.5706537 1.011572 2.3862798 9976360
2.3210466 0.90509075 2.1350925 10107433
2.617568 1.011572 2.3862798 9976360
1.7958972 0.68786901 1.6226703 10106919
1.8118482 0.68786901 1.6226703 9844774
1.8277991 0.68786901 1.6226703 10173226
5.1215281 1.9107473 4.5074177 10304810
6.641789 2.4566748 5.7952509 10305579
11.722824 4.299181 10.141689 10174763
0 0 0 10109483
0 0 0 10109228
0 0 0 10043694
0 0 0 10043951
0 0 0 10109487
0 0 0 9781804
0 0 0 9190182
0 0 0 6762531
0 0 0 5909280
0 0 0 6369572
0 0 0 6172708
0 0 0 5712160
0 0 0 5448990
0 0 0 4859424
0 0 0 2298134
0 0 0 2955032
-0.79369611 0.28845078 0.66502881 4795690
-0.78715885 0.28845078 0.66502881 4859936
-0.78062159 0.28845078 0.66502881 4335389
-0.7869857 0.29325828 0.67611259 5450274
-0.78033948 0.29325828 0.67611259 7746598
-0.77369326 0.29325828 0.67611259 8336936
-0.76704705 0.29325828 0.67611259 8664615
-0.76040083 0.29325828 0.67611259 8992037
-0.75375462 0.29325828 0.67611259 9253667
-0.78642994 0.30869296 0.71169752 9515809
-0.82273579 0.32584256 0.75123626 9515811
-0.81535107 0.32584256 0.75123626 9384225
-0.82321101 0.33199051 0.76541048 9318945
-0.815687 0.33199051 0.76541048 9516068
-0.75144982 0.30869296 0.71169752 9318945
-0.70723104 0.29325828 0.67611259 9450273
-0.71245921 0.2982288 0.68757218 9647395
-0.73046178 0.30869296 0.71169752 9384480
-0.76365829 0.32584256 0.75123626 9384735
-0.71646976 0.30869296 0.71169752 9515809
-0.67399997 0.29325828 0.67611259 9844258
-0.66735375 0.29325828 0.67611259 9581599
-0.69548166 0.30869296 0.71169752 10303010
-0.76948392 0.34500974 0.79542661 10172196
-0.76166487 0.34500974 0.79542661 10171683
-0.72539878 0.33199051 0.76541048 10368290
-0.66749763 0.30869296 0.71169752 10500389
-0.69719613 0.32584256 0.75123626 10827812
-0.67726934 0.31991813 0.73757738 10696742
-0.67001897 0.31991813 0.73757738 10828069
-0.66276854 0.31991813 0.73757738 10696225
-0.65551811 0.31991813 0.73757738 11025446
-0.67273062 0.33199051 0.76541048 11025445
-0.66520661 0.33199051 0.76541048 10697253
-0.6576826 0.33199051 0.76541048 10631459
-0.65015858 0.33199051 0.76541048 10631714
-0.64263457 0.33199051 0.76541048 10631458
-0.6351105 0.33199051 0.76541048 11090725
-0.63965553 0.33837497 0.78012997 10959139
-0.64437866 0.34500974 0.79542661 11090468
-0.6492908 0.35190997 0.81133515 11090468
-0.62874055 0.34500974 0.79542661 11156004
-0.62092143 0.34500974 0.79542661 11024673
-0.61310238 0.34500974 0.79542661 10959652
-0.60528326 0.34500974 0.79542661 11090469
-0.5974642 0.34500974 0.79542661 11025702
-0.58964515 0.34500974 0.79542661 10959398
-0.58182603 0.34500974 0.79542661 11287335
-0.58548713 0.35190997 0.81133515 11091236
-0.57751167 0.35190997 0.81133515 11222054
-0.56953621 0.35190997 0.81133515 11090468
-0.57302117 0.35909179 0.82789302 11222053
-0.56488293 0.35909179 0.82789302 11287846
-0.55674469 0.35909179 0.82789302 11287587
-0.54860646 0.35909179 0.82789302 11222052
-0.54046828 0.35909179 0.82789302 11155746
-0.53233004 0.35909179 0.82789302 11418661
-0.5241918 0.35909179 0.82789302 11221539
-0.51605356 0.35909179 0.82789302 11418147
-0.50791538 0.35909179 0.82789302 11221539
-0.49977714 0.35909179 0.82789302 11287074
-0.50188136 0.36657286 0.84514076 11090468
-0.49357358 0.36657286 0.84514076 11221796
-0.50636435 0.38251081 0.88188601 11352353
-0.47695804 0.36657286 0.84514076 11221284
-0.459086 0.35909179 0.82789302 11221538
-0.4419288 0.35190997 0.81133515 11090468
-0.44280955 0.35909179 0.82789302 11090468
-0.43467131 0.35909179 0.82789302 11549220
-0.4265331 0.35909179 0.82789302 11483941
-0.40198722 0.34500974 0.79542661 11615011
-0.41025665 0.35909179 0.82789302 11549477
-0.40211841 0.35909179 0.82789302 11221537
-0.39398021 0.35909179 0.82789302 11484196
-0.36358187 0.33837497 0.78012997 11483169
-0.34919778 0.33199051 0.76541048 11483169
-0.32924926 0.31991813 0.73757738 11482914
-0.32199883 0.31991813 0.73757738 11286560
-0.30370465 0.30869296 0.71169752 11483173
-0.28665072 0.2982288 0.68757218 11614244
-0.27522695 0.29325828 0.67611259 11351840
-0.26858073 0.29325828 0.67611259 11417378
-0.25764054 0.28845078 0.66502881 11220513
-0.25110325 0.28845078 0.66502881 11417376
-0.24456599 0.28845078 0.66502881 11483171
-0.24199587 0.29325828 0.67611259 11483171
-0.23534966 0.29325828 0.67611259 11220771
-0.22870344 0.29325828 0.67611259 11221027
-0.21841694 0.28845078 0.66502881 10958112
-0.21187969 0.28845078 0.66502881 10892576
-0.20534243 0.28845078 0.66502881 11089440
-0.19880515 0.28845078 0.66502881 11482656
-0.19226789 0.28845078 0.66502881 11351330
-0.18573064 0.28845078 0.66502881 11286049
-0.17919336 0.28845078 0.66502881 11220001
-0.1726561 0.28845078 0.66502881 11351585
-0.16611885 0.28845078 0.66502881 11285534
-0.15958159 0.28845078 0.66502881 11154720
-0.15559505 0.29325828 0.67611259 11220000
-0.15678826 0.30869296 0.71169752 11548707
-0.1472096 0.30337065 0.69942683 11220256
-0.1356564 0.29325828 0.67611259 11285792
-0.12286685 0.27929363 0.64391679 10892574
-0.11653712 0.27929363 0.64391679 11220001
-0.11020738 0.27929363 0.64391679 11023392
-0.10387765 0.27929363 0.64391679 11220769
-0.089065492 0.25500721 0.587924 11024162
-0.083286174 0.25500721 0.587924 11220769
-0.075323559 0.24782392 0.57136279 11417377
-0.072782353 0.25875732 0.59656996 11548449
-0.065948211 0.25500721 0.587924 11548193
-0.060168892 0.25500721 0.587924 11351842
-0.054389574 0.25500721 0.587924 11352097
-0.048610255 0.25500721 0.587924 11482912
-0.045466688 0.27069998 0.62410396 11680032
-0.041234862 0.28379834 0.65430254 11548190
-0.03480304 0.28379834 0.65430254 11548451
-0.028836319 0.28845078 0.66502881 11810594
-0.022299055 0.28845078 0.66502881 11482656
-0.016296091 0.2982288 0.68757218 11548449
-0.010420302 0.32584256 0.75123626 11745055
-0.0027783602 0.2982288 0.68757218 11351585
0.0044311285 0.33199051 0.76541048 11219999
0.011955148 0.33199051 0.76541048 11286562
0.019853767 0.33837497 0.78012997 11286564
0.02752248 0.33837497 0.78012997 11482656
0.035191193 0.33837497 0.78012997 11417376
0.042859904 0.33837497 0.78012997 11548962
0.050528619 0.33837497 0.78012997 11417377
0.084062815 0.48876384 1.1268544 11417890
0 0 0 11548708
0 0 0 11417376
0 0 0 11483170
0.13203867 0.50272852 1.1590502 11680291
0.13944796 0.48876384 1.1268544 11810851
0.15052499 0.48876384 1.1268544 11548964
0.16160202 0.48876384 1.1268544 11352098
0.18283664 0.51751465 1.1931399 11418400
0 0 0 11614755
0 0 0 11614242
0 0 0 11418148
0.26936337 0.60674131 1.3988537 11418918
0.27367702 0.58651656 1.3522252 11746085
0.29686496 0.60674131 1.3988537 11680036
0.42894554 0.83788085 1.9317503 11483427
0.44793475 0.83788085 1.9317503 11680548
0.30641884 0.54985929 1.2677112 11679778
0.30012283 0.51751465 1.1931399 11549476
0.31185144 0.51751465 1.1931399 11614757
0.32358006 0.51751465 1.1931399 11548449
0.33530867 0.51751465 1.1931399 11746595
0.39330891 0.58651656 1.3522252 11680547
0.40660137 0.58651656 1.3522252 12008740
0.38172162 0.53319687 1.2292956 11614755
0.38222316 0.51751465 1.1931399 12008740
0.382696 0.50272852 1.1590502 11745571
0.39408952 0.50272852 1.1590502 11877671
0.40548304 0.50272852 1.1590502 11877154
0 0 0 11876641
0 0 0 11811621
0 0 0 11615012
0 0 0 11549476
0 0 0 11418402
0 0 0 11483939
0.99901867 1.0350293 2.3862798 11089955
0.9148469 0.92607886 2.1350925 10894114
0.80822104 0.79979533 1.8439435 10958623
0.82634711 0.79979533 1.8439435 10958881
0.74313641 0.70381993 1.6226703 10893088
0.72989166 0.67674994 1.5602599 11089955
0.77503824 0.70381993 1.6226703 11089953
0.79098916 0.70381993 1.6226703 10893090
0.80694008 0.70381993 1.6226703 11155491
0.822891 0.70381993 1.6226703 10958626
0.83884192 0.70381993 1.6226703 10958882
0.92912263 0.76502162 1.763772 11089955
1.0884298 0.87977493 2.028338 10958881
1.3854605 1.0997186 2.5354223 10828326
2.0514672 1.5995907 3.687887 10434082
2.0877194 1.5995907 3.687887 10564640
1.9469738 1.4662914 3.380563 10040610
1.9802049 1.4662914 3.380563 10433831
1.510077 1.0997186 2.5354223 10564897
1.5350003 1.0997186 2.5354223 10630690
1.4681635 1.0350293 2.3862798 10696480
1.4916207 1.0350293 2.3862798 10893089
1.5150779 1.0350293 2.3862798 10564897
1.5385351 1.0350293 2.3862798 10630175
1.2069941 0.79979533 1.8439435 10695969
1.2251202 0.79979533 1.8439435 10434081
1.2432462 0.79979533 1.8439435 10499104
1.3214376 0.83788085 1.9317503 10565157
1.3404268 0.83788085 1.9317503 10630433
1.359416 0.83788085 1.9317503 10433310
1.3157504 0.79979533 1.8439435 10564640
1.3973943 0.83788085 1.9317503 10433570
1.4163835 0.83788085 1.9317503 10367776
1.4353727 0.83788085 1.9317503 10433568
1.4543619 0.83788085 1.9317503 10302241
1.3452337 0.76502162 1.763772 10106146
1.3057978 0.73314571 1.6902815 10040610
1.2695168 0.70381993 1.6226703 10435367
1.2854677 0.70381993 1.6226703 9974817
1.3014187 0.70381993 1.6226703 9975587
1.3173696 0.70381993 1.6226703 10172708
1.3333205 0.70381993 1.6226703 9975842
1.405491 0.73314571 1.6902815 10041123
1.3652223 0.70381993 1.6226703 10172964
1.4387221 0.73314571 1.6902815 10041894
1.3971242 0.70381993 1.6226703 9844259
1.6057671 0.79979533 1.8439435 9910054
1.4885688 0.73314571 1.6902815 9975590
1.7202107 0.83788085 1.9317503 9844515
2.8094769 1.3534999 3.1205199 9844261
4.1024413 1.9550554 4.5074177 9713188
4.1467495 1.9550554 4.5074177 9780005
4.1910577 1.9550554 4.5074177 9713190
1.8151566 0.83788085 1.9317503 9713190
1.4814255 0.67674994 1.5602599 9516068
1.4413272 0.65168512 1.5024725 9516324
1.4560966 0.65168512 1.5024725 9581860
1.5274378 0.67674994 1.5602599 9844004
1.5427752 0.67674994 1.5602599 9712932
1.5581126 0.67674994 1.5602599 9450786
1.5734501 0.67674994 1.5602599 9451301
1.5887874 0.67674994 1.5602599 9648166
1.6041249 0.67674994 1.5602599 9581859
1.7544174 0.73314571 1.6902815 9647395
0 0 0 9582885
0 0 0 9910056
3.9365761 1.5995907 3.687887 9976105
2.5706537 1.0350293 2.3862798 9780009
2.594111 1.0350293 2.3862798 10304298
2.617568 1.0350293 2.3862798 10107687
1.7958972 0.70381993 1.6226703 10435625
1.6776372 0.65168512 1.5024725 9911338
1.6319634 0.62841064 1.4488127 9846057
1.84375 0.70381993 1.6226703 9715241
4.226593 1.5995907 3.687887 10109231
4.262845 1.5995907 3.687887 9911593
11.822517 4.3988743 10.141689 9845544
0 0 0 10042665
0 0 0 9977385
0 0 0 9977132
0 0 0 9780266
0 0 0 9977130
0 0 0 9517610
0 0 0 8075045
0 0 0 6434338
0 0 0 5843744
0 0 0 5909280
0 0 0 5910565
0 0 0 5449762
0 0 0 5121312
0 0 0 4858908
0 0 0 6829609
-0.93106657 0.34604368 0.78012997 6763816
-0.85744083 0.32132626 0.72440636 7812390
-0.74402994 0.28116047 0.63385558 8598306
-0.84319896 0.32132626 0.72440636 8992290
-0.90039176 0.34604368 0.78012997 8992036
-0.89272302 0.34604368 0.78012997 9123365
-0.76704705 0.2999045 0.67611259 9188386
-0.76040083 0.2999045 0.67611259 9188129
-0.77974612 0.31024605 0.69942683 9253922
-0.78642994 0.31568897 0.71169752 9319202
-0.77943391 0.31568897 0.71169752 9646625
-0.81535107 0.33322725 0.75123626 9187615
-0.80796641 0.33322725 0.75123626 9581604
-0.78602564 0.32716855 0.73757738 9384223
-0.76486856 0.32132626 0.72440636 9318432
-0.74445379 0.31568897 0.71169752 9515808
-0.73745781 0.31568897 0.71169752 9318432
-0.78559089 0.33951452 0.76541048 9581602
-0.77806687 0.33951452 0.76541048 9712929
-0.75627363 0.33322725 0.75123626 9647391
-0.70947373 0.31568897 0.71169752 10106149
-0.70247769 0.31568897 0.71169752 9909540
-0.74797082 0.33951452 0.76541048 10301982
-0.76948392 0.35282883 0.79542661 10303010
-0.79275328 0.36723003 0.82789302 10237731
-0.73934877 0.34604368 0.78012997 10697253
-0.70458078 0.33322725 0.75123626 10631460
-0.69719613 0.33322725 0.75123626 10762534
-0.6422382 0.31024605 0.69942683 10827813
-0.67001897 0.32716855 0.73757738 10959910
-0.63951355 0.31568897 0.71169752 10631201
-0.65551811 0.32716855 0.73757738 10631460
-0.64826769 0.32716855 0.73757738 10565155
-0.66520661 0.33951452 0.76541048 10762787
-0.6576826 0.33951452 0.76541048 10500644
-0.65015858 0.33951452 0.76541048 10368800
-0.64263457 0.33951452 0.76541048 10237472
-0.6351105 0.33951452 0.76541048 10499361
-0.65219778 0.35282883 0.79542661 10762019
-0.64437866 0.35282883 0.79542661 10367775
-0.63655961 0.35282883 0.79542661 10696995
-0.62874055 0.35282883 0.79542661 11090723
-0.62092143 0.35282883 0.79542661 11024675
-0.61310238 0.35282883 0.79542661 11089955
-0.60528326 0.35282883 0.79542661 11024163
-0.5974642 0.35282883 0.79542661 11025188
-0.60143805 0.35988542 0.81133515 11287334
-0.59346259 0.35988542 0.81133515 11156516
-0.58548713 0.35988542 0.81133515 11156261
-0.57751167 0.35988542 0.81133515 11090466
-0.56953621 0.35988542 0.81133515 11090210
-0.57302117 0.36723003 0.82789302 11222570
-0.56488293 0.36723003 0.82789302 11419433
-0.55674469 0.36723003 0.82789302 11156772
-0.54860646 0.36723003 0.82789302 11025188
-0.54046828 0.36723003 0.82789302 11024932
-0.53233004 0.36723003 0.82789302 11222052
-0.5241918 0.36723003 0.82789302 11287332
-0.51605356 0.36723003 0.82789302 11287333
-0.50791538 0.36723003 0.82789302 11287334
-0.49977714 0.36723003 0.82789302 11090466
-0.50188136 0.37488064 0.84514076 11091236
-0.49357358 0.37488064 0.84514076 11484197
-0.50636435 0.3911798 0.88188601 11352356
-0.49769536 0.3911798 0.88188601 11221796
-0.48902637 0.3911798 0.88188601 11418148
-0.48035741 0.3911798 0.88188601 11287332
-0.47168842 0.3911798 0.88188601 11418662
-0.43467131 0.36723003 0.82789302 11614757
-0.4265331 0.36723003 0.82789302 11089953
-0.41839486 0.36723003 0.82789302 11614755
-0.41025665 0.36723003 0.82789302 11287075
-0.40211841 0.36723003 0.82789302 11352353
-0.37853 0.35282883 0.79542661 11549220
-0.36358187 0.34604368 0.78012997 11417890
-0.34273118 0.33322725 0.75123626 11417376
-0.32336983 0.32132626 0.72440636 11417376
-0.31624886 0.32132626 0.72440636 11352355
-0.30370465 0.31568897 0.71169752 11286818
-0.28665072 0.30498764 0.68757218 11417376
-0.27522695 0.2999045 0.67611259 11351583
-0.26858073 0.2999045 0.67611259 11154976
-0.26193452 0.2999045 0.67611259 11089953
-0.2552883 0.2999045 0.67611259 11220769
-0.24864209 0.2999045 0.67611259 11155233
-0.24199587 0.2999045 0.67611259 11417123
-0.23534966 0.2999045 0.67611259 11220769
-0.23257978 0.30498764 0.68757218 11220771
-0.21841694 0.29498804 0.66502881 11089953
-0.21187969 0.29498804 0.66502881 11155748
-0.20534243 0.29498804 0.66502881 11089185
-0.19880515 0.29498804 0.66502881 10826783
-0.19226789 0.29498804 0.66502881 11155234
-0.18882613 0.2999045 0.67611259 10892321
-0.17919336 0.29498804 0.66502881 10760990
-0.1726561 0.29498804 0.66502881 10892576
-0.16611885 0.29498804 0.66502881 11088413
-0.16224127 0.2999045 0.67611259 11023390
-0.15823227 0.30498764 0.68757218 11351072
-0.15678826 0.31568897 0.71169752 11351329
-0.14471453 0.30498764 0.68757218 11285280
-0.1356564 0.2999045 0.67611259 11089698
-0.12901019 0.2999045 0.67611259 11023392
-0.12035801 0.29498804 0.66502881 11088413
-0.11970802 0.31024605 0.69942683 11219999
-0.10225456 0.28116047 0.63385558 11154978
-0.089065492 0.26078653 0.587924 10958369
-0.083286174 0.26078653 0.587924 11024160
-0.077506848 0.26078653 0.587924 11286562
-0.072782353 0.26462162 0.59656996 11483171
-0.065948211 0.26078653 0.587924 11286049
-0.060168892 0.26078653 0.587924 11417635
-0.054389574 0.26078653 0.587924 11679521
-0.048610255 0.26078653 0.587924 11548961
-0.045466688 0.27683493 0.62410396 11482656
-0.041910846 0.29498804 0.66502881 11548447
-0.035373583 0.29498804 0.66502881 11548447
-0.028836319 0.29498804 0.66502881 11613986
-0.022670705 0.2999045 0.67611259 11548705
-0.016867884 0.31568897 0.71169752 11548705
-0.010616911 0.33951452 0.76541048 11548704
-0.0030928911 0.33951452 0.76541048 11548193
0.0044311285 0.33951452 0.76541048 11220513
0.011955148 0.33951452 0.76541048 11221026
0.019479167 0.33951452 0.76541048 11483171
0.02752248 0.34604368 0.78012997 11548450
0.035191193 0.34604368 0.78012997 11548194
0.042859904 0.34604368 0.78012997 11482914
0 0 0 11417633
0 0 0 11483170
0 0 0 11417892
0 0 0 11351842
0.12064515 0.51412201 1.1590502 11483170
0.12837093 0.49984089 1.1268544 11483169
0.13944796 0.49984089 1.1268544 11745314
0.15052499 0.49984089 1.1268544 11548449
0.16160202 0.49984089 1.1268544 11482656
0.18283664 0.52924323 1.1931399 11417376
0.19456525 0.52924323 1.1931399 11352353
0.21254519 0.54528093 1.2292956 11417378
0.23912144 0.58046037 1.3086051 11614755
0.26038459 0.59980899 1.3522252 11483169
0.28311417 0.6204921 1.3988537 11745571
0.29686496 0.6204921 1.3988537 11745572
0.42894554 0.85687 1.9317503 11548962
0.32436654 0.6204921 1.3988537 11221539
0.30641884 0.56232095 1.2677112 11614757
0.3188805 0.56232095 1.2677112 11681320
0.31185144 0.52924323 1.1931399 11680035
0.32358006 0.52924323 1.1931399 11483171
0.33530867 0.52924323 1.1931399 11418147
0.36872712 0.56232095 1.2677112 11286818
0.36963758 0.54528093 1.2292956 11549732
0.37049454 0.52924323 1.1931399 11548962
0.37130249 0.51412201 1.1590502 11745568
0.382696 0.51412201 1.1590502 11548962
0.39408952 0.51412201 1.1590502 11811107
0.417409 0.52924323 1.1931399 11548962
0.50312686 0.6204921 1.3988537 11614756
0 0 0 11680292
0 0 0 11286819
0 0 0 11549219
0 0 0 11352355
0.97556144 1.0584865 2.3862798 11221539
0.77196896 0.8179214 1.8439435 10893860
0.79009503 0.8179214 1.8439435 11024419
0.80822104 0.8179214 1.8439435 10827039
0.82634711 0.8179214 1.8439435 11089701
0.74313641 0.71977085 1.6226703 10828066
0.72989166 0.69208735 1.5602599 10893087
0.77503824 0.71977085 1.6226703 10696224
0.79098916 0.71977085 1.6226703 10959652
0.80694008 0.71977085 1.6226703 11090214
0.76193613 0.66645449 1.5024725 11090210
0.80657881 0.69208735 1.5602599 10958882
0.89040917 0.74976128 1.6902815 10893601
1.0365998 0.85687 1.9317503 11024160
1.3039628 1.0584865 2.3862798 11024162
1.6118671 1.285305 2.8976254 10827555
1.6403509 1.285305 2.8976254 11089955
1.1125565 0.85687 1.9317503 10828324
1.0801117 0.8179214 1.8439435 10368805
1.0982379 0.8179214 1.8439435 10303267
1.1163639 0.8179214 1.8439435 10433570
1.1344899 0.8179214 1.8439435 10565152
1.4916207 1.0584865 2.3862798 10368033
1.5150779 1.0584865 2.3862798 10499361
1.5385351 1.0584865 2.3862798 10498849
1.2069941 0.8179214 1.8439435 10368290
1.2251202 0.8179214 1.8439435 10368290
1.2432462 0.8179214 1.8439435 10302496
1.3214376 0.85687 1.9317503 10564640
1.2794983 0.8179214 1.8439435 10630433
1.359416 0.85687 1.9317503 10368289
1.3157504 0.8179214 1.8439435 10433569
1.3338765 0.8179214 1.8439435 10499361
1.2932198 0.7823596 1.763772 10434084
1.3105577 0.7823596 1.763772 10433572
1.2725667 0.74976128 1.6902815 10433570
1.2891822 0.74976128 1.6902815 10236704
1.3057978 0.74976128 1.6902815 10236706
1.3224133 0.74976128 1.6902815 9975333
1.2854677 0.71977085 1.6226703 9909797
1.3014187 0.71977085 1.6226703 9909538
1.3173696 0.71977085 1.6226703 10171683
1.3333205 0.71977085 1.6226703 10106403
1.3492714 0.71977085 1.6226703 9975590
1.4221066 0.74976128 1.6902815 9844260
1.4387221 0.74976128 1.6902815 9713442
1.3971242 0.71977085 1.6226703 9778981
1.4130751 0.71977085 1.6226703 9713703
1.4885688 0.74976128 1.6902815 9975847
1.7202107 0.85687 1.9317503 9844774
1.7391998 0.85687 1.9317503 10106916
1.758189 0.85687 1.9317503 9910054
3.3927948 1.6358428 3.687887 9844775
1.7961674 0.85687 1.9317503 9713188
1.7326494 0.8179214 1.8439435 9975847
1.5406824 0.71977085 1.6226703 10041126
1.4413272 0.66645449 1.5024725 9975847
1.4560966 0.66645449 1.5024725 9714216
1.470866 0.66645449 1.5024725 9517094
1.5427752 0.69208735 1.5602599 9647654
1.5581126 0.69208735 1.5602599 9581860
1.5734501 0.69208735 1.5602599 9581346
1.5887874 0.69208735 1.5602599 9909540
1.6041249 0.69208735 1.5602599 9778470
1.6194624 0.69208735 1.5602599 9319200
1.7001917 0.71977085 1.6226703 9319457
3.5752971 1.4995226 3.380563 9778722
3.6085281 1.4995226 3.380563 9582372
1.8208796 0.74976128 1.6902815 9910567
1.8374952 0.74976128 1.6902815 9976359
1.7799463 0.71977085 1.6226703 10041640
1.7958972 0.71977085 1.6226703 10107946
1.6776372 0.66645449 1.5024725 10370859
1.6924065 0.66645449 1.5024725 10173226
1.707176 0.66645449 1.5024725 9976362
1.8597009 0.71977085 1.6226703 10108460
1.6746891 0.64265251 1.4488127 10239531
1.5763355 0.59980899 1.3522252 10173993
1.589628 0.59980899 1.3522252 10174764
1.6581936 0.6204921 1.3988537 10173739
0 0 0 9911337
0 0 0 9780266
0 0 0 9648424
0 0 0 9451558
0 0 0 9189928
0 0 0 8206375
0 0 0 6829092
0 0 0 5975587
0 0 0 5713701
0 0 0 6041127
0 0 0 5515556
0 0 0 8861479
0 0 0 9189159
-1.0086554 0.3831884 0.84514076 9057571
-0.97993243 0.37536824 0.82789302 9253920
-0.91572917 0.35371238 0.78012997 9384995
-0.84319896 0.32844719 0.72440636 9253410
-0.73156828 0.2873913 0.63385558 9319458
-0.76100981 0.30152532 0.66502881 9385506
-0.76704705 0.30655071 0.67611259 9384736
-0.77328902 0.31174651 0.68757218 9450016
-0.77974612 0.31712145 0.69942683 9449762
-0.78642994 0.322685 0.71169752 9384225
-0.77943391 0.322685 0.71169752 9253409
-0.8005265 0.33441898 0.73757738 9253155
-0.80796641 0.34061193 0.75123626 9056543
-0.815687 0.34703854 0.76541048 9580833
-0.77877522 0.33441898 0.73757738 9581089
-0.75774759 0.32844719 0.72440636 9515809
-0.75062662 0.32844719 0.72440636 9450016
-0.771043 0.34061193 0.75123626 9581091
-0.77806687 0.34703854 0.76541048 9515550
-0.75627363 0.34061193 0.75123626 9581604
-0.74888891 0.34061193 0.75123626 10105636
-0.75549483 0.34703854 0.76541048 9975075
-0.74797082 0.34703854 0.76541048 10106402
-0.76948392 0.36064792 0.79542661 10368288
-0.79275328 0.37536824 0.82789302 10499361
-0.75384581 0.36064792 0.79542661 10696742
-0.70458078 0.34061193 0.75123626 10630948
-0.6605016 0.322685 0.71169752 10499617
-0.65350556 0.322685 0.71169752 10631201
-0.67001897 0.33441898 0.73757738 10630687
-0.63951355 0.322685 0.71169752 10762530
-0.64381242 0.32844719 0.72440636 10827042
-0.64826769 0.33441898 0.73757738 10827812
-0.652888 0.34061193 0.75123626 10433825
-0.6576826 0.34703854 0.76541048 10434082
-0.65015858 0.34703854 0.76541048 10236704
-0.64263457 0.34703854 0.76541048 10237474
-0.6351105 0.34703854 0.76541048 10369060
-0.63965553 0.35371238 0.78012997 10827811
-0.64437866 0.36064792 0.79542661 10893859
-0.63655961 0.36064792 0.79542661 10894373
-0.62874055 0.36064792 0.79542661 10893859
-0.62092143 0.36064792 0.79542661 11090212
-0.61310238 0.36064792 0.79542661 10959140
-0.60528326 0.36064792 0.79542661 11090466
-0.5974642 0.36064792 0.79542661 10959652
-0.60143805 0.36786088 0.81133515 11024418
-0.60557407 0.37536824 0.82789302 11024932
-0.58548713 0.36786088 0.81133515 11221537
-0.57751167 0.36786088 0.81133515 11025187
-0.56953621 0.36786088 0.81133515 10959652
-0.57302117 0.37536824 0.82789302 11156260
-0.56488293 0.37536824 0.82789302 11222053
-0.55674469 0.37536824 0.82789302 10894373
-0.54860646 0.37536824 0.82789302 10894373
-0.52965891 0.36786088 0.81133515 11222052
-0.52168345 0.36786088 0.81133515 11155746
-0.51370794 0.36786088 0.81133515 11287076
-0.51605356 0.37536824 0.82789302 11287334
-0.51849693 0.3831884 0.84514076 11156005
-0.54420173 0.40873429 0.90148348 11221539
-0.53534013 0.40873429 0.90148348 11417890
-0.52647847 0.40873429 0.90148348 11024675
-0.51761687 0.40873429 0.90148348 11483171
-0.50875527 0.40873429 0.90148348 11483684
-0.49989364 0.40873429 0.90148348 11484197
-0.491032 0.40873429 0.90148348 11155748
-0.49312881 0.41802371 0.92197174 11156259
-0.47330877 0.40873429 0.90148348 11155748
-0.4265331 0.37536824 0.82789302 11221025
-0.41839486 0.37536824 0.82789302 11548704
-0.41025665 0.37536824 0.82789302 11352355
-0.38634905 0.36064792 0.79542661 11483427
-0.37853 0.36064792 0.79542661 11352355
-0.36358187 0.35371238 0.78012997 11548451
-0.35591316 0.35371238 0.78012997 11286562
-0.33534649 0.34061193 0.75123626 11352355
-0.3279618 0.34061193 0.75123626 11351585
-0.30370465 0.322685 0.71169752 11417378
-0.28665072 0.31174651 0.68757218 11221284
-0.27522695 0.30655071 0.67611259 11220768
-0.26858073 0.30655071 0.67611259 11286821
-0.26193452 0.30655071 0.67611259 11220769
-0.2552883 0.30655071 0.67611259 11220769
-0.24864209 0.30655071 0.67611259 11089697
-0.24199587 0.30655071 0.67611259 11089697
-0.23933865 0.31174651 0.68757218 11351842
-0.23257978 0.31174651 0.68757218 11351585
-0.22582091 0.31174651 0.68757218 11286306
-0.21187969 0.30152532 0.66502881 11286047
-0.20534243 0.30152532 0.66502881 10892576
-0.20211858 0.30655071 0.67611259 10760990
-0.19547234 0.30655071 0.67611259 10761249
-0.18882613 0.30655071 0.67611259 10760992
-0.17919336 0.30152532 0.66502881 10826527
-0.1726561 0.30152532 0.66502881 10761249
-0.16888748 0.30655071 0.67611259 11088415
-0.16783579 0.31712145 0.69942683 10958882
-0.16096039 0.31712145 0.69942683 11417378
-0.1514734 0.31174651 0.68757218 11219486
-0.14471453 0.31174651 0.68757218 11286307
-0.1403342 0.31712145 0.69942683 10760990
-0.1358002 0.322685 0.71169752 11023391
-0.12880418 0.322685 0.71169752 11351585
-0.12180816 0.322685 0.71169752 11220514
-0.10225456 0.2873913 0.63385558 11417122
-0.089065492 0.26656586 0.587924 11351585
-0.083286174 0.26656586 0.587924 11285790
-0.077506848 0.26656586 0.587924 11351583
-0.071727529 0.26656586 0.587924 11220769
-0.065948211 0.26656586 0.587924 11220771
-0.060168892 0.26656586 0.587924 11483171
-0.054389574 0.26656586 0.587924 11417377
-0.048610255 0.26656586 0.587924 11351840
-0.045466688 0.28296992 0.62410396 11482656
-0.042609356 0.30655071 0.67611259 11548449
-0.03596314 0.30655071 0.67611259 11483171
-0.029316923 0.30655071 0.67611259 11614244
-0.023863902 0.322685 0.71169752 11679521
-0.016867884 0.322685 0.71169752 11548451
-0.010420302 0.34061193 0.75123626 11613730
-0.0030928911 0.34703854 0.76541048 11286564
0.0044311285 0.34703854 0.76541048 11351585
0.011955148 0.34703854 0.76541048 11745830
0.019479167 0.34703854 0.76541048 11482656
0.02752248 0.35371238 0.78012997 11351585
0.035881214 0.36064792 0.79542661 11418150
0.043700293 0.36064792 0.79542661 11352096
0.051519375 0.36064792 0.79542661 11221024
0 0 0 11220768
0 0 0 11024675
0.10925163 0.52551556 1.1590502 11089953
0.1172939 0.5109179 1.1268544 11089951
0.12490144 0.49710929 1.0963988 11287074
0.13944796 0.5109179 1.1268544 11482656
0.15052499 0.5109179 1.1268544 11680035
0.17629309 0.55736494 1.2292956 11351585
0.18837713 0.55736494 1.2292956 11220769
0.21339415 0.59332401 1.3086051 11548962
0.22625779 0.59332401 1.3086051 11417376
0.23912144 0.59332401 1.3086051 11679519
0.26038459 0.61310142 1.3522252 11614756
0.28311417 0.63424289 1.3988537 11615011
0.35871181 0.76637679 1.6902815 11614243
0.37532735 0.76637679 1.6902815 11352355
0.32436654 0.63424289 1.3988537 11287332
0.31630331 0.59332401 1.3086051 11353123
0.32916698 0.59332401 1.3086051 11548962
0.35343161 0.61310142 1.3522252 11352355
0.32358006 0.54097188 1.1931399 11680548
0.34546953 0.55736494 1.2292956 11484196
0.35755357 0.55736494 1.2292956 11220768
0.36963758 0.55736494 1.2292956 11548964
0.37049454 0.54097188 1.1931399 11614757
0.37130249 0.52551556 1.1590502 11614499
0.39395177 0.54097188 1.1931399 11548707
0.41797373 0.55736494 1.2292956 11877667
0.48937607 0.63424289 1.3988537 11746085
0.52109569 0.65689439 1.4488127 11745827
0.62456053 0.76637679 1.6902815 11483426
0.73277265 0.8758592 1.9317503 11286562
0.75176179 0.8758592 1.9317503 11352355
0.770751 0.8758592 1.9317503 11548965
0.7897402 0.8758592 1.9317503 11351842
0.80872941 0.8758592 1.9317503 11221027
0.82771862 0.8758592 1.9317503 10958367
0.84670776 0.8758592 1.9317503 10499104
0.86569697 0.8758592 1.9317503 11024419
0.74313641 0.73572177 1.6226703 11090468
0.75908732 0.73572177 1.6226703 10434079
0.77503824 0.73572177 1.6226703 10368545
0.79098916 0.73572177 1.6226703 10892835
0.80694008 0.73572177 1.6226703 11024418
0.822891 0.73572177 1.6226703 10958882
0.80657881 0.70742476 1.5602599 10827295
0.89040917 0.76637679 1.6902815 10958625
1.0365998 0.8758592 1.9317503 10958369
1.0555888 0.8758592 1.9317503 11024417
1.074578 0.8758592 1.9317503 10892576
1.0935673 0.8758592 1.9317503 10893089
1.0619857 0.83604741 1.8439435 10958882
1.0801117 0.83604741 1.8439435 10762273
1.0982379 0.83604741 1.8439435 10827812
1.1163639 0.83604741 1.8439435 10958884
1.1344899 0.83604741 1.8439435 10696225
1.1025022 0.79969752 1.763772 10499361
1.170742 0.83604741 1.8439435 10499876
1.2454808 0.8758592 1.9317503 10170909
1.26447 0.8758592 1.9317503 10368290
1.2251202 0.83604741 1.8439435 10171425
1.2432462 0.83604741 1.8439435 10499363
1.2613722 0.83604741 1.8439435 10499618
1.3404268 0.8758592 1.9317503 10565667
1.359416 0.8758592 1.9317503 10433568
1.3157504 0.83604741 1.8439435 10564897
1.3338765 0.83604741 1.8439435 10236704
1.2932198 0.79969752 1.763772 10434085
1.3105577 0.79969752 1.763772 10302498
1.2725667 0.76637679 1.6902815 10301984
1.2891822 0.76637679 1.6902815 10105888
1.3057978 0.76637679 1.6902815 10236705
1.3224133 0.76637679 1.6902815 10105633
1.2854677 0.73572177 1.6226703 10171683
1.3014187 0.73572177 1.6226703 10040869
1.3173696 0.73572177 1.6226703 9975076
1.3333205 0.73572177 1.6226703 10040356
1.2973764 0.70742476 1.5602599 9908257
1.3127139 0.70742476 1.5602599 10040358
1.3811733 0.73572177 1.6226703 9974819
1.3971242 0.73572177 1.6226703 9844003
1.4719532 0.76637679 1.6902815 9713188
1.4885688 0.76637679 1.6902815 9778981
1.6420193 0.83604741 1.8439435 9975849
1.7391998 0.8758592 1.9317503 10041380
1.758189 0.8758592 1.9317503 9778468
1.7771782 0.8758592 1.9317503 9515811
1.7961674 0.8758592 1.9317503 9844774
1.5247315 0.73572177 1.6226703 9779238
1.5406824 0.73572177 1.6226703 9975588
1.5566334 0.73572177 1.6226703 9778981
1.5121003 0.70742476 1.5602599 9844774
1.470866 0.68122387 1.5024725 9778725
1.5427752 0.70742476 1.5602599 9845286
1.5581126 0.70742476 1.5602599 9582117
1.5734501 0.70742476 1.5602599 9712933
1.5887874 0.70742476 1.5602599 9778725
1.5447129 0.68122387 1.5024725 9844260
1.5594822 0.68122387 1.5024725 9778724
1.6347997 0.70742476 1.5602599 9713188
1.7161427 0.73572177 1.6226703 9778725
1.8042641 0.76637679 1.6902815 9712931
1.8208796 0.76637679 1.6902815 9647908
1.8374952 0.76637679 1.6902815 9713958
1.7799463 0.73572177 1.6226703 9779238
1.7958972 0.73572177 1.6226703 9910567
1.8118482 0.73572177 1.6226703 10042408
1.8277991 0.73572177 1.6226703 10436396
1.84375 0.73572177 1.6226703 10239019
1.6604472 0.65689439 1.4488127 10173740
1.5630431 0.61310142 1.3522252 10173483
1.5763355 0.61310142 1.3522252 10043436
1.589628 0.61310142 1.3522252 10043177
1.6581936 0.63424289 1.3988537 10305579
1.9394555 0.73572177 1.6226703 10174765
0 0 0 10304812
0 0 0 10041896
0 0 0 9911081
0 0 0 9648680
0 0 0 9517607
0 0 0 8206890
0 0 0 6237731
0 0 0 5318175
0 0 0 5844004
0 0 0 5909796
0 0 0 9320228
0 0 0 9319715
-1.05251 0.40851775 0.88188601 9385506
-1.0003476 0.39149618 0.84514076 9319713
-0.93368459 0.368467 0.79542661 9122848
-0.76159906 0.30309382 0.65430254 8991520
-0.73156828 0.29362214 0.63385558 9188897
-0.77369326 0.31319693 0.67611259 9319457
-0.79349691 0.32399684 0.69942683 9253152
-0.80042195 0.32968101 0.71169752 9318946
-0.77974612 0.32399684 0.69942683 9318944
-0.78642994 0.32968101 0.71169752 9449760
-0.76599532 0.32399684 0.69942683 9252383
-0.75911993 0.32399684 0.69942683 9384482
-0.79327607 0.34166938 0.73757738 9713188
-0.80058169 0.34799662 0.75123626 9843747
-0.79319704 0.34799662 0.75123626 9450018
-0.75774759 0.33556816 0.72440636 9712930
-0.75062662 0.33556816 0.72440636 9581089
-0.74350572 0.33556816 0.72440636 9646882
-0.77806687 0.35456258 0.76541048 9515296
-0.77054286 0.35456258 0.76541048 9844005
-0.77769232 0.36138111 0.78012997 10105888
-0.77002364 0.36138111 0.78012997 10303523
-0.77730304 0.368467 0.79542661 10303265
-0.76948392 0.368467 0.79542661 10499621
-0.79275328 0.38350648 0.82789302 10499876
-0.72539878 0.35456258 0.76541048 10696740
-0.6917702 0.34166938 0.73757738 10630947
-0.68451977 0.34166938 0.73757738 10434081
-0.66517526 0.33556816 0.72440636 10565667
-0.67001897 0.34166938 0.73757738 10237472
-0.65093338 0.33556816 0.72440636 10433568
-0.65551811 0.34166938 0.73757738 10368288
-0.64826769 0.34166938 0.73757738 10630948
-0.652888 0.34799662 0.75123626 10433825
-0.64550334 0.34799662 0.75123626 10434081
-0.67565501 0.368467 0.79542661 10434853
-0.65499294 0.36138111 0.78012997 10565154
-0.6473242 0.36138111 0.78012997 10696740
-0.63965553 0.36138111 0.78012997 10630947
-0.6319868 0.36138111 0.78012997 11090468
-0.63655961 0.368467 0.79542661 11024676
-0.62874055 0.368467 0.79542661 10631462
-0.62092143 0.368467 0.79542661 10630690
-0.63812697 0.38350648 0.82789302 10696994
-0.62998873 0.38350648 0.82789302 10762530
-0.62185049 0.38350648 0.82789302 10828324
-0.61371231 0.38350648 0.82789302 11090214
-0.64506799 0.40851775 0.88188601 10893859
-0.58548713 0.37583634 0.81133515 11156003
-0.57751167 0.37583634 0.81133515 11156005
-0.56953621 0.37583634 0.81133515 11221539
-0.57302117 0.38350648 0.82789302 11156259
-0.56488293 0.38350648 0.82789302 11090467
-0.55674469 0.38350648 0.82789302 11287333
-0.53763437 0.37583634 0.81133515 11025445
-0.50928742 0.36138111 0.78012997 11157029
-0.50161868 0.36138111 0.78012997 11089954
-0.49394998 0.36138111 0.78012997 11222053
-0.50573248 0.37583634 0.81133515 11024673
-0.52952874 0.39982587 0.86312246 11418661
0 0 0 11221539
0 0 0 11352099
-0.59228837 0.46979544 1.014169 11024675
-0.58231902 0.46979544 1.014169 11155746
-0.69375712 0.56944895 1.2292956 11352355
-0.51125485 0.42708674 0.92197174 11352613
-0.50219184 0.42708674 0.92197174 11221539
-0.49312881 0.42708674 0.92197174 11418150
-0.48406577 0.42708674 0.92197174 11221541
-0.4265331 0.38350648 0.82789302 11548449
-0.41002697 0.37583634 0.81133515 11548706
-0.38658801 0.36138111 0.78012997 11352356
-0.38634905 0.368467 0.79542661 11352612
-0.37853 0.368467 0.79542661 11286562
-0.36358187 0.36138111 0.78012997 11548964
-0.35591316 0.36138111 0.78012997 11352098
-0.34167376 0.35456258 0.76541048 11155746
-0.33414975 0.35456258 0.76541048 11220513
-0.30370465 0.32968101 0.71169752 11548707
-0.28665072 0.31850538 0.68757218 11482656
-0.27522695 0.31319693 0.67611259 11220769
-0.26858073 0.31319693 0.67611259 11286306
-0.26193452 0.31319693 0.67611259 11286563
-0.2552883 0.31319693 0.67611259 11351327
-0.24864209 0.31319693 0.67611259 11351585
-0.24609752 0.31850538 0.68757218 11154976
-0.23933865 0.31850538 0.68757218 11417378
-0.23257978 0.31850538 0.68757218 11285792
-0.22205722 0.31319693 0.67611259 11089697
-0.21541101 0.31319693 0.67611259 10957854
-0.20534243 0.30806258 0.66502881 10957599
-0.19880515 0.30806258 0.66502881 10827296
-0.19226789 0.30806258 0.66502881 10892322
-0.17702451 0.29362214 0.63385558 10826783
-0.17079368 0.29362214 0.63385558 10827296
-0.1755337 0.31319693 0.67611259 10892319
-0.16888748 0.31319693 0.67611259 11023904
-0.16499113 0.31850538 0.68757218 11024418
-0.15823227 0.31850538 0.68757218 10958369
-0.14894883 0.31319693 0.67611259 11023390
-0.14230262 0.31319693 0.67611259 11154976
