# .PCD v0.7 - Point Cloud Data file format
VERSION 0.7
FIELDS x y z rgb
SIZE 4 4 4 4
TYPE F F F U
COUNT 1 1 1 1
WIDTH 1287
HEIGHT 1
VIEWPOINT 0 0 0 1 0 0 0
POINTS 1287
DATA ascii
-2.2972269 0.69450551 2.7044504 7751986
-2.270642 0.69450551 2.7044504 7030064
-2.2440572 0.69450551 2.7044504 7159851
-1.9565933 0.61279899 2.3862798 7882804
-1.933136 0.61279899 2.3862798 7817268
-2.4972725 0.80135256 3.1205199 7816756
-3.2065768 1.0417583 4.0566759 7026986
-3.5185549 1.1575093 4.5074177 5447700
-3.9085276 1.3021978 5.0708447 3411468
-3.4299388 1.1575093 4.5074177 2952205
-1.218827 0.41670331 1.6226703 2887183
-1.2028761 0.41670331 1.6226703 2887442
-1.3487786 0.47352648 1.8439435 2492686
-1.3940169 0.49607536 1.9317503 2952978
-1.8047239 0.65109891 2.5354223 3216151
-2.1905239 0.80135256 3.1205199 3806743
-2.3398364 0.86813188 3.380563 4266524
-3.0754738 1.1575093 4.5074177 4988957
-3.0311658 1.1575093 4.5074177 5383455
-2.9868577 1.1575093 4.5074177 5843233
-2.9425495 1.1575093 4.5074177 5974561
-2.8982413 1.1575093 4.5074177 6106145
-2.8539333 1.1575093 4.5074177 6631458
-3.1608281 1.3021978 5.0708447 7156771
-3.1109815 1.3021978 5.0708447 7221538
-3.0611348 1.3021978 5.0708447 7287846
-2.6767008 1.1575093 4.5074177 7221282
-2.6323926 1.1575093 4.5074177 7089954
-2.5880845 1.1575093 4.5074177 6893860
-2.5437765 1.1575093 4.5074177 5118737
-2.4994683 1.1575093 4.5074177 5777182
-2.4551601 1.1575093 4.5074177 6368286
-2.4108522 1.1575093 4.5074177 5907994
-2.366544 1.1575093 4.5074177 5383195
-2.3222358 1.1575093 4.5074177 4726810
-2.2779276 1.1575093 4.5074177 4791060
-2.2336197 1.1575093 4.5074177 2886669
-2.1893115 1.1575093 4.5074177 3414038
-1.2065643 0.65109891 2.5354223 3019282
-1.0503476 0.57875466 2.2537088 2954772
-0.97407806 0.54829383 2.1350925 2823186
-1.0060395 0.57875466 2.2537088 2100496
-1.041761 0.61279899 2.3862798 2167058
-1.3316281 0.80135256 3.1205199 2429716
-1.3009531 0.80135256 3.1205199 3020057
-1.2702783 0.80135256 3.1205199 2888466
-1.1510603 0.74411303 2.8976254 3084816
-0.87311518 0.57875466 2.2537088 3151380
-0.85096109 0.57875466 2.2537088 3018767
-0.78518558 0.54829383 2.1350925 2428690
-0.76419753 0.54829383 2.1350925 2166289
-0.74320948 0.54829383 2.1350925 2561044
-0.65343839 0.49607536 1.9317503 2624784
-0.42978817 0.33605108 1.3086051 3675928
-0.40389565 0.32554945 1.2677112 4332566
-0.32962862 0.27414691 1.0675462 4529691
-0.31095168 0.26711753 1.0401733 4398619
-0.27924621 0.24803768 0.96587515 4661791
-0.22659136 0.20835166 0.81133515 4991528
-0.22307746 0.21260373 0.82789302 7683635
-0.22408557 0.22165069 0.86312246 10702651
-0.22518331 0.23150183 0.90148348 12405298
-0.21632169 0.23150183 0.90148348 12863275
-0.20746008 0.23150183 0.90148348 12863531
-0.20783558 0.24226937 0.94341296 12994348
-0.1985618 0.24226937 0.94341296 13256233
-0.19379486 0.24803768 0.96587515 13124905
-0.18430026 0.24803768 0.96587515 12797223
-0.17906922 0.25408739 0.98943311 12731175
-0.17357664 0.26043957 1.014169 12665637
-0.1636073 0.26043957 1.014169 12993832
-0.15757741 0.26711753 1.0401733 13387049
-0.14366865 0.26043957 1.014169 13190182
-0.13043836 0.25408739 0.98943311 12927526
-0.11509767 0.24226937 0.94341296 12796196
-0.10582387 0.24226937 0.94341296 12664869
-0.083033077 0.20835166 0.81133515 12599076
-0.073585898 0.20426632 0.79542661 12467490
-0.064502068 0.20033814 0.78012997 12532516
-0.056833357 0.20033814 0.78012997 12729895
-0.048237007 0.19655816 0.76541048 12730151
-0.041495934 0.20033814 0.78012997 12663841
-0.0344905 0.20426632 0.79542661 12402467
-0.027204847 0.20835166 0.81133515 12336674
-0.019621823 0.21260373 0.82789302 12139041
-0.011722839 0.21703297 0.84514076 12007455
-0.0036427386 0.23150183 0.90148348 12008740
0.0054616234 0.24226937 0.94341296 11548964
0.014400519 0.23676324 0.92197174 11483171
0.023463544 0.23676324 0.92197174 11417376
0.032526568 0.23676324 0.92197174 11548964
0.044632733 0.25408739 0.98943311 11746341
0 0 0 11746341
0 0 0 11943461
0 0 0 12205604
0 0 0 12074533
0 0 0 12271651
0 0 0 12402213
0 0 0 12271397
0 0 0 12664869
0 0 0 12402213
0 0 0 12533029
0 0 0 12731180
0.73502433 1.1575093 4.5074177 12664356
0.63763559 0.94705296 3.687887 12599335
0.67388767 0.94705296 3.687887 12337444
0.65096146 0.86813188 3.380563 12402983
0.63156235 0.80135256 3.1205199 12664870
0.71742362 0.86813188 3.380563 12730406
0.81889606 0.94705296 3.687887 12533541
0.85514814 0.94705296 3.687887 12534311
0.61283767 0.65109891 2.5354223 12402724
0.60024565 0.61279899 2.3862798 12402470
0.53014749 0.52087915 2.028338 12599335
0.52389151 0.49607536 1.9317503 12401954
0.54288071 0.49607536 1.9317503 12795942
0.58996344 0.52087915 2.028338 12403237
0.64200217 0.54829383 2.1350925 12534823
0.62984073 0.52087915 2.028338 12533799
0.61883748 0.49607536 1.9317503 12599592
0.63782668 0.49607536 1.9317503 12600360
0.65681589 0.49607536 1.9317503 12600360
0.67580503 0.49607536 1.9317503 12927527
0.58362716 0.41670331 1.6226703 12796710
0.51687765 0.359227 1.3988537 12862248
0.46630985 0.31568432 1.2292956 12863018
0.47839388 0.31568432 1.2292956 12993833
0.49047789 0.31568432 1.2292956 12797224
0.50256193 0.31568432 1.2292956 12665639
0.51464599 0.31568432 1.2292956 12469291
0.52673 0.31568432 1.2292956 12534569
0.55565202 0.32554945 1.2677112 12337448
0.56811363 0.32554945 1.2677112 12272170
0.58057529 0.32554945 1.2677112 12271911
0.59303695 0.32554945 1.2677112 12271912
0.60549861 0.32554945 1.2677112 12337190
0.7062403 0.37205651 1.4488127 12403496
0.80694008 0.41670331 1.6226703 11812904
0.822891 0.41670331 1.6226703 12272169
0.83884192 0.41670331 1.6226703 12206632
0.85479283 0.41670331 1.6226703 12600106
0.87074375 0.41670331 1.6226703 12206122
0.92364031 0.43406594 1.6902815 12075045
0.94025582 0.43406594 1.6902815 11681576
0.95687139 0.43406594 1.6902815 12206119
1.0619857 0.47352648 1.8439435 11877670
0.99010247 0.43406594 1.6902815 12075304
1.006718 0.43406594 1.6902815 11812134
0.98240024 0.41670331 1.6226703 11747367
0.99835116 0.41670331 1.6226703 11484196
1.0565646 0.43406594 1.6902815 11616299
1.0731802 0.43406594 1.6902815 11681318
1.0897957 0.43406594 1.6902815 11877927
1.1064112 0.43406594 1.6902815 11877927
1.1230268 0.43406594 1.6902815 11681578
1.1396424 0.43406594 1.6902815 11484455
1.1100076 0.41670331 1.6226703 11353640
1.1259586 0.41670331 1.6226703 11549989
1.1419095 0.41670331 1.6226703 11419431
1.1578604 0.41670331 1.6226703 11287845
1.1738113 0.41670331 1.6226703 11353127
1.1897622 0.41670331 1.6226703 11549479
1.3701285 0.47352648 1.8439435 11222311
1.4543619 0.49607536 1.9317503 11090984
1.2891822 0.43406594 1.6902815 10959398
1.2535659 0.41670331 1.6226703 10828326
1.2206893 0.40067628 1.5602599 10893862
1.2360268 0.40067628 1.5602599 10697253
1.2513641 0.40067628 1.5602599 10894117
1.2197866 0.38583642 1.5024725 10828325
1.2345561 0.38583642 1.5024725 10500646
1.2493254 0.38583642 1.5024725 10499361
1.6252646 0.49607536 1.9317503 10697257
1.6442538 0.49607536 1.9317503 10959657
1.6632431 0.49607536 1.9317503 10696998
1.4130751 0.41670331 1.6226703 10304293
1.3231723 0.38583642 1.5024725 10107430
1.3379416 0.38583642 1.5024725 10237989
1.3527111 0.38583642 1.5024725 10762533
1.3674804 0.38583642 1.5024725 10303780
1.3822497 0.38583642 1.5024725 10566186
1.7961674 0.49607536 1.9317503 10237734
1.8151566 0.49607536 1.9317503 10172451
1.9258533 0.52087915 2.028338 10370859
1.4413272 0.38583642 1.5024725 10437165
1.3556761 0.359227 1.3988537 10241069
1.3694268 0.359227 1.3988537 10175276
1.3831778 0.359227 1.3988537 9977643
1.5581126 0.40067628 1.5602599 10109231
1.5734501 0.40067628 1.5602599 9911597
1.5887874 0.40067628 1.5602599 9845546
1.4381809 0.359227 1.3988537 10042153
1.4519317 0.359227 1.3988537 9911852
1.7001917 0.41670331 1.6226703 9911852
2.0430269 0.49607536 1.9317503 9912109
0 0 0 9846571
2.3000586 0.54829383 2.1350925 10043436
2.4499936 0.57875466 2.2537088 9977645
2.4721477 0.57875466 2.2537088 9716016
2.4943018 0.57875466 2.2537088 9650995
2.3840108 0.54829383 2.1350925 9781552
3.5149984 0.80135256 3.1205199 9978411
3.5456731 0.80135256 3.1205199 9912875
4.226593 0.94705296 3.687887 9780265
4.262845 0.94705296 3.687887 9189674
5.2544522 1.1575093 4.5074177 9321258
5.2987604 1.1575093 4.5074177 9518122
4.0073013 0.86813188 3.380563 9714474
4.0405321 0.86813188 3.380563 10042927
4.4441056 0.94705296 3.687887 10043179
5.4759932 1.1575093 4.5074177 9781289
5.5203009 1.1575093 4.5074177 9585456
6.2601852 1.3021978 5.0708447 9454897
8.4133759 1.7362638 6.761126 9585713
0 0 0 9716784
0 0 0 9585198
0 0 0 8995632
0 0 0 8669750
0 0 0 8931641
0 0 0 1049098
0 0 0 852489
0 0 0 852746
0 0 0 787468
0 0 0 787468
0 0 0 852491
-23.410185 5.4081779 20.283379 918282
-23.210798 5.4081779 20.283379 852489
-23.011412 5.4081779 20.283379 721675
0 0 0 721675
0 0 0 919056
0 0 0 1246481
0 0 0 4205109
-7.3381596 1.8027259 6.761126 7887704
-4.8477983 1.2018174 4.5074177 8937802
-4.3231416 1.0816356 4.0566759 9264451
-4.2832642 1.0816356 4.0566759 8279360
-3.0309904 0.77259684 2.8976254 7557178
-2.8023393 0.72109038 2.7044504 5784107
-2.7757545 0.72109038 2.7044504 7559244
-2.7491696 0.72109038 2.7044504 9728595
-3.1414442 0.83202744 3.1205199 6504992
-3.1107693 0.83202744 3.1205199 4400148
-3.6401114 0.9833051 3.687887 4072475
-3.9642456 1.0816356 4.0566759 4598049
-3.9243684 1.0816356 4.0566759 5583141
-3.884491 1.0816356 4.0566759 6306349
-3.8446138 1.0816356 4.0566759 6635058
-3.4588511 0.9833051 3.687887 6635571
-2.8960454 0.83202744 3.1205199 6503211
-2.8653705 0.83202744 3.1205199 6764840
-2.8346958 0.83202744 3.1205199 7093806
-2.8040209 0.83202744 3.1205199 7356976
-2.7733459 0.83202744 3.1205199 7225130
-2.3769815 0.72109038 2.7044504 6633764
-1.468998 0.45068148 1.6902815 6437414
-1.4523824 0.45068148 1.6902815 5452322
-1.6408764 0.51506454 1.9317503 4006939
-2.128727 0.67602223 2.5354223 2562581
-1.683043 0.5408178 2.028338 2167824
-1.6631044 0.5408178 2.028338 2430484
-1.6431657 0.5408178 2.028338 3677466
-3.2464542 1.0816356 4.0566759 6040868
0 0 0 4396303
0 0 0 2623501
0 0 0 2033934
-0.88198423 0.30903876 1.1590502 2034704
-0.87059075 0.30903876 1.1590502 2297106
-0.91126972 0.32776836 1.2292956 1902347
-0.98910427 0.36054519 1.3522252 1639434
-0.97581184 0.36054519 1.3522252 1639948
-0.96251935 0.36054519 1.3522252 2559508
-1.7798005 0.67602223 2.5354223 2558479
-2.1598489 0.83202744 3.1205199 2690837
0 0 0 3807515
0 0 0 4135452
0 0 0 4200983
-2.9425495 1.2018174 4.5074177 4923932
-2.8982413 1.2018174 4.5074177 5580832
-1.2842699 0.5408178 2.028338 5975075
-2.8096251 1.2018174 4.5074177 6106401
-2.765317 1.2018174 4.5074177 5514524
-2.721009 1.2018174 4.5074177 5317147
-2.6767008 1.2018174 4.5074177 5120024
-2.6323926 1.2018174 4.5074177 5054233
-1.164638 0.5408178 2.028338 4989211
-1.5262657 0.72109038 2.7044504 3806993
-2.4994683 1.2018174 4.5074177 4594201
-2.4551601 1.2018174 4.5074177 3938068
-1.808139 0.90136296 3.380563 3543310
-1.7749078 0.90136296 3.380563 3346446
-2.0900123 1.0816356 4.0566759 3544338
-2.0501349 1.0816356 4.0566759 2952461
-1.3401717 0.72109038 2.7044504 3019028
-1.2314876 0.67602223 2.5354223 2756882
-1.0725017 0.6009087 2.2537088 2231311
-0.99506611 0.56928188 2.1350925 2296845
-0.92537421 0.5408178 2.028338 3149841
-0.95309001 0.56928188 2.1350925 3085075
-0.84333032 0.51506454 1.9317503 2231568
-0.96173137 0.6009087 2.2537088 1968910
-0.99484652 0.63625622 2.3862798 3085334
-1.1009078 0.72109038 2.7044504 2362127
-0.94793206 0.63625622 2.3862798 1707022
-0.87311518 0.6009087 2.2537088 3085589
-0.76586497 0.5408178 2.028338 2887696
-0.59674102 0.43265423 1.6226703 2166290
-0.5807901 0.43265423 1.6226703 2100751
-0.74320948 0.56928188 2.1350925 2493969
-0.52777719 0.41601372 1.5602599 2559247
-0.41635731 0.33801112 1.2677112 4201239
-0.36927602 0.30903876 1.1590502 8270886
-0.32117662 0.27734247 1.0401733 11618094
-0.28874081 0.25753227 0.96587515 12404010
-0.23456684 0.21632712 0.81133515 12600871
-0.20980683 0.2003029 0.75123626 13059626
-0.21432932 0.21208541 0.79542661 12994344
-0.20651025 0.21208541 0.79542661 13191211
-0.19869116 0.21208541 0.79542661 13125930
-0.19087209 0.21208541 0.79542661 12993830
-0.18671407 0.21632712 0.81133515 13190954
-0.19859844 0.24036346 0.90148348 13190184
-0.19404903 0.24582627 0.92197174 12994089
-0.18928801 0.25154316 0.94341296 12796967
-0.18430026 0.25753227 0.96587515 12927782
-0.17906922 0.26381356 0.98943311 12862503
-0.16934305 0.26381356 0.98943311 12795942
-0.1636073 0.2704089 1.014169 12336420
-0.15363798 0.2704089 1.014169 12534823
-0.14366865 0.2704089 1.014169 12730406
-0.13043836 0.26381356 0.98943311 12993064
-0.11783808 0.25753227 0.96587515 12795428
-0.092865855 0.22074196 0.82789302 12664354
-0.083033077 0.21632712 0.81133515 12402467
-0.073585898 0.21208541 0.79542661 12533027
-0.064502068 0.20800686 0.78012997 12730149
-0.056833357 0.20800686 0.78012997 12270881
-0.049164645 0.20800686 0.78012997 12139811
-0.041495934 0.20800686 0.78012997 12008225
-0.0344905 0.21208541 0.79542661 12074272
-0.027204847 0.21632712 0.81133515 12401443
-0.019621823 0.22074196 0.82789302 12139813
-0.011722839 0.22534074 0.84514076 12204834
-0.0036427386 0.24036346 0.90148348 11942434
0.0053374954 0.24582627 0.92197174 11745314
0.014400519 0.24582627 0.92197174 11876641
0.023463544 0.24582627 0.92197174 11615009
0.034906559 0.26381356 0.98943311 11614755
0.044632733 0.26381356 0.98943311 11942693
0 0 0 11877154
0 0 0 11548962
0 0 0 11877152
0 0 0 12336420
0 0 0 12730408
0 0 0 12664354
0 0 0 12467490
0 0 0 12664867
0 0 0 12599076
0 0 0 12664615
1.0360743 1.8027259 6.761126 12336420
1.1025364 1.8027259 6.761126 12402213
1.1689986 1.8027259 6.761126 11745571
0.82364053 1.2018174 4.5074177 11417890
0.71013975 0.9833051 3.687887 12074789
0.58645076 0.77259684 2.8976254 12664356
0.61493456 0.77259684 2.8976254 12664611
0.64341831 0.77259684 2.8976254 12532769
0.58791435 0.67602223 2.5354223 12665382
0.61283767 0.67602223 2.5354223 12271652
0.53706187 0.56928188 2.1350925 12533286
0.5049023 0.51506454 1.9317503 12534311
0.44006887 0.43265423 1.6226703 12664871
0.51820433 0.49165255 1.8439435 12337703
0.53633034 0.49165255 1.8439435 12468260
0.60990208 0.5408178 2.028338 12337703
0.59984827 0.51506454 1.9317503 12730662
0.61883748 0.51506454 1.9317503 12337702
0.47837001 0.38629842 1.4488127 12796457
0.55172533 0.43265423 1.6226703 12796457
0.56767625 0.43265423 1.6226703 12861480
0.58362716 0.43265423 1.6226703 12534823
0.53533757 0.38629842 1.4488127 12731178
0.51294082 0.36054519 1.3522252 12600362
0.47839388 0.32776836 1.2292956 12928040
0.49047789 0.32776836 1.2292956 12797224
0.50256193 0.32776836 1.2292956 12206117
0.51464599 0.32776836 1.2292956 12861992
0.52673 0.32776836 1.2292956 12337447
0.55565202 0.33801112 1.2677112 12206117
0.56811363 0.33801112 1.2677112 12796458
0.58057529 0.33801112 1.2677112 12403237
0.59303695 0.33801112 1.2677112 12337192
0.6458652 0.36054519 1.3522252 12271912
0.7062403 0.38629842 1.4488127 12730662
0.74716675 0.4006058 1.5024725 12271656
0.79124135 0.41601372 1.5602599 12402470
0.83884192 0.43265423 1.6226703 12272167
0.85479283 0.43265423 1.6226703 12009512
0.87074375 0.43265423 1.6226703 12140586
0.88669467 0.43265423 1.6226703 12141099
0.94025582 0.45068148 1.6902815 11944233
0.95687139 0.45068148 1.6902815 12008738
0.9734869 0.45068148 1.6902815 12008998
0.9504984 0.43265423 1.6226703 12009254
0.96644932 0.43265423 1.6226703 11811877
0.98240024 0.43265423 1.6226703 12140840
0.99835116 0.43265423 1.6226703 11878181
1.014302 0.43265423 1.6226703 11616295
0.95393795 0.4006058 1.5024725 11877927
1.046204 0.43265423 1.6226703 11418659
1.0621549 0.43265423 1.6226703 11353126
1.1230268 0.45068148 1.6902815 11418405
1.0940567 0.43265423 1.6226703 11353383
1.067315 0.41601372 1.5602599 11484713
1.0826524 0.41601372 1.5602599 11616295
1.1419095 0.43265423 1.6226703 11614759
1.1578604 0.43265423 1.6226703 11484199
1.1738113 0.43265423 1.6226703 11287333
1.3520025 0.49165255 1.8439435 11222054
1.4353727 0.51506454 1.9317503 11222054
1.4543619 0.51506454 1.9317503 11090470
1.237615 0.43265423 1.6226703 11156007
1.2535659 0.43265423 1.6226703 11025449
1.2695168 0.43265423 1.6226703 10893862
1.2854677 0.43265423 1.6226703 10894378
1.1619809 0.38629842 1.4488127 11024421
1.1356634 0.37297779 1.3988537 10827555
1.1494142 0.37297779 1.3988537 10828327
1.2047065 0.38629842 1.4488127 10827814
1.3652223 0.43265423 1.6226703 10696740
1.3811733 0.43265423 1.6226703 10893859
1.5186132 0.47027633 1.763772 10828070
1.4130751 0.43265423 1.6226703 10697253
1.3231723 0.4006058 1.5024725 10434083
1.2456697 0.37297779 1.3988537 10762535
1.2594205 0.37297779 1.3988537 10762533
1.2731713 0.37297779 1.3988537 10500645
1.4928297 0.43265423 1.6226703 10368034
1.7961674 0.51506454 1.9317503 10236963
1.8151566 0.51506454 1.9317503 10237475
1.4265579 0.4006058 1.5024725 10370602
1.3419253 0.37297779 1.3988537 10109229
1.1232746 0.30903876 1.1590502 9912363
1.1346681 0.30903876 1.1590502 9977643
1.2155198 0.32776836 1.2292956 9912622
1.3969285 0.37297779 1.3988537 10109231
1.2784282 0.33801112 1.2677112 10240304
1.2908897 0.33801112 1.2677112 10306095
1.3453951 0.34891471 1.3086051 10240302
1.4519317 0.37297779 1.3988537 10175023
1.7001917 0.43265423 1.6226703 10240303
0 0 0 10043436
0 0 0 9911850
2.3000586 0.56928188 2.1350925 9518634
2.3210466 0.56928188 2.1350925 9584173
2.3420346 0.56928188 2.1350925 9518635
1.3605281 0.32776836 1.2292956 9321514
1.3726121 0.32776836 1.2292956 9582887
1.427968 0.33801112 1.2677112 9387048
3.2924106 0.77259684 2.8976254 9387305
3.3208945 0.77259684 2.8976254 9846059
5.861412 1.3520445 5.0708447 9913392
5.9112587 1.3520445 5.0708447 9846829
5.9611053 1.3520445 5.0708447 9846571
4.0073013 0.90136296 3.380563 9978154
4.4078536 0.9833051 3.687887 9846827
4.8885164 1.0816356 4.0566759 10174509
4.9283938 1.0816356 4.0566759 9912622
4.1402254 0.90136296 3.380563 10109229
6.2601852 1.3520445 5.0708447 9912363
0 0 0 9846571
0 0 0 9846830
0 0 0 9583403
0 0 0 9322030
0 0 0 8995373
0 0 0 8670003
0 0 0 787467
0 0 0 721673
0 0 0 721673
0 0 0 853002
0 0 0 786696
0 0 0 852489
0 0 0 721675
-23.210798 5.6075644 20.283379 852491
-11.505706 2.8037822 10.141689 721673
-11.406013 2.8037822 10.141689 852489
-22.612638 5.6075644 20.283379 656395
-22.413252 5.6075644 20.283379 1115663
-7.4046216 1.8691881 6.761126 1181971
-5.5036197 1.4018911 5.0708447 1642258
-3.1164417 0.80108064 2.8976254 2297108
-3.0879579 0.80108064 2.8976254 1639694
-3.0594742 0.80108064 2.8976254 983564
-3.0309904 0.80108064 2.8976254 1574925
-3.0025065 0.80108064 2.8976254 4533800
-3.2027938 0.86270225 3.1205199 4268822
-3.1721191 0.86270225 3.1205199 6505266
-2.9170551 0.80108064 2.8976254 6897452
-2.8885715 0.80108064 2.8976254 6766125
-2.8600876 0.80108064 2.8976254 6831406
-2.6428301 0.74767524 2.7044504 6897198
-3.0187449 0.86270225 3.1205199 7160368
-2.4278069 0.70094556 2.5354223 7160621
-2.4028835 0.70094556 2.5354223 7423789
-1.311978 0.38672858 1.3988537 7685679
-1.0175295 0.30311158 1.0963988 6568493
-2.8653705 0.86270225 3.1205199 5386018
-2.8346958 0.86270225 3.1205199 3085579
-2.4301512 0.74767524 2.7044504 2166282
-1.0925301 0.33985236 1.2292956 1773585
-1.0804461 0.33985236 1.2292956 1773074
-1.1017485 0.35047278 1.2677112 2165777
-1.1244251 0.36177835 1.3086051 1838610
-1.1115614 0.36177835 1.3086051 1904403
-1.3623853 0.44860515 1.6226703 1969680
-1.3464344 0.44860515 1.6226703 1838353
-1.4461776 0.4876143 1.763772 3611422
-1.4288397 0.4876143 1.763772 5383969
-1.5459304 0.53405374 1.9317503 3410697
0 0 0 2229000
0 0 0 2495514
-0.67974389 0.24380715 0.88188601 5519932
-0.67107493 0.24380715 0.88188601 2623237
-0.67712611 0.24922508 0.90148348 2100493
-0.66826445 0.24922508 0.90148348 2035217
-0.6743893 0.25488928 0.92197174 1904401
-0.65054125 0.24922508 0.90148348 1706766
-0.65626323 0.25488928 0.92197174 1705484
-0.63281798 0.24922508 0.90148348 1507590
-0.63813716 0.25488928 0.92197174 2625301
0 0 0 3216663
0 0 0 3677213
0 0 0 4661018
-1.3241472 0.5607565 2.028338 4923933
-0.70497757 0.30311158 1.0963988 4923418
-0.69419992 0.30311158 1.0963988 4857368
-0.68342227 0.30311158 1.0963988 4529432
-0.7110815 0.32043228 1.1590502 4003601
-0.74209327 0.33985236 1.2292956 3806996
-0.77710664 0.36177835 1.3086051 3806220
-0.9112128 0.43135113 1.5602599 3609618
-0.93171042 0.44860515 1.6226703 3478548
-1.1446993 0.5607565 2.028338 2165003
0 0 0 2428174
0 0 0 2690319
0 0 0 2559503
-1.6383766 0.86270225 3.1205199 2230541
-1.6077017 0.86270225 3.1205199 2230283
-1.2813343 0.70094556 2.5354223 2230542
-1.256411 0.70094556 2.5354223 2231056
-1.2314876 0.70094556 2.5354223 1705997
-1.0160542 0.59026992 2.1350925 1444110
-0.99506611 0.59026992 2.1350925 1706254
-0.88130873 0.53405374 1.9317503 2034446
-0.86231953 0.53405374 1.9317503 2952208
-0.84333032 0.53405374 1.9317503 2361870
-0.86555827 0.5607565 2.028338 1772046
-0.99484652 0.65971345 2.3862798 1705996
-1.1009078 0.74767524 2.7044504 2165777
-1.0743229 0.74767524 2.7044504 3149587
-1.0477381 0.74767524 2.7044504 2494739
-0.76586497 0.5607565 2.028338 3019282
-0.55253804 0.41537514 1.5024725 3939869
-0.53776866 0.41537514 1.5024725 6041129
-0.61395562 0.4876143 1.763772 8667189
-0.65343839 0.53405374 1.9317503 11028788
-0.63444918 0.53405374 1.9317503 12273194
-0.49710235 0.43135113 1.5602599 12601129
-0.31314722 0.28037825 1.014169 12928296
-0.29578328 0.27353972 0.98943311 12600616
-0.27924621 0.26702687 0.96587515 13059112
-0.20231372 0.20027016 0.72440636 12929066
-0.20242214 0.20768757 0.75123626 12797481
-0.1987174 0.2116062 0.76541048 12797224
-0.19487019 0.21567556 0.78012997 12928037
-0.19087209 0.21990448 0.79542661 12927783
-0.18671407 0.22430257 0.81133515 13387563
-0.18238634 0.22888018 0.82789302 12993321
-0.18973683 0.24922508 0.90148348 12993317
-0.184986 0.25488928 0.92197174 12862245
-0.18430026 0.26702687 0.96587515 12666152
-0.17906922 0.27353972 0.98943311 12993319
-0.16934305 0.27353972 0.98943311 12927272
-0.1636073 0.28037825 1.014169 12468260
-0.15363798 0.28037825 1.014169 12862248
-0.14366865 0.28037825 1.014169 12927526
-0.13043836 0.27353972 0.98943311 12533029
-0.11783808 0.26702687 0.96587515 12598822
-0.092865855 0.22888018 0.82789302 12140578
-0.083033077 0.22430257 0.81133515 12861735
-0.075057611 0.22430257 0.81133515 12860706
-0.065766819 0.21990448 0.79542661 12466724
-0.056833357 0.21567556 0.78012997 12664869
-0.049164645 0.21567556 0.78012997 12467236
-0.041495934 0.21567556 0.78012997 12139813
-0.0344905 0.21990448 0.79542661 12139811
-0.026671419 0.21990448 0.79542661 11877154
-0.019229386 0.22430257 0.81133515 12138789
-0.010821083 0.21567556 0.78012997 11745830
-0.0032784648 0.22430257 0.81133515 11876641
0.004696996 0.22430257 0.81133515 11811623
0.014400519 0.25488928 0.92197174 11745314
0.025180388 0.27353972 0.98943311 11679775
0 0 0 11549216
0 0 0 11745828
0 0 0 12073250
0 0 0 12074533
0 0 0 12533281
0 0 0 12008227
0 0 0 12664356
0 0 0 12533029
0 0 0 12467236
0 0 0 12534053
0 0 0 12598563
0.32320404 0.62306273 2.2537088 12730408
0.3453581 0.62306273 2.2537088 12795942
0.73502433 1.2461255 4.5074177 12205606
1.1689986 1.8691881 6.761126 12008741
0.82364053 1.2461255 4.5074177 11877669
0.55796695 0.80108064 2.8976254 12008741
0.51314443 0.70094556 2.5354223 12468518
0.53806776 0.70094556 2.5354223 12402213
0.56299102 0.70094556 2.5354223 12008995
0.55333114 0.65971345 2.3862798 12534054
0.57678843 0.65971345 2.3862798 12467747
0.51020885 0.5607565 2.028338 12533540
0.42411795 0.44860515 1.6226703 12402981
0.40747118 0.41537514 1.5024725 12337190
0.45601982 0.44860515 1.6226703 12533283
0.40687129 0.38672858 1.3988537 12206631
0.60990208 0.5607565 2.028338 12206117
0.4343729 0.38672858 1.3988537 12533799
0.44812369 0.38672858 1.3988537 12337188
0.46187449 0.38672858 1.3988537 12337446
0.47562528 0.38672858 1.3988537 12206374
0.56767625 0.44860515 1.6226703 12338471
0.69479424 0.53405374 1.9317503 12598822
0.71378344 0.53405374 1.9317503 12402983
0.54957944 0.40054032 1.4488127 12402983
0.47839388 0.33985236 1.2292956 12796456
0.49047789 0.33985236 1.2292956 12600362
0.50256193 0.33985236 1.2292956 12534055
0.51464599 0.33985236 1.2292956 12796713
0.52673 0.33985236 1.2292956 12469030
0.53881401 0.33985236 1.2292956 12206117
0.55089808 0.33985236 1.2292956 12009767
0.56298208 0.33985236 1.2292956 12730662
0.63257271 0.37383762 1.3522252 12403496
0.6458652 0.37383762 1.3522252 12403498
0.65915763 0.37383762 1.3522252 12271144
0.72048217 0.40054032 1.4488127 12074789
0.7347241 0.40054032 1.4488127 12206375
0.7767055 0.41537514 1.5024725 12468776
0.82191622 0.43135113 1.5602599 12403242
0.83725363 0.43135113 1.5602599 12402985
0.88669467 0.44860515 1.6226703 12271912
0.94025582 0.46729702 1.6902815 12140326
0.95687139 0.46729702 1.6902815 12140324
0.9734869 0.46729702 1.6902815 11878439
0.84865928 0.40054032 1.4488127 11811618
0.86290115 0.40054032 1.4488127 11484711
0.9446156 0.43135113 1.5602599 11877927
0.95995307 0.43135113 1.5602599 11812648
0.93916857 0.41537514 1.5024725 12205865
0.88814908 0.38672858 1.3988537 11681831
0.90189987 0.38672858 1.3988537 11615783
0.94835252 0.40054032 1.4488127 11484455
1.0781058 0.44860515 1.6226703 11877927
1.0940567 0.44860515 1.6226703 11615526
1.067315 0.43135113 1.5602599 11484711
1.1259586 0.44860515 1.6226703 11484711
1.189489 0.46729702 1.6902815 11615013
1.2061045 0.46729702 1.6902815 11156259
1.22272 0.46729702 1.6902815 11156261
1.4163835 0.53405374 1.9317503 11025445
1.4353727 0.53405374 1.9317503 11090984
1.4543619 0.53405374 1.9317503 10893859
1.237615 0.44860515 1.6226703 11024421
1.2535659 0.44860515 1.6226703 11090213
1.2695168 0.44860515 1.6226703 11221287
1.2854677 0.44860515 1.6226703 11221287
1.1219126 0.38672858 1.3988537 11090468
1.0623949 0.36177835 1.3086051 10959652
1.1494142 0.38672858 1.3988537 10893864
1.163165 0.38672858 1.3988537 10959143
1.2189485 0.40054032 1.4488127 10696740
1.3280512 0.43135113 1.5602599 10631714
1.2936336 0.41537514 1.5024725 10631975
1.2616742 0.40054032 1.4488127 10499875
1.2319189 0.38672858 1.3988537 10237730
1.2456697 0.38672858 1.3988537 10434082
1.2594205 0.38672858 1.3988537 10172196
1.2731713 0.38672858 1.3988537 10434083
1.2869221 0.38672858 1.3988537 10106403
1.3006729 0.38672858 1.3988537 10566184
1.3144237 0.38672858 1.3988537 10565928
1.3281745 0.38672858 1.3988537 10304551
1.1792676 0.33985236 1.2292956 10239786
1.0920725 0.31153136 1.1268544 10306349
1.1031495 0.31153136 1.1268544 10306349
1.1460615 0.32043228 1.1590502 10109229
1.2276038 0.33985236 1.2292956 10239532
1.2396878 0.33985236 1.2292956 9911595
1.2517718 0.33985236 1.2292956 10107946
1.3033514 0.35047278 1.2677112 9977130
1.3582587 0.36177835 1.3086051 9649450
1.5180283 0.40054032 1.4488127 9781804
1.7161427 0.44860515 1.6226703 9781036
1.4931841 0.38672858 1.3988537 9714986
1.5069349 0.38672858 1.3988537 9912621
1.5206857 0.38672858 1.3988537 9716011
1.3484441 0.33985236 1.2292956 9912620
1.3205127 0.32985672 1.1931399 9846827
1.2941773 0.32043228 1.1590502 9977130
1.3055708 0.32043228 1.1590502 9912106
1.5364583 0.37383762 1.3522252 9452584
0 0 0 9911852
0 0 0 9845802
0 0 0 9846059
0 0 0 9780522
5.3430686 1.2461255 4.5074177 9583655
4.848639 1.121513 4.0566759 9780266
4.8885164 1.121513 4.0566759 10042670
4.9283938 1.121513 4.0566759 9650222
4.1402254 0.93459404 3.380563 9583656
0 0 0 9978413
0 0 0 10110000
0 0 0 10241587
0 0 0 10110001
0 0 0 9716014
0 0 0 9388333
0 0 0 9127728
0 0 0 1050122
0 0 0 786696
0 0 0 918537
0 0 0 852488
0 0 0 852744
0 0 0 721160
0 0 0 721673
-5.1579552 1.2904336 4.5074177 852489
-3.8352351 0.96782517 3.380563 786696
-3.8020041 0.96782517 3.380563 590087
-4.5225282 1.1613903 4.0566759 655623
-5.603313 1.4517378 5.0708447 852748
-5.5534663 1.4517378 5.0708447 655624
-2.201448 0.58069515 2.028338 720905
-2.2963254 0.61125803 2.1350925 720905
-2.5430243 0.68317068 2.3862798 721162
-2.2543495 0.61125803 2.1350925 721675
-2.6521165 0.72586888 2.5354223 1247246
-3.2334688 0.89337713 3.1205199 3940642
0 0 0 2626577
-3.4364622 0.96782517 3.380563 5517603
-2.9170551 0.82956439 2.8976254 7028782
-2.3788235 0.68317068 2.3862798 7028525
-1.7409229 0.50495225 1.763772 6765352
-1.7235849 0.50495225 1.763772 7094317
-1.3532304 0.40047938 1.3988537 7028011
-1.0222344 0.30562901 1.0675462 7357743
-0.98579836 0.29779238 1.0401733 7620400
-0.97557342 0.29779238 1.0401733 6109476
-0.96534848 0.29779238 1.0401733 2297867
-1.0067518 0.31388924 1.0963988 1838610
-0.99597412 0.31388924 1.0963988 1838610
-0.98519647 0.31388924 1.0963988 1707281
-0.97441882 0.31388924 1.0963988 1773074
-0.96364117 0.31388924 1.0963988 1772559
-1.0073129 0.33182579 1.1590502 1772818
-0.99591941 0.33182579 1.1590502 1969426
-0.82043821 0.27652147 0.96587515 1838610
-0.72467297 0.24710429 0.86312246 1904401
-0.71618849 0.24710429 0.86312246 2955034
-0.70770395 0.24710429 0.86312246 4793373
-0.68465233 0.24195629 0.84514076 2951689
-0.67634457 0.24195629 0.84514076 1639177
-0.66803682 0.24195629 0.84514076 1377548
-0.659729 0.24195629 0.84514076 1509649
-0.63812697 0.23701841 0.82789302 5384498
-0.64311349 0.24195629 0.84514076 9919312
-0.64831221 0.24710429 0.86312246 9197633
-0.65373695 0.25247613 0.88188601 6962220
-0.64506799 0.25247613 0.88188601 5450266
-0.63639903 0.25247613 0.88188601 5122846
-0.62773001 0.25247613 0.88188601 4926498
-0.60588956 0.24710429 0.86312246 3874588
-0.58495909 0.24195629 0.84514076 4463642
-0.57665133 0.24195629 0.84514076 5187104
-0.56834352 0.24195629 0.84514076 4594455
-0.56003577 0.24195629 0.84514076 4266260
-0.56346691 0.24710429 0.86312246 4266519
-0.56704718 0.25247613 0.88188601 3872277
-0.5707866 0.25808671 0.90148348 3872020
-0.574696 0.26395231 0.92197174 3281425
-0.6070208 0.28326592 0.98943311 2953234
-0.66186696 0.31388924 1.0963988 2756626
-0.68829447 0.33182579 1.1590502 2625042
-0.74036038 0.36293444 1.2677112 2492686
-0.89587539 0.44668856 1.5602599 2296591
0 0 0 1902090
0 0 0 1771275
0 0 0 1903118
0 0 0 1968654
-1.6383766 0.89337713 3.1205199 1311496
-1.1611179 0.64521682 2.2537088 1115144
-1.1389638 0.64521682 2.2537088 918282
-1.1168098 0.64521682 2.2537088 1115403
-1.0946558 0.64521682 2.2537088 1115146
-1.0725017 0.64521682 2.2537088 1507848
-1.0503476 0.64521682 2.2537088 1312524
-0.97407806 0.61125803 2.1350925 1378060
-1.0652182 0.68317068 2.3862798 1903118
-0.88549691 0.58069515 2.028338 2557966
-1.7311165 1.1613903 4.0566759 1705998
-1.3009531 0.89337713 3.1205199 1903119
-1.6513619 1.1613903 4.0566759 3872021
-2.0143557 1.4517378 5.0708447 6169113
-1.964509 1.4517378 5.0708447 10239273
-0.63822079 0.48391259 1.6902815 12076846
-0.53280449 0.4147822 1.4488127 12599846
-0.5807901 0.4645561 1.6226703 12534821
-0.56483918 0.4645561 1.6226703 12273191
-0.65343839 0.55304295 1.9317503 12665896
-0.55514306 0.48391259 1.6902815 12600103
-0.53852749 0.48391259 1.6902815 12665897
-0.30550945 0.28326592 0.98943311 12666153
-0.29578328 0.28326592 0.98943311 12665637
-0.27924621 0.27652147 0.96587515 12731175
-0.20599215 0.21116185 0.73757738 13059623
-0.20242214 0.21507226 0.75123626 13059113
-0.1987174 0.21913022 0.76541048 12862507
-0.19487019 0.22334428 0.78012997 12928037
-0.19087209 0.22772357 0.79542661 12862246
-0.18671407 0.23227805 0.81133515 12928039
-0.18238634 0.23701841 0.82789302 12993319
-0.17424811 0.23701841 0.82789302 13059114
-0.184986 0.26395231 0.92197174 12665894
-0.17592297 0.26395231 0.92197174 12730663
-0.17906922 0.28326592 0.98943311 12600359
-0.16531107 0.27652147 0.96587515 12927528
-0.15581647 0.27652147 0.96587515 12862503
-0.14632188 0.27652147 0.96587515 12928041
-0.14016454 0.28326592 0.98943311 12795428
-0.13043836 0.28326592 0.98943311 12205858
-0.10998221 0.25808671 0.90148348 12074531
-0.091008537 0.23227805 0.81133515 12140324
-0.081404977 0.22772357 0.79542661 12139811
-0.075057611 0.23227805 0.81133515 11877152
-0.067082152 0.23227805 0.81133515 12336674
-0.059106693 0.23227805 0.81133515 12270627
-0.050128657 0.22772357 0.79542661 12402467
-0.042309579 0.22772357 0.79542661 12139813
-0.0344905 0.22772357 0.79542661 12335650
-0.02566495 0.21913022 0.76541048 11942693
-0.018140931 0.21913022 0.76541048 11746082
-0.010230841 0.21116185 0.73757738 11615009
-0.0029804225 0.21116185 0.73757738 11614755
0.0044311285 0.21913022 0.76541048 11287332
0.012672457 0.23227805 0.81133515 11418148
0 0 0 11483171
0 0 0 11877154
0 0 0 11877666
0 0 0 12008740
0 0 0 12270629
0 0 0 12466975
0 0 0 12140578
0 0 0 12337192
0 0 0 12402213
0 0 0 12468006
0 0 0 12599076
0.33868122 0.72586888 2.5354223 12533026
0.32320404 0.64521682 2.2537088 12730406
0.3453581 0.64521682 2.2537088 12074789
0.60138351 1.0558093 3.687887 12205859
0.77933246 1.2904336 4.5074177 12401957
0.82364053 1.2904336 4.5074177 12140068
0.48822111 0.72586888 2.5354223 12468006
0.51314443 0.72586888 2.5354223 12533030
0.47828245 0.64521682 2.2537088 12401699
0.47409773 0.61125803 2.1350925 12335906
0.49508578 0.61125803 2.1350925 12336675
0.49027017 0.58069515 2.028338 12206118
0.3924683 0.44668856 1.5602599 12336420
0.39270183 0.43014452 1.5024725 12271397
0.37936971 0.40047938 1.3988537 12206119
0.3931205 0.40047938 1.3988537 12337190
0.34703729 0.34158534 1.1931399 12206119
0.33883449 0.32260841 1.1268544 12665128
0.34991151 0.32260841 1.1268544 12599849
0.39380565 0.3519364 1.2292956 12599592
0.41857377 0.36293444 1.2677112 12337703
0.47562528 0.40047938 1.3988537 12403498
0.48937607 0.40047938 1.3988537 12533799
0.58362716 0.4645561 1.6226703 12337444
0.53533757 0.4147822 1.4488127 12273191
0.46630985 0.3519364 1.2292956 12402983
0.47839388 0.3519364 1.2292956 12534569
0.49047789 0.3519364 1.2292956 12403241
0.48778072 0.34158534 1.1931399 12665386
0.51464599 0.3519364 1.2292956 12731176
0.52673 0.3519364 1.2292956 12271397
0.53881401 0.3519364 1.2292956 12534569
0.55089808 0.3519364 1.2292956 12467236
0.56298208 0.3519364 1.2292956 12469287
0.57506615 0.3519364 1.2292956 12336933
0.6458652 0.38713005 1.3522252 12271654
0.65915763 0.38713005 1.3522252 12205608
0.67245007 0.38713005 1.3522252 12206117
0.7347241 0.4147822 1.4488127 11877927
0.7767055 0.43014452 1.5024725 11943975
0.79147488 0.43014452 1.5024725 11812904
0.83725363 0.44668856 1.5602599 11748133
0.88669467 0.4645561 1.6226703 11877413
0.90264559 0.4645561 1.6226703 12074278
0.95687139 0.48391259 1.6902815 11811362
0.93454748 0.4645561 1.6226703 11942693
0.84865928 0.4147822 1.4488127 11812136
0.83314592 0.40047938 1.3988537 11812136
0.84689671 0.40047938 1.3988537 11550504
0.89138496 0.4147822 1.4488127 11681321
0.87439829 0.40047938 1.3988537 11615528
0.88814908 0.40047938 1.3988537 11353127
0.90189987 0.40047938 1.3988537 11419170
0.9834767 0.43014452 1.5024725 11615526
1.2834592 0.55304295 1.9317503 11353638
1.3024484 0.55304295 1.9317503 11549993
1.067315 0.44668856 1.5602599 11222055
1.0425543 0.43014452 1.5024725 11156261
1.1419095 0.4645561 1.6226703 11221541
1.2061045 0.48391259 1.6902815 11155748
1.22272 0.48391259 1.6902815 11418148
1.2393357 0.48391259 1.6902815 11418149
1.3701285 0.52790463 1.8439435 11221539
1.3882545 0.52790463 1.8439435 10959396
1.2891822 0.48391259 1.6902815 10828581
1.2535659 0.4645561 1.6226703 10696740
1.2695168 0.4645561 1.6226703 10763046
1.1477391 0.4147822 1.4488127 10893863
1.1219126 0.40047938 1.3988537 10827555
1.0623949 0.37464201 1.3086051 10762535
1.0752585 0.37464201 1.3086051 10959916
1.1243927 0.38713005 1.3522252 10959142
1.1769158 0.40047938 1.3988537 10762276
1.2331904 0.4147822 1.4488127 10828326
1.2474322 0.4147822 1.4488127 10631718
1.2181681 0.40047938 1.3988537 10499619
1.1524403 0.37464201 1.3086051 10499363
1.1288882 0.36293444 1.2677112 10565412
1.1067635 0.3519364 1.2292956 10434081
1.1538116 0.36293444 1.2677112 10827812
1.1662732 0.36293444 1.2677112 10303269
1.2573172 0.38713005 1.3522252 10303269
1.2706096 0.38713005 1.3522252 9975333
1.1671836 0.3519364 1.2292956 10173479
1.111881 0.33182579 1.1590502 10306090
1.0920725 0.32260841 1.1268544 10108969
1.0733346 0.31388924 1.0963988 10305836
1.1142266 0.32260841 1.1268544 10240813
1.1574551 0.33182579 1.1590502 10569267
1.2032264 0.34158534 1.1931399 10108716
1.2149551 0.34158534 1.1931399 10174763
1.2266837 0.34158534 1.1931399 10175022
1.2759399 0.3519364 1.2292956 9584427
1.2880239 0.3519364 1.2292956 9715497
1.4794333 0.40047938 1.3988537 9977642
1.4931841 0.40047938 1.3988537 9517864
1.5069349 0.40047938 1.3988537 9714473
1.3363601 0.3519364 1.2292956 9910569
1.308784 0.34158534 1.1931399 9976106
1.2827837 0.33182579 1.1590502 9648424
1.2582279 0.32260841 1.1268544 9452328
1.3055708 0.33182579 1.1590502 9321257
1.3556985 0.34158534 1.1931399 9453099
1.4528913 0.36293444 1.2677112 9650220
1.6169412 0.40047938 1.3988537 9846572
0 0 0 9845545
0 0 0 10042666
0 0 0 9911852
0 0 0 10042671
0 0 0 9779751
0 0 0 9715502
0 0 0 9781550
0 0 0 9847342
0 0 0 9913133
0 0 0 10109483
0 0 0 9913392
0 0 0 10044978
0 0 0 9782063
0 0 0 9388076
0 0 0 984075
0 0 0 787467
0 0 0 787466
0 0 0 1049868
0 0 0 853259
0 0 0 721673
-3.1213579 0.80084497 2.7044504 787209
-3.3158283 0.8580482 2.8976254 721161
-3.5402174 0.92405194 3.1205199 655880
-3.5095425 0.92405194 3.1205199 721675
-3.4788675 0.92405194 3.1205199 655880
-3.2018931 0.8580482 2.8976254 655366
-2.6133959 0.70662796 2.3862798 852490
-2.0013163 0.5460307 1.8439435 721161
-1.9831902 0.5460307 1.8439435 590089
-1.9650642 0.5460307 1.8439435 722188
-1.9469382 0.5460307 1.8439435 1641231
-1.928812 0.5460307 1.8439435 2035217
-2.1017547 0.6006338 2.028338 1640461
-2.9740229 0.8580482 2.8976254 1509903
-2.5773466 0.75079221 2.5354223 2691091
-2.4022808 0.70662796 2.3862798 5516836
-1.7582608 0.52229023 1.763772 6962731
-1.0266982 0.30801731 1.0401733 6830634
-0.96688914 0.29299209 0.98943311 6896942
-0.95716298 0.29299209 0.98943311 6962733
-0.92487878 0.28601608 0.96587515 7094832
-0.93771064 0.29299209 0.98943311 5387299
-0.92798448 0.29299209 0.98943311 2100747
-0.91825831 0.29299209 0.98943311 1772815
-0.90853214 0.29299209 0.98943311 1575694
-0.89880592 0.29299209 0.98943311 1772816
-0.93467361 0.30801731 1.0401733 1969681
-0.92444867 0.30801731 1.0401733 1575695
-0.86962742 0.29299209 0.98943311 1707281
-0.83942741 0.28601608 0.96587515 1904403
-0.82993281 0.28601608 0.96587515 1970195
-0.73315752 0.25558883 0.86312246 1838609
-0.70957565 0.25026405 0.84514076 1904401
-0.7012679 0.25026405 0.84514076 3414040
-0.67881811 0.24515665 0.82789302 2229768
-0.67067987 0.24515665 0.82789302 1376258
-0.66254163 0.24515665 0.82789302 983816
-0.65440339 0.24515665 0.82789302 1311496
-0.64626521 0.24515665 0.82789302 5323576
-0.63812697 0.24515665 0.82789302 6632228
-0.62998873 0.24515665 0.82789302 4331026
-0.63480568 0.25026405 0.84514076 3937041
-0.62649792 0.25026405 0.84514076 5644058
-0.61819017 0.25026405 0.84514076 5317665
-0.62285858 0.25558883 0.86312246 5646115
-0.6015746 0.25026405 0.84514076 5776669
-0.59326684 0.25026405 0.84514076 5381913
-0.58495909 0.25026405 0.84514076 4265490
-0.57665133 0.25026405 0.84514076 3872019
-0.55674469 0.24515665 0.82789302 3149586
-0.56003577 0.25026405 0.84514076 3084309
-0.55172801 0.25026405 0.84514076 2821649
-0.55498236 0.25558883 0.86312246 2887183
-0.55837822 0.26114511 0.88188601 2756110
-0.56192499 0.26694834 0.90148348 2427663
-0.55306339 0.26694834 0.90148348 2558989
-0.56951344 0.27936453 0.94341296 2296335
-0.56023967 0.27936453 0.94341296 1573638
-0.64031172 0.32466689 1.0963988 1114887
-0.66550744 0.34321928 1.1590502 1311496
0 0 0 1180680
0 0 0 1311496
0 0 0 1772044
0 0 0 1509131
0 0 0 1379086
-1.1000065 0.63224608 2.1350925 1180680
-1.0790184 0.63224608 2.1350925 1312523
-1.0580302 0.63224608 2.1350925 1705741
-1.0946558 0.66737086 2.2537088 1770762
-1.2065643 0.75079221 2.5354223 1771020
-1.1121327 0.70662796 2.3862798 1180938
-2.3134353 1.5015844 5.0708447 1771787
-4.5271773 3.0031688 10.141689 3281683
-4.4274845 3.0031688 10.141689 5777959
-4.3277912 3.0031688 10.141689 8601135
-1.8791547 1.3347417 4.5074177 10635316
-2.0642023 1.5015844 5.0708447 12142383
-2.0143557 1.5015844 5.0708447 12272424
-1.964509 1.5015844 5.0708447 12272169
-0.63822079 0.5005281 1.6902815 12403240
-0.59674102 0.48050702 1.6226703 12206374
-0.5807901 0.48050702 1.6226703 12009252
-0.56483918 0.48050702 1.6226703 12469030
-0.54888827 0.48050702 1.6226703 12337444
-0.53293735 0.48050702 1.6226703 12075046
-0.53852749 0.5005281 1.6902815 12600875
-0.52191198 0.5005281 1.6902815 12469289
-0.30317789 0.3003169 1.014169 12732200
-0.28605711 0.29299209 0.98943311 12731945
-0.26975164 0.28601608 0.96587515 12402982
-0.22307746 0.24515665 0.82789302 12665637
-0.20253889 0.23101299 0.78012997 12730662
-0.19487019 0.23101299 0.78012997 12862248
-0.18720147 0.23101299 0.78012997 12993831
-0.183053 0.23554265 0.79542661 12534566
-0.18238634 0.24515665 0.82789302 12403238
-0.17424811 0.24515665 0.82789302 12863016
-0.19852157 0.29299209 0.98943311 12666922
-0.17592297 0.27301535 0.92197174 12469030
-0.17906922 0.29299209 0.98943311 12861477
-0.16531107 0.28601608 0.96587515 12468774
-0.15961687 0.29299209 0.98943311 12599075
-0.14989071 0.29299209 0.98943311 12468773
-0.14366865 0.3003169 1.014169 12730150
-0.1445398 0.32466689 1.0963988 12664611
-0.13376215 0.32466689 1.0963988 12402213
-0.091008537 0.24025351 0.81133515 12205088
-0.081404977 0.23554265 0.79542661 12139813
-0.075057611 0.24025351 0.81133515 12074531
-0.069877237 0.25026405 0.84514076 12008227
-0.060312953 0.24515665 0.82789302 12402467
-0.050128657 0.23554265 0.79542661 12401443
-0.042309579 0.23554265 0.79542661 11811361
-0.0344905 0.23554265 0.79542661 12204836
-0.026671419 0.23554265 0.79542661 11942693
-0.018140931 0.22665423 0.76541048 11810848
-0.010230841 0.21841227 0.73757738 12008738
-0.0029804225 0.21841227 0.73757738 11680035
0.0044311285 0.22665423 0.76541048 12074018
0.012672457 0.24025351 0.81133515 11680548
0.027902592 0.32466689 1.0963988 11614244
0 0 0 11155746
0 0 0 11483941
0 0 0 11548962
0 0 0 12008740
0 0 0 11942947
0 0 0 12532516
0 0 0 12466977
0 0 0 12467236
0 0 0 12466723
0 0 0 12401700
0 0 0 12533027
0.48480603 1.0010562 3.380563 12401955
0.51803714 1.0010562 3.380563 12140325
0.66152191 1.2012676 4.0566759 12008483
0.70139921 1.2012676 4.0566759 12336936
0.46329778 0.75079221 2.5354223 12008998
0.3905769 0.6006338 2.028338 12074531
0.41051555 0.6006338 2.028338 12534059
0.43045419 0.6006338 2.028338 12467749
0.42894554 0.57203215 1.9317503 12270885
0.47033152 0.6006338 2.028338 12402470
0.46692392 0.57203215 1.9317503 12664615
0.37793246 0.44491389 1.5024725 12336420
0.36561891 0.41423017 1.3988537 12337190
0.34380382 0.3753961 1.2677112 12468260
0.35626549 0.3753961 1.2677112 12533283
0.32775748 0.33368543 1.1268544 12336934
0.33883449 0.33368543 1.1268544 12795943
0.359909 0.34321928 1.1590502 12336933
0.44812369 0.41423017 1.3988537 12731174
0.46187449 0.41423017 1.3988537 12337191
0.47562528 0.41423017 1.3988537 12140326
0.48937607 0.41423017 1.3988537 12402213
0.50312686 0.41423017 1.3988537 12861994
0.45422581 0.36402044 1.2292956 12271653
0.46630985 0.36402044 1.2292956 12468774
0.47839388 0.36402044 1.2292956 12599591
0.49047789 0.36402044 1.2292956 12272169
0.48778072 0.35331398 1.1931399 12534569
0.48523766 0.34321928 1.1590502 12272426
0.52673 0.36402044 1.2292956 11943973
0.53881401 0.36402044 1.2292956 11812904
0.55089808 0.36402044 1.2292956 12140072
0.56298208 0.36402044 1.2292956 12140583
0.57506615 0.36402044 1.2292956 12271909
0.6458652 0.40042248 1.3522252 12337447
0.65915763 0.40042248 1.3522252 12402983
0.695638 0.41423017 1.3988537 12402213
0.76193613 0.44491389 1.5024725 12206633
0.80657881 0.46202597 1.5602599 12205349
0.79147488 0.44491389 1.5024725 12009001
0.77744979 0.4290241 1.4488127 12140325
0.8525911 0.46202597 1.5602599 12008741
0.90264559 0.48050702 1.6226703 11942949
0.91859657 0.48050702 1.6226703 11812133
0.89860338 0.46202597 1.5602599 11615527
0.81939512 0.41423017 1.3988537 11287075
0.83314592 0.41423017 1.3988537 11418661
0.84689671 0.41423017 1.3988537 11418919
0.89138496 0.4290241 1.4488127 11418407
1.014302 0.48050702 1.6226703 11418148
0.88814908 0.41423017 1.3988537 11877414
0.90189987 0.41423017 1.3988537 11877668
0.9834767 0.44491389 1.5024725 11746341
1.0781058 0.48050702 1.6226703 11352867
1.0940567 0.48050702 1.6226703 11221539
1.0277848 0.44491389 1.5024725 11418405
1.0425543 0.44491389 1.5024725 11353127
1.1419095 0.48050702 1.6226703 11156261
1.1578604 0.48050702 1.6226703 11090211
1.1286647 0.46202597 1.5602599 11025188
1.1897622 0.48050702 1.6226703 11090724
1.2559512 0.5005281 1.6902815 10696740
1.2725667 0.5005281 1.6902815 11024421
1.2891822 0.5005281 1.6902815 11155748
1.2535659 0.48050702 1.6226703 11287593
1.1334971 0.4290241 1.4488127 10893095
1.1477391 0.4290241 1.4488127 10958630
1.1219126 0.41423017 1.3988537 10893350
1.1356634 0.41423017 1.3988537 10630949
1.1494142 0.41423017 1.3988537 10697255
1.1243927 0.40042248 1.3522252 10959657
1.1769158 0.41423017 1.3988537 10630691
1.1509777 0.40042248 1.3522252 10368803
1.2044173 0.41423017 1.3988537 10172196
1.1775626 0.40042248 1.3522252 10303782
1.1524403 0.38750565 1.3086051 10959909
1.1288882 0.3753961 1.2677112 10368546
1.1067635 0.36402044 1.2292956 10434082
1.1538116 0.3753961 1.2677112 10565668
1.1309315 0.36402044 1.2292956 10434853
1.1787349 0.3753961 1.2677112 10368290
1.1550996 0.36402044 1.2292956 10368290
1.1671836 0.36402044 1.2292956 10302496
1.1445833 0.35331398 1.1931399 10305581
1.0920725 0.33368543 1.1268544 9912363
1.0733346 0.32466689 1.0963988 9912364
1.0841123 0.32466689 1.0963988 10108971
1.1574551 0.34321928 1.1590502 9911593
1.2032264 0.35331398 1.1931399 9911850
1.2149551 0.35331398 1.1931399 9912105
1.2266837 0.35331398 1.1931399 9714728
1.2384124 0.35331398 1.1931399 9583655
1.2880239 0.36402044 1.2292956 9977643
1.4794333 0.41423017 1.3988537 10175022
1.4931841 0.41423017 1.3988537 10109229
1.3242761 0.36402044 1.2292956 9978156
1.2970555 0.35331398 1.1931399 9978159
1.2713902 0.34321928 1.1590502 10239277
1.2471509 0.33368543 1.1268544 9976874
1.2242217 0.32466689 1.0963988 9911852
1.2349994 0.32466689 1.0963988 9911339
1.3556985 0.35331398 1.1931399 9976875
1.4088643 0.36402044 1.2292956 9583402
1.465353 0.3753961 1.2677112 9583403
0 0 0 9910569
0 0 0 9714471
0 0 0 9845544
0 0 0 9386791
0 0 0 9386537
0 0 0 9255463
0 0 0 9649963
0 0 0 9978413
10.096051 2.4025352 8.1133518 10109999
0 0 0 10110766
0 0 0 9847599
0 0 0 10044208
0 0 0 9715501
0 0 0 9649966
0 0 0 786953
0 0 0 787466
0 0 0 655880
0 0 0 787209
0 0 0 721675
-2.7775967 0.73008519 2.3862798 852489
-2.7541394 0.73008519 2.3862798 721418
-3.0947731 0.82742983 2.7044504 655882
-3.2873445 0.88653201 2.8976254 655882
-3.2588606 0.88653201 2.8976254 655880
-3.230377 0.88653201 2.8976254 590089
-3.2018931 0.88653201 2.8976254 786698
-2.6133959 0.73008519 2.3862798 918284
-2.096617 0.5910213 1.9317503 984075
-1.9831902 0.56415671 1.8439435 853259
-1.7292565 0.49645793 1.6226703 1509903
-1.7133056 0.49645793 1.6226703 1509901
-1.6973547 0.49645793 1.6226703 1378059
-1.6814038 0.49645793 1.6226703 1640462
-0.92525154 0.27580994 0.90148348 3086620
-0.95901275 0.28863832 0.94341296 5057580
-0.97235173 0.29551065 0.96587515 6437930
-0.96285713 0.29551065 0.96587515 6897451
-0.95336252 0.29551065 0.96587515 6830632
-0.92191756 0.28863832 0.94341296 6896940
-0.89190185 0.28207836 0.92197174 6832687
-0.88283885 0.28207836 0.92197174 4596500
-0.87377578 0.28207836 0.92197174 1904137
-0.86471277 0.28207836 0.92197174 1707023
-0.85564977 0.28207836 0.92197174 1904144
-0.8465867 0.28207836 0.92197174 1838353
-0.8375237 0.28207836 0.92197174 1641232
-0.86791116 0.29551065 0.96587515 1773074
-0.85841656 0.29551065 0.96587515 1772302
-0.84892201 0.29551065 0.96587515 1903631
-0.81990582 0.28863832 0.94341296 1838610
-0.72619122 0.25857183 0.84514076 1772817
-0.6891681 0.24822897 0.81133515 1707022
-0.68119264 0.24822897 0.81133515 1838608
-0.68695635 0.25329486 0.82789302 2101523
-0.67881811 0.25329486 0.82789302 1509132
-0.67067987 0.25329486 0.82789302 918025
-0.66254163 0.25329486 0.82789302 1379344
-0.65440339 0.25329486 0.82789302 3020050
