# .PCD v0.7 - Point Cloud Data file format
VERSION 0.7
FIELDS x y z rgb
SIZE 4 4 4 4
TYPE F F F U
COUNT 1 1 1 1
WIDTH 1298
HEIGHT 1
VIEWPOINT 0 0 0 1 0 0 0
POINTS 1298
DATA ascii
-0.18948616 0.013234842 0.63385558 2562591
-0.18325533 0.013234842 0.63385558 2826018
-0.17702451 0.013234842 0.63385558 2627613
-0.16816609 0.013031228 0.62410396 1905431
-0.16203111 0.013031228 0.62410396 983817
-0.15833202 0.013234842 0.63385558 590089
-0.14976117 0.013031228 0.62410396 590602
-0.14145005 0.012833784 0.61464781 655882
-0.13749124 0.013031228 0.62410396 590089
-0.13771221 0.013661772 0.65430254 786698
-0.13343252 0.013885736 0.66502881 786696
-0.12689526 0.013885736 0.66502881 655882
-0.12035801 0.013885736 0.66502881 655882
-0.11382074 0.013885736 0.66502881 590088
-0.10728347 0.013885736 0.66502881 786698
-0.099121273 0.013661772 0.65430254 655882
0 0 0 655882
0 0 0 786696
0 0 0 590089
0 0 0 786696
-0.08472763 0.017286323 0.82789302 720903
-0.076589406 0.017286323 0.82789302 655880
-0.068451174 0.017286323 0.82789302 720903
-0.060312953 0.017286323 0.82789302 721675
-0.052174725 0.017286323 0.82789302 721161
-0.043155771 0.016940597 0.81133515 655625
0 0 0 590088
0 0 0 786698
0 0 0 720906
0 0 0 786696
0 0 0 720903
0.008387493 0.030251065 1.4488127 655367
0.019200692 0.025667569 1.2292956 786696
0.041295838 0.033881195 1.6226703 721673
0.062224735 0.036827382 1.763772 720903
0.06535507 0.030251065 1.4488127 786696
0.061908755 0.023528608 1.1268544 983305
0.07101319 0.022892699 1.0963988 917768
0.081790842 0.022892699 1.0963988 852489
0.069898658 0.017286323 0.82789302 917512
0.076476142 0.016940597 0.81133515 852489
0.086175106 0.017286323 0.82789302 852489
0.094313331 0.017286323 0.82789302 918282
0.11155836 0.018822884 0.90148348 918283
0 0 0 1378317
0 0 0 1312780
0 0 0 1707023
0 0 0 2167060
0 0 0 2101523
0 0 0 1443852
0 0 0 2363923
0.41051555 0.042351495 2.028338 6175532
0.43045419 0.042351495 2.028338 9001793
0.50043648 0.047057215 2.2537088 10973265
0.55333114 0.049825285 2.3862798 12222040
0.61283767 0.052939367 2.5354223 12682331
0.68027836 0.056468654 2.7044504 13207131
0.70686322 0.056468654 2.7044504 13338460
0.68760765 0.052939367 2.5354223 13207899
0.67061734 0.049825285 2.3862798 9721147
0.69407457 0.049825285 2.3862798 1247501
0.76237756 0.052939367 2.5354223 1247244
0.8397876 0.056468654 2.7044504 1181451
0.86637247 0.056468654 2.7044504 1050122
0.83714753 0.052939367 2.5354223 984330
0.81136078 0.049825285 2.3862798 1181196
0.83481801 0.049825285 2.3862798 1115659
0.85827523 0.049825285 2.3862798 984332
0.88173252 0.049825285 2.3862798 1181454
0.9617641 0.052939367 2.5354223 1181196
0.92864698 0.049825285 2.3862798 1181453
1.0116107 0.052939367 2.5354223 1115661
1.0365341 0.052939367 2.5354223 1115661
0.99901867 0.049825285 2.3862798 1181454
1.022476 0.049825285 2.3862798 6506302
1.0459331 0.049825285 2.3862798 9198665
1.0693904 0.049825285 2.3862798 7884608
1.0928476 0.049825285 2.3862798 4795941
1.054288 0.047057215 2.2537088 1115663
1.076442 0.047057215 2.2537088 983562
1.0985961 0.047057215 2.2537088 918026
1.1207502 0.047057215 2.2537088 852489
1.0286138 0.042351495 2.028338 918282
1.0485525 0.042351495 2.028338 1049611
1.0684911 0.042351495 2.028338 918539
1.1457155 0.044580519 2.1350925 984075
1.2315204 0.047057215 2.2537088 852746
1.32742 0.049825285 2.3862798 786696
1.3508773 0.049825285 2.3862798 721675
1.4602304 0.052939367 2.5354223 655366
1.3977917 0.049825285 2.3862798 786698
1.3422908 0.047057215 2.2537088 655367
1.3644449 0.047057215 2.2537088 590087
1.3865988 0.047057215 2.2537088 590087
1.2678777 0.042351495 2.028338 655882
1.2878163 0.042351495 2.028338 590089
1.2454808 0.040334754 1.9317503 524296
1.26447 0.040334754 1.9317503 655367
1.2834592 0.040334754 1.9317503 852489
1.3024484 0.040334754 1.9317503 524550
1.3214376 0.040334754 1.9317503 524292
1.3404268 0.040334754 1.9317503 524294
1.2976243 0.038501356 1.8439435 524293
1.2585438 0.036827382 1.763772 458759
1.2758818 0.036827382 1.763772 655625
1.2932198 0.036827382 1.763772 655366
1.3105577 0.036827382 1.763772 720903
1.3882545 0.038501356 1.8439435 590089
1.4733511 0.040334754 1.9317503 655366
1.4923403 0.040334754 1.9317503 851975
1.5113295 0.040334754 1.9317503 786439
1.3972476 0.036827382 1.763772 590089
1.4145855 0.036827382 1.763772 655880
1.4319234 0.036827382 1.763772 918025
1.515137 0.038501356 1.8439435 918025
1.533263 0.038501356 1.8439435 852489
1.551389 0.038501356 1.8439435 787466
1.5695151 0.038501356 1.8439435 918282
1.5186132 0.036827382 1.763772 787466
1.6057671 0.038501356 1.8439435 852745
1.7862827 0.042351495 2.028338 852489
1.9012855 0.044580519 2.1350925 918282
1.82616 0.042351495 2.028338 721675
1.8460985 0.042351495 2.028338 853261
1.8660372 0.042351495 2.028338 918282
1.9852377 0.044580519 2.1350925 852489
2.0062258 0.044580519 2.1350925 984075
2.0272138 0.044580519 2.1350925 984075
2.2891667 0.049825285 2.3862798 918282
2.312624 0.049825285 2.3862798 984075
2.3360813 0.049825285 2.3862798 1049868
2.3595386 0.049825285 2.3862798 1180684
2.2506073 0.047057215 2.2537088 1312270
2.045485 0.042351495 2.028338 1114891
1.9670701 0.040334754 1.9317503 853259
1.8957839 0.038501356 1.8439435 1115915
1.9139099 0.038501356 1.8439435 1115915
1.932036 0.038501356 1.8439435 1246990
1.9501621 0.038501356 1.8439435 6900022
2.165117 0.042351495 2.028338 9791296
2.4278398 0.047057215 2.2537088 10185806
2.594111 0.049825285 2.3862798 10118987
2.617568 0.049825285 2.3862798 9593415
2.6410253 0.049825285 2.3862798 9593415
2.8310127 0.052939367 2.5354223 9593674
3.2639267 0.060502131 2.8976254 9659466
3.2924106 0.060502131 2.8976254 10118989
2.7348542 0.049825285 2.3862798 10185548
2.3445649 0.042351495 2.028338 10185804
2.1495485 0.038501356 1.8439435 10448720
2.1676745 0.038501356 1.8439435 10448464
2.1858006 0.038501356 1.8439435 10251088
2.3088756 0.040334754 1.9317503 10053967
2.3278649 0.040334754 1.9317503 9921870
2.4641969 0.042351495 2.028338 10184270
0 0 0 10250318
0 0 0 10382160
0 0 0 10250831
0 0 0 10382415
0 0 0 10054223
0 0 0 10250318
0 0 0 10315597
0 0 0 10381646
0 0 0 3611924
0 0 0 1444364
-4.0346217 0.1038169 3.380563 1444366
-4.3651533 0.11325481 3.687887 2101524
-4.3289013 0.11325481 3.687887 3021595
-4.7219143 0.12458029 4.0566759 3742487
-4.6820374 0.12458029 4.0566759 3874329
-5.1579552 0.13842255 4.5074177 3939866
-5.1136475 0.13842255 4.5074177 4071194
-4.5624051 0.12458029 4.0566759 4005914
-4.5225282 0.12458029 4.0566759 3545878
-4.4826508 0.12458029 4.0566759 3480599
-4.0388846 0.11325481 3.687887 3349527
-4.0026326 0.11325481 3.687887 3283478
-3.9663804 0.11325481 3.687887 3480598
-3.9301283 0.11325481 3.687887 3809048
-3.8938763 0.11325481 3.687887 3808535
-3.5361555 0.1038169 3.380563 3677462
-3.5029244 0.1038169 3.380563 3809048
-3.78512 0.11325481 3.687887 3809048
-3.4364622 0.1038169 3.380563 3281423
-4.0838776 0.12458029 4.0566759 2759708
-4.0440001 0.12458029 4.0566759 3678239
-4.0041227 0.12458029 4.0566759 3809050
-3.9642456 0.12458029 4.0566759 2691600
-3.9243684 0.12458029 4.0566759 2890008
-3.884491 0.12458029 4.0566759 2823444
-3.8446138 0.12458029 4.0566759 1706508
-3.8047364 0.12458029 4.0566759 983817
-3.7648592 0.12458029 4.0566759 918537
-3.3863468 0.11325481 3.687887 1050892
-3.3500948 0.11325481 3.687887 919052
-3.3138428 0.11325481 3.687887 919565
-4.0059443 0.13842255 4.5074177 2562590
-3.9616363 0.13842255 4.5074177 5255211
-3.9173281 0.13842255 4.5074177 4401693
-4.3571472 0.15572536 5.0708447 3218455
-4.9226294 0.17797184 5.7952509 1313293
-4.2574539 0.15572536 5.0708447 1246731
-4.8086939 0.17797184 5.7952509 1312266
-4.1577606 0.15572536 5.0708447 1115915
-3.6514795 0.13842255 4.5074177 1181708
-3.6071713 0.13842255 4.5074177 1181708
-3.2065768 0.12458029 4.0566759 1115915
-3.5185549 0.13842255 4.5074177 1247501
-3.474247 0.13842255 4.5074177 1509903
-3.858681 0.15572536 5.0708447 1509903
-3.8088343 0.15572536 5.0708447 3549229
-3.7589877 0.15572536 5.0708447 8738111
-3.709141 0.15572536 5.0708447 9263933
-4.1820507 0.17797184 5.7952509 9394748
-4.125083 0.17797184 5.7952509 8014641
-4.0681157 0.17797184 5.7952509 7160882
-3.5097547 0.15572536 5.0708447 5451549
-3.459908 0.15572536 5.0708447 3743256
-3.4100614 0.15572536 5.0708447 4729895
-3.3602147 0.15572536 5.0708447 6701877
-3.3103681 0.15572536 5.0708447 5648932
-2.8982413 0.13842255 4.5074177 5846054
-2.8539333 0.13842255 4.5074177 7358259
-2.8096251 0.13842255 4.5074177 8474936
-2.765317 0.13842255 4.5074177 9854786
-2.721009 0.13842255 4.5074177 11433298
-3.0112882 0.15572536 5.0708447 11695694
-2.9614415 0.15572536 5.0708447 11958866
-2.9115949 0.15572536 5.0708447 12023888
-2.8617485 0.15572536 5.0708447 11892303
-2.8119018 0.15572536 5.0708447 12089169
-3.1566343 0.17797184 5.7952509 12287059
-3.0996668 0.17797184 5.7952509 12024400
0 0 0 12024402
0 0 0 12024145
0 0 0 11629127
-0.37226993 0.023070425 0.75123626 9789764
-0.37176985 0.023505714 0.76541048 9394751
-0.36424583 0.023505714 0.76541048 853254
-0.35672182 0.023505714 0.76541048 984077
-0.34273118 0.023070425 0.75123626 1116174
-0.31769669 0.021856192 0.71169752 853003
-0.31070065 0.021856192 0.71169752 1115661
-0.30370465 0.021856192 0.71169752 1115661
-0.29670861 0.021856192 0.71169752 853004
-0.28971261 0.021856192 0.71169752 919053
-0.2827166 0.021856192 0.71169752 721673
-0.27572057 0.021856192 0.71169752 918282
-0.2552883 0.02076338 0.67611259 984075
-0.24864209 0.02076338 0.67611259 853002
-0.23418957 0.020093596 0.65430254 786955
-0.22775774 0.020093596 0.65430254 655882
-0.21781281 0.019774649 0.64391679 721673
-0.21148308 0.019774649 0.64391679 1642005
-0.20194782 0.01946567 0.63385558 2168602
-0.19571699 0.01946567 0.63385558 2299419
-0.18948616 0.01946567 0.63385558 2365725
-0.18325533 0.01946567 0.63385558 2562076
-0.17702451 0.01946567 0.63385558 2627614
-0.16816609 0.019166198 0.62410396 2431005
-0.16203111 0.019166198 0.62410396 2365210
-0.15833202 0.01946567 0.63385558 852489
-0.15700768 0.020093596 0.65430254 590087
-0.15823227 0.021115303 0.68757218 590089
-0.154085 0.021479359 0.69942683 590089
-0.13771221 0.020093596 0.65430254 655880
-0.13343252 0.020422999 0.66502881 590089
-0.12689526 0.020422999 0.66502881 590089
-0.12035801 0.020422999 0.66502881 590602
-0.11382074 0.020422999 0.66502881 590087
-0.10907153 0.02076338 0.67611259 590089
-0.096023731 0.01946567 0.63385558 655882
-0.11728053 0.025424549 0.82789302 655882
0 0 0 655368
0 0 0 655880
0 0 0 655880
-0.08472763 0.025424549 0.82789302 852489
-0.076589406 0.025424549 0.82789302 786696
-0.071363986 0.026506443 0.86312246 786698
-0.062879458 0.026506443 0.86312246 590087
-0.052174725 0.025424549 0.82789302 720903
-0.0440365 0.025424549 0.82789302 655882
0 0 0 655882
0 0 0 720903
0 0 0 721418
0 0 0 720903
0 0 0 590089
0 0 0 786696
0.019200692 0.0377516 1.2292956 655880
0 0 0 786696
0 0 0 852489
0.07624758 0.051908452 1.6902815 1049352
0.060235541 0.033670347 1.0963988 1180681
0.07101319 0.033670347 1.0963988 918536
0.073811248 0.030385436 0.98943311 983558
0.071354873 0.025954226 0.84514076 1049352
0.076476142 0.024916058 0.81133515 983305
0.086175106 0.025424549 0.82789302 918282
0.094313331 0.025424549 0.82789302 983305
0 0 0 983562
0 0 0 1181453
0 0 0 1969681
0 0 0 1904145
0 0 0 2167059
0 0 0 2035473
0 0 0 1312524
0 0 0 2298644
0.41051555 0.062290147 2.028338 5846570
0.43045419 0.062290147 2.028338 8410429
0.50043648 0.069211274 2.2537088 10512714
0.55333114 0.073282525 2.3862798 11104333
0.57678843 0.073282525 2.3862798 12287831
0.68027836 0.083053522 2.7044504 12812890
0.70686322 0.083053522 2.7044504 12944731
0.73344809 0.083053522 2.7044504 13010778
0.71253097 0.07786268 2.5354223 10115132
0.73745424 0.07786268 2.5354223 1246987
0.76237756 0.07786268 2.5354223 1050122
0.8397876 0.083053522 2.7044504 1181195
0.92825621 0.08898592 2.8976254 1049869
0.83714753 0.07786268 2.5354223 1115145
0.81136078 0.073282525 2.3862798 1049866
0.83481801 0.073282525 2.3862798 984331
0.85827523 0.073282525 2.3862798 1049868
0.88173252 0.073282525 2.3862798 1049868
0.90518975 0.073282525 2.3862798 1115918
0.75176179 0.059323944 1.9317503 1181452
0.73571688 0.056627404 1.8439435 1050125
0.82922727 0.062290147 2.028338 1050124
0.94351768 0.069211274 2.2537088 1050381
0.96567178 0.069211274 2.2537088 5122341
1.0459331 0.073282525 2.3862798 8540478
1.0693904 0.073282525 2.3862798 7423800
1.1611506 0.07786268 2.5354223 3938836
1.1163049 0.073282525 2.3862798 1115661
1.1397622 0.073282525 2.3862798 918282
1.1632193 0.073282525 2.3862798 786953
1.1866766 0.073282525 2.3862798 786950
1.2101338 0.073282525 2.3862798 852491
1.1037394 0.065568574 2.1350925 983820
1.1872123 0.069211274 2.2537088 852491
1.2805055 0.073282525 2.3862798 1115663
1.3039628 0.073282525 2.3862798 786954
1.32742 0.073282525 2.3862798 787466
1.3508773 0.073282525 2.3862798 786696
1.3743345 0.073282525 2.3862798 655882
1.3977917 0.073282525 2.3862798 590602
1.3422908 0.069211274 2.2537088 721418
1.3644449 0.069211274 2.2537088 590089
1.3865988 0.069211274 2.2537088 655881
1.4087529 0.069211274 2.2537088 458759
1.2878163 0.062290147 2.028338 458759
1.2454808 0.059323944 1.9317503 524809
1.26447 0.059323944 1.9317503 524552
1.2834592 0.059323944 1.9317503 589831
1.3024484 0.059323944 1.9317503 393223
1.3214376 0.059323944 1.9317503 524296
1.3404268 0.059323944 1.9317503 590089
1.2976243 0.056627404 1.8439435 720903
1.2585438 0.054165341 1.763772 720903
1.2758818 0.054165341 1.763772 720905
1.2932198 0.054165341 1.763772 590089
1.3701285 0.056627404 1.8439435 524294
1.3882545 0.056627404 1.8439435 786696
1.4733511 0.059323944 1.9317503 590087
1.4923403 0.059323944 1.9317503 590087
1.3799095 0.054165341 1.763772 655880
1.3972476 0.054165341 1.763772 655880
1.4145855 0.054165341 1.763772 786696
1.4319234 0.054165341 1.763772 918282
1.4492614 0.054165341 1.763772 852489
1.533263 0.056627404 1.8439435 721675
1.551389 0.056627404 1.8439435 852491
1.6442538 0.059323944 1.9317503 852491
1.6632431 0.059323944 1.9317503 786955
1.766344 0.062290147 2.028338 852747
1.7862827 0.062290147 2.028338 1049098
1.8062212 0.062290147 2.028338 852489
1.82616 0.062290147 2.028338 852748
1.8460985 0.062290147 2.028338 918284
1.8660372 0.062290147 2.028338 918026
1.8859758 0.062290147 2.028338 918282
1.9059145 0.062290147 2.028338 1049610
1.9258533 0.062290147 2.028338 1049354
2.0482018 0.065568574 2.1350925 983818
2.312624 0.073282525 2.3862798 1049355
2.3360813 0.073282525 2.3862798 918282
2.2284532 0.069211274 2.2537088 984075
2.0255466 0.062290147 2.028338 984075
1.9480809 0.059323944 1.9317503 984074
1.9670701 0.059323944 1.9317503 984075
1.8957839 0.056627404 1.8439435 984329
1.9139099 0.056627404 1.8439435 1115147
1.932036 0.056627404 1.8439435 1443855
1.9501621 0.056627404 1.8439435 6703159
2.062016 0.059323944 1.9317503 10053698
2.3000586 0.065568574 2.1350925 10251086
2.594111 0.073282525 2.3862798 10118987
2.4721477 0.069211274 2.2537088 9264963
2.4943018 0.069211274 2.2537088 9133893
2.6644826 0.073282525 2.3862798 9461831
2.6879399 0.073282525 2.3862798 9331272
2.7113969 0.073282525 2.3862798 9857357
2.5829182 0.069211274 2.2537088 10184524
2.3445649 0.062290147 2.028338 10381389
2.2519081 0.059323944 1.9317503 10644047
2.1676745 0.056627404 1.8439435 10906702
2.1858006 0.056627404 1.8439435 10448206
2.3088756 0.059323944 1.9317503 10118989
2.3278649 0.059323944 1.9317503 9987405
2.4641969 0.062290147 2.028338 10184784
0 0 0 10053198
0 0 0 10119247
0 0 0 10185552
0 0 0 10250575
0 0 0 10053966
0 0 0 10184780
0 0 0 9987401
0 0 0 10119244
0 0 0 3677716
0 0 0 1247243
-4.0346217 0.13704799 3.380563 1378573
-4.3651533 0.1495069 3.687887 1706767
-4.7617917 0.1644576 4.0566759 2824730
-4.7219143 0.1644576 4.0566759 3414808
-4.6820374 0.1644576 4.0566759 3676951
-4.6421599 0.1644576 4.0566759 3873558
-4.6022825 0.1644576 4.0566759 3939351
-4.5624051 0.1644576 4.0566759 3741972
-4.5225282 0.1644576 4.0566759 3807765
-4.0751367 0.1495069 3.687887 3610901
-4.0388846 0.1495069 3.687887 3611414
-3.6690798 0.13704799 3.380563 3545622
-3.6358488 0.13704799 3.380563 3545878
-3.9301283 0.1495069 3.687887 3545621
-3.8938763 0.1495069 3.687887 3545365
-3.5361555 0.13704799 3.380563 3545364
-3.5029244 0.13704799 3.380563 3414035
-3.4696932 0.13704799 3.380563 3479315
-3.4364622 0.13704799 3.380563 2953232
-3.4032311 0.13704799 3.380563 2364695
-3.6763637 0.1495069 3.687887 3480861
-4.0041227 0.1644576 4.0566759 2954770
-4.4047174 0.18273066 4.5074177 2166289
-3.9243684 0.1644576 4.0566759 2692632
-3.884491 0.1644576 4.0566759 2758166
-3.8446138 0.1644576 4.0566759 1640458
-3.8047364 0.1644576 4.0566759 984072
-3.7648592 0.1644576 4.0566759 983817
-3.7249818 0.1644576 4.0566759 984329
-3.6851046 0.1644576 4.0566759 1115660
-3.6452272 0.1644576 4.0566759 1181454
-4.0059443 0.18273066 4.5074177 1247247
-3.9616363 0.18273066 4.5074177 1312267
-3.9173281 0.18273066 4.5074177 1246730
-4.3571472 0.20557199 5.0708447 1049865
-4.3073006 0.20557199 5.0708447 985099
-4.2574539 0.20557199 5.0708447 984329
-4.2076073 0.20557199 5.0708447 1049868
-4.1577606 0.20557199 5.0708447 1115661
-3.6514795 0.18273066 4.5074177 1049353
-3.6071713 0.18273066 4.5074177 1312524
-3.5628631 0.18273066 4.5074177 1313294
-3.5185549 0.18273066 4.5074177 1838867
-3.474247 0.18273066 4.5074177 2167573
-3.858681 0.20557199 5.0708447 2758940
-3.8088343 0.20557199 5.0708447 4795695
-3.7589877 0.20557199 5.0708447 7425078
-3.709141 0.20557199 5.0708447 8016441
-3.6592944 0.20557199 5.0708447 7620138
-4.125083 0.23493941 5.7952509 6239780
-3.5596011 0.20557199 5.0708447 5254943
-4.011148 0.23493941 5.7952509 2822665
-3.459908 0.20557199 5.0708447 1312264
-3.4100614 0.20557199 5.0708447 984328
-3.3602147 0.20557199 5.0708447 984329
-2.9425495 0.18273066 4.5074177 1050122
-2.8982413 0.18273066 4.5074177 1049352
-2.8539333 0.18273066 4.5074177 1049352
-2.8096251 0.18273066 4.5074177 1246477
-2.765317 0.18273066 4.5074177 1377806
-2.721009 0.18273066 4.5074177 8542285
-2.6767008 0.18273066 4.5074177 11367247
-2.9614415 0.20557199 5.0708447 11630416
-3.3275371 0.23493941 5.7952509 11630672
-3.2705696 0.23493941 5.7952509 11827023
-3.2136018 0.23493941 5.7952509 11762001
-2.7620552 0.20557199 5.0708447 11892560
-2.7122085 0.20557199 5.0708447 11498830
-3.0426991 0.23493941 5.7952509 11695180
0 0 0 11498830
0 0 0 11695181
-0.37226993 0.030455111 0.75123626 8804671
-0.36488524 0.030455111 0.75123626 8935746
-0.36424583 0.031029733 0.76541048 919050
-0.35672182 0.031029733 0.76541048 852748
-0.34273118 0.030455111 0.75123626 1181456
-0.32924926 0.02990138 0.73757738 853004
-0.31070065 0.028852209 0.71169752 1115661
-0.29846835 0.028354757 0.69942683 853004
-0.29159296 0.028354757 0.69942683 787211
-0.28971261 0.028852209 0.71169752 918540
-0.2827166 0.028852209 0.71169752 721931
-0.27572057 0.028852209 0.71169752 852748
-0.2552883 0.027409598 0.67611259 984846
-0.24062139 0.026525419 0.65430254 1115661
-0.23047227 0.026104379 0.64391679 787468
-0.22414254 0.026104379 0.64391679 786698
-0.21781281 0.026104379 0.64391679 852489
-0.21148308 0.026104379 0.64391679 1511191
-0.20194782 0.025696499 0.63385558 2102556
-0.19571699 0.025696499 0.63385558 2497055
-0.18948616 0.025696499 0.63385558 2299419
-0.18325533 0.025696499 0.63385558 2628127
-0.17702451 0.025696499 0.63385558 2299676
-0.16816609 0.025301168 0.62410396 2497054
-0.16456285 0.025696499 0.63385558 2168860
-0.15833202 0.025696499 0.63385558 917766
-0.16499113 0.02787417 0.68757218 786696
-0.16096039 0.028354757 0.69942683 786696
-0.154085 0.028354757 0.69942683 720903
-0.14471453 0.02787417 0.68757218 720903
-0.1356564 0.027409598 0.67611259 655882
-0.1311968 0.02787417 0.68757218 590089
-0.12236396 0.027409598 0.67611259 590089
-0.12180816 0.028852209 0.71169752 720905
-0.11481214 0.028852209 0.71169752 655882
-0.11818306 0.031626463 0.78012997 590087
-0.11728053 0.033562776 0.82789302 721673
-0.1114161 0.034261998 0.84514076 720903
-0.10310832 0.034261998 0.84514076 720905
-0.094800554 0.034261998 0.84514076 786698
-0.086492784 0.034261998 0.84514076 721675
-0.078185014 0.034261998 0.84514076 786698
-0.071363986 0.034990977 0.86312246 590089
-0.060312953 0.033562776 0.82789302 917769
-0.052174725 0.033562776 0.82789302 720905
0 0 0 720905
0 0 0 655882
0 0 0 655623
0 0 0 721161
0 0 0 786696
0 0 0 655368
0 0 0 655366
0 0 0 720903
0 0 0 852489
0 0 0 918282
0 0 0 918536
0.096900649 0.071503296 1.763772 1180938
0.07101319 0.044447996 1.0963988 1115145
0.081790842 0.044447996 1.0963988 1312267
0.08154843 0.039156567 0.96587515 1246477
0.078036882 0.033562776 0.82789302 1115145
0.087970421 0.034261998 0.84514076 1115661
0 0 0 1115145
0 0 0 852489
0 0 0 1116174
0 0 0 1969681
0 0 0 1838095
0 0 0 2167315
0 0 0 2232595
0 0 0 2101009
0 0 0 2298389
0.41051555 0.082228802 2.028338 5847339
0.43045419 0.082228802 2.028338 8476223
0.50043648 0.09136533 2.2537088 10185293
0.55333114 0.096739762 2.3862798 10841936
0.6536935 0.10963839 2.7044504 11696212
0.637761 0.102786 2.5354223 12813149
0.70686322 0.10963839 2.7044504 13142108
0.73344809 0.10963839 2.7044504 13207130
0.76003295 0.10963839 2.7044504 10246717
0.73745424 0.102786 2.5354223 1181196
0.76237756 0.102786 2.5354223 1246731
0.8397876 0.10963839 2.7044504 1049610
0.86637247 0.10963839 2.7044504 1115148
0.83714753 0.102786 2.5354223 984075
0.81136078 0.096739762 2.3862798 984074
0.78843927 0.09136533 2.2537088 1115660
0.85827523 0.096739762 2.3862798 1246733
0.8327474 0.09136533 2.2537088 1115662
0.73277265 0.078313135 1.9317503 1115661
0.75176179 0.078313135 1.9317503 1246732
0.770751 0.078313135 1.9317503 1181454
0.7897402 0.078313135 1.9317503 1049868
0.84916592 0.082228802 2.028338 1246990
0.96567178 0.09136533 2.2537088 3806996
1.0459331 0.096739762 2.3862798 6235159
1.0693904 0.096739762 2.3862798 4923160
1.1611506 0.102786 2.5354223 2755597
1.1860739 0.102786 2.5354223 1378317
1.1397622 0.096739762 2.3862798 984845
1.1632193 0.096739762 2.3862798 721417
1.1866766 0.096739762 2.3862798 786696
1.2101338 0.096739762 2.3862798 786698
1.2335911 0.096739762 2.3862798 852489
1.2570482 0.096739762 2.3862798 721675
1.2805055 0.096739762 2.3862798 984077
1.3039628 0.096739762 2.3862798 852490
1.32742 0.096739762 2.3862798 721675
1.3508773 0.096739762 2.3862798 918282
1.3743345 0.096739762 2.3862798 918282
1.3977917 0.096739762 2.3862798 787466
1.3422908 0.09136533 2.2537088 1181197
1.3644449 0.09136533 2.2537088 1378316
1.3865988 0.09136533 2.2537088 1509645
1.4087529 0.09136533 2.2537088 655882
1.430907 0.09136533 2.2537088 655623
1.307755 0.082228802 2.028338 721159
1.26447 0.078313135 1.9317503 1181710
1.2834592 0.078313135 1.9317503 1641489
1.3024484 0.078313135 1.9317503 1115402
1.3214376 0.078313135 1.9317503 655628
1.3404268 0.078313135 1.9317503 524296
1.2976243 0.074753448 1.8439435 459016
1.3157504 0.074753448 1.8439435 656395
1.3338765 0.074753448 1.8439435 590087
1.3520025 0.074753448 1.8439435 786698
1.3701285 0.074753448 1.8439435 720903
1.3882545 0.074753448 1.8439435 721159
1.3452337 0.071503296 1.763772 786951
1.3625716 0.071503296 1.763772 655880
1.3799095 0.071503296 1.763772 721674
1.3972476 0.071503296 1.763772 590087
1.4145855 0.071503296 1.763772 787209
1.4319234 0.071503296 1.763772 852233
1.4492614 0.071503296 1.763772 852233
1.533263 0.074753448 1.8439435 852490
1.551389 0.074753448 1.8439435 787211
1.6442538 0.078313135 1.9317503 852489
1.6632431 0.078313135 1.9317503 852489
1.766344 0.082228802 2.028338 787210
1.7862827 0.082228802 2.028338 918282
1.8062212 0.082228802 2.028338 721673
1.82616 0.082228802 2.028338 787466
1.8460985 0.082228802 2.028338 655882
1.8660372 0.082228802 2.028338 918282
1.9852377 0.086556628 2.1350925 852745
1.9059145 0.082228802 2.028338 787463
1.9258533 0.082228802 2.028338 787466
2.2891667 0.096739762 2.3862798 721673
2.312624 0.096739762 2.3862798 918282
2.3360813 0.096739762 2.3862798 918282
2.0056078 0.082228802 2.028338 918284
1.9290917 0.078313135 1.9317503 918282
1.9480809 0.078313135 1.9317503 984075
1.9670701 0.078313135 1.9317503 918282
1.8133585 0.071503296 1.763772 984075
1.8306965 0.071503296 1.763772 918282
1.8480344 0.071503296 1.763772 1378317
1.9501621 0.074753448 1.8439435 6308403
2.062016 0.078313135 1.9317503 9987905
2.1850557 0.082228802 2.028338 10578507
2.4499936 0.09136533 2.2537088 10053194
2.4721477 0.09136533 2.2537088 9396297
2.4943018 0.09136533 2.2537088 9133639
2.5164559 0.09136533 2.2537088 9264452
2.6879399 0.096739762 2.3862798 9396551
2.7113969 0.096739762 2.3862798 9725001
2.5829182 0.09136533 2.2537088 10184266
2.3445649 0.082228802 2.028338 10512972
2.2519081 0.078313135 1.9317503 10381643
2.2708972 0.078313135 1.9317503 10645328
2.2898865 0.078313135 1.9317503 10381900
2.3088756 0.078313135 1.9317503 9856844
2.3278649 0.078313135 1.9317503 9725773
2.4641969 0.082228802 2.028338 9725773
0 0 0 9922638
0 0 0 10053710
0 0 0 9987660
0 0 0 10381390
0 0 0 10118989
0 0 0 10119757
0 0 0 9856331
0 0 0 9921611
0 0 0 3940373
0 0 0 1050121
-4.0346217 0.17027907 3.380563 1575438
-4.3651533 0.18575899 3.687887 1772046
-4.3289013 0.18575899 3.687887 2626840
-4.7219143 0.2043349 4.0566759 3282711
-4.6820374 0.2043349 4.0566759 3282967
-4.6421599 0.2043349 4.0566759 3348245
-4.6022825 0.2043349 4.0566759 3545365
-4.1476407 0.18575899 3.687887 3545624
-4.1113887 0.18575899 3.687887 3479573
-4.0751367 0.18575899 3.687887 3545621
-4.0388846 0.18575899 3.687887 3545878
-3.6690798 0.17027907 3.380563 3611414
-3.6358488 0.17027907 3.380563 3611159
-3.6026175 0.17027907 3.380563 3545624
-3.5693865 0.17027907 3.380563 3545623
-3.5361555 0.17027907 3.380563 3545878
-3.5029244 0.17027907 3.380563 3480085
-3.4696932 0.17027907 3.380563 3480085
-3.7488678 0.18575899 3.687887 2888208
-3.7126157 0.18575899 3.687887 2036243
-3.6763637 0.18575899 3.687887 2626323
-4.4490256 0.22703879 4.5074177 1245957
-4.4047174 0.22703879 4.5074177 917769
-4.3604093 0.22703879 4.5074177 1904404
-4.3161011 0.22703879 4.5074177 2495508
-4.2717929 0.22703879 4.5074177 1509387
-3.8047364 0.2043349 4.0566759 984074
-3.7648592 0.2043349 4.0566759 984075
-3.7249818 0.2043349 4.0566759 852489
-3.6851046 0.2043349 4.0566759 786953
-3.6452272 0.2043349 4.0566759 786953
-3.60535 0.2043349 4.0566759 852746
-3.9616363 0.22703879 4.5074177 1181710
-3.9173281 0.22703879 4.5074177 1115916
-4.3571472 0.25541863 5.0708447 853259
-4.3073006 0.25541863 5.0708447 918795
-4.2574539 0.25541863 5.0708447 918795
-4.2076073 0.25541863 5.0708447 918282
-4.1577606 0.25541863 5.0708447 918280
-4.107914 0.25541863 5.0708447 721674
-3.6071713 0.22703879 4.5074177 852748
-3.5628631 0.22703879 4.5074177 2234396
-3.5185549 0.22703879 4.5074177 3942182
-3.9085276 0.25541863 5.0708447 4795430
-3.858681 0.25541863 5.0708447 5583910
-3.8088343 0.25541863 5.0708447 6570290
-3.7589877 0.25541863 5.0708447 6964528
-3.709141 0.25541863 5.0708447 7226157
-3.6592944 0.25541863 5.0708447 4922639
-4.125083 0.29190698 5.7952509 4329235
-4.0681157 0.29190698 5.7952509 3934476
-4.011148 0.29190698 5.7952509 1312010
-3.459908 0.25541863 5.0708447 918536
-3.4100614 0.25541863 5.0708447 853513
-3.3602147 0.25541863 5.0708447 1312267
-2.9425495 0.22703879 4.5074177 1246730
-2.8982413 0.22703879 4.5074177 1246989
-2.8539333 0.22703879 4.5074177 1837838
-2.8096251 0.22703879 4.5074177 1772045
-2.765317 0.22703879 4.5074177 1115661
-2.721009 0.22703879 4.5074177 6835785
-2.6767008 0.22703879 4.5074177 10316872
-2.9614415 0.25541863 5.0708447 11236174
-2.9115949 0.25541863 5.0708447 11367505
-2.8617485 0.25541863 5.0708447 11301710
-2.8119018 0.25541863 5.0708447 11301710
-2.7620552 0.25541863 5.0708447 11367503
-2.7122085 0.25541863 5.0708447 11235660
-2.6623619 0.25541863 5.0708447 11301455
-2.9857316 0.29190698 5.7952509 11432783
-2.5626686 0.25541863 5.0708447 11432783
-0.37226993 0.037839796 0.75123626 8409909
-0.36488524 0.037839796 0.75123626 7817785
-0.35750055 0.037839796 0.75123626 984074
-0.35011587 0.037839796 0.75123626 853261
-0.34273118 0.037839796 0.75123626 984075
-0.32924926 0.037151799 0.73757738 919053
-0.31070065 0.03584823 0.71169752 853260
-0.29846835 0.035230152 0.69942683 918797
-0.28187317 0.034055814 0.67611259 787211
-0.27522695 0.034055814 0.67611259 787725
-0.27784213 0.035230152 0.69942683 787468
-0.26193452 0.034055814 0.67611259 853261
-0.25110325 0.033497524 0.66502881 853261
-0.236802 0.03243411 0.64391679 853004
-0.23047227 0.03243411 0.64391679 853003
-0.22414254 0.03243411 0.64391679 786698
-0.21781281 0.03243411 0.64391679 722188
-0.21148308 0.03243411 0.64391679 2234397
-0.20194782 0.031927329 0.63385558 2561821
-0.19571699 0.031927329 0.63385558 2300189
-0.18948616 0.031927329 0.63385558 1773847
-0.18325533 0.031927329 0.63385558 2431776
-0.17702451 0.031927329 0.63385558 1904919
-0.17079368 0.031927329 0.63385558 1839383
-0.16456285 0.031927329 0.63385558 1245705
-0.15833202 0.031927329 0.63385558 1049098
-0.15958159 0.033497524 0.66502881 656395
-0.15559505 0.034055814 0.67611259 786696
-0.1514734 0.034633033 0.68757218 655882
-0.14230262 0.034055814 0.67611259 655882
-0.13795567 0.034633033 0.68757218 655882
-0.1311968 0.034633033 0.68757218 786698
-0.12236396 0.034055814 0.67611259 786698
-0.11382074 0.033497524 0.66502881 852489
-0.10387765 0.03243411 0.64391679 590087
-0.097547919 0.03243411 0.64391679 655882
-0.091218188 0.03243411 0.64391679 786698
-0.1091423 0.041701 0.82789302 655882
-0.10100408 0.041701 0.82789302 720905
-0.094800554 0.042569768 0.84514076 720903
-0.090253338 0.04442063 0.88188601 655882
-0.067015722 0.036488373 0.72440636 852491
-0.059894778 0.036488373 0.72440636 786696
-0.05277383 0.036488373 0.72440636 786696
0 0 0 721418
0 0 0 655625
0 0 0 655625
0 0 0 721417
0 0 0 786697
0 0 0 786697
0 0 0 655880
0 0 0 918282
0 0 0 786696
0 0 0 852489
0 0 0 1114888
0 0 0 1246731
0.13929468 0.12770931 2.5354223 1378060
0.10947867 0.085139535 1.6902815 1312524
0.10435383 0.070460305 1.3988537 1312270
0.097858123 0.058381401 1.1590502 1443599
0.095595188 0.051083725 1.014169 1246731
0.10556451 0.051083725 1.014169 1115145
0 0 0 1115145
0 0 0 1246732
0 0 0 1050122
0 0 0 1773587
0 0 0 1706510
0 0 0 2101523
0 0 0 2166803
0 0 0 2232594
0 0 0 2494739
0.39096716 0.097302333 1.9317503 5649704
0.40995637 0.097302333 1.9317503 8607810
0.47409773 0.10754468 2.1350925 10447439
0.55333114 0.120197 2.3862798 10579278
0.57678843 0.120197 2.3862798 11301713
0.637761 0.12770931 2.5354223 11827539
0.66268432 0.12770931 2.5354223 13010525
0.73344809 0.13622326 2.7044504 13010012
0.76003295 0.13622326 2.7044504 10312770
0.73745424 0.12770931 2.5354223 1180941
0.76237756 0.12770931 2.5354223 1115404
0.78730088 0.12770931 2.5354223 1180938
0.81222421 0.12770931 2.5354223 1246989
0.78790355 0.120197 2.3862798 1575951
0.76628524 0.11351939 2.2537088 1641746
0.70959538 0.10216745 2.028338 1575952
0.69479424 0.097302333 1.9317503 1444366
0.71378344 0.097302333 1.9317503 1510160
0.73277265 0.097302333 1.9317503 1378317
0.75176179 0.097302333 1.9317503 1312524
0.770751 0.097302333 1.9317503 1378059
0.7897402 0.097302333 1.9317503 1115146
0.84916592 0.10216745 2.028338 1246731
0.96567178 0.11351939 2.2537088 1181451
1.0459331 0.120197 2.3862798 1115915
1.0693904 0.120197 2.3862798 1443852
1.1611506 0.12770931 2.5354223 1312524
1.1860739 0.12770931 2.5354223 1246474
1.2109972 0.12770931 2.5354223 1115145
1.1632193 0.120197 2.3862798 1246988
1.1866766 0.120197 2.3862798 1114891
1.2101338 0.120197 2.3862798 852489
1.2335911 0.120197 2.3862798 787467
1.2570482 0.120197 2.3862798 787466
1.2805055 0.120197 2.3862798 787468
1.3039628 0.120197 2.3862798 918284
1.32742 0.120197 2.3862798 918282
1.2758286 0.11351939 2.2537088 918282
1.2296677 0.10754468 2.1350925 721673
1.2506558 0.10754468 2.1350925 918536
1.2716439 0.10754468 2.1350925 1313293
1.2926319 0.10754468 2.1350925 1378317
1.31362 0.10754468 2.1350925 1312780
1.334608 0.10754468 2.1350925 853259
1.3555961 0.10754468 2.1350925 918282
1.307755 0.10216745 2.028338 1049352
1.26447 0.097302333 1.9317503 1181195
1.2834592 0.097302333 1.9317503 1378316
1.3024484 0.097302333 1.9317503 1444364
1.3214376 0.097302333 1.9317503 1049864
1.3404268 0.097302333 1.9317503 852489
1.359416 0.097302333 1.9317503 655625
1.3784052 0.097302333 1.9317503 721418
1.3338765 0.092879497 1.8439435 655625
1.3520025 0.092879497 1.8439435 655625
1.3701285 0.092879497 1.8439435 655623
1.3278956 0.088841259 1.763772 786696
1.237615 0.081733957 1.6226703 655882
1.3057978 0.085139535 1.6902815 655882
1.3224133 0.085139535 1.6902815 721675
1.3972476 0.088841259 1.763772 852489
1.4788848 0.092879497 1.8439435 786696
1.4319234 0.088841259 1.763772 852491
1.4492614 0.088841259 1.763772 852491
1.4665993 0.088841259 1.763772 721675
1.551389 0.092879497 1.8439435 655882
1.5695151 0.092879497 1.8439435 655882
1.6632431 0.097302333 1.9317503 918796
1.766344 0.10216745 2.028338 787209
1.7862827 0.10216745 2.028338 852491
1.7202107 0.097302333 1.9317503 852489
1.7391998 0.097302333 1.9317503 983305
1.8460985 0.10216745 2.028338 852489
1.8660372 0.10216745 2.028338 918281
1.8859758 0.10216745 2.028338 918024
1.9059145 0.10216745 2.028338 787209
1.9258533 0.10216745 2.028338 918282
2.2891667 0.120197 2.3862798 918282
2.312624 0.120197 2.3862798 853259
2.3360813 0.120197 2.3862798 918282
2.0056078 0.10216745 2.028338 918282
2.0255466 0.10216745 2.028338 918282
1.9480809 0.097302333 1.9317503 984333
1.7211864 0.085139535 1.6902815 1049355
1.6682899 0.081733957 1.6226703 1049868
1.6842408 0.081733957 1.6226703 1181197
1.7710329 0.085139535 1.6902815 1246990
1.8653724 0.088841259 1.763772 6176562
1.9682881 0.092879497 1.8439435 9462078
2.0810053 0.097302333 1.9317503 10644555
2.2049944 0.10216745 2.028338 10052682
2.4721477 0.11351939 2.2537088 9263940
2.4943018 0.11351939 2.2537088 9132612
2.5164559 0.11351939 2.2537088 9067332
2.53861 0.11351939 2.2537088 9330500
2.5607641 0.11351939 2.2537088 9658694
2.5829182 0.11351939 2.2537088 10052681
2.3445649 0.10216745 2.028338 10315338
2.3645036 0.10216745 2.028338 10578766
2.2708972 0.097302333 1.9317503 10513229
2.2898865 0.097302333 1.9317503 10054477
2.3088756 0.097302333 1.9317503 9659469
2.3278649 0.097302333 1.9317503 9790796
2.4641969 0.10216745 2.028338 9856589
0 0 0 9921867
0 0 0 9921610
0 0 0 10118988
0 0 0 10250573
0 0 0 10118987
0 0 0 10118989
0 0 0 9856333
0 0 0 9922127
0 0 0 3874580
0 0 0 1246730
-4.0346217 0.20351017 3.380563 1378830
-4.0013905 0.20351017 3.380563 1575439
-4.3289013 0.22201109 3.687887 2889756
-4.2926493 0.22201109 3.687887 3414040
-4.6820374 0.24421221 4.0566759 3545626
-4.6421599 0.24421221 4.0566759 3479831
-4.6022825 0.24421221 4.0566759 3743003
-4.1476407 0.22201109 3.687887 3545621
-4.1113887 0.22201109 3.687887 3742488
-4.0751367 0.22201109 3.687887 3676951
-4.0388846 0.22201109 3.687887 3611159
-3.6690798 0.20351017 3.380563 3742744
-3.6358488 0.20351017 3.380563 3677207
-3.6026175 0.20351017 3.380563 3743000
-3.5693865 0.20351017 3.380563 3743000
-3.8576241 0.22201109 3.687887 3742999
-3.821372 0.22201109 3.687887 3480340
-3.78512 0.22201109 3.687887 3742998
-3.7488678 0.22201109 3.687887 3019021
-3.7126157 0.22201109 3.687887 1904401
-3.6763637 0.22201109 3.687887 2561559
-4.4490256 0.2713469 4.5074177 2429971
-4.4047174 0.2713469 4.5074177 2627352
-4.3604093 0.2713469 4.5074177 1575179
-4.3161011 0.2713469 4.5074177 984585
-4.2717929 0.2713469 4.5074177 853513
-4.2274847 0.2713469 4.5074177 787465
-3.7648592 0.24421221 4.0566759 787466
-3.7249818 0.24421221 4.0566759 918282
-3.6851046 0.24421221 4.0566759 852489
-3.6452272 0.24421221 4.0566759 918282
-3.60535 0.24421221 4.0566759 918282
-3.5654726 0.24421221 4.0566759 984075
-3.5255952 0.24421221 4.0566759 984075
-3.8730199 0.2713469 4.5074177 1049868
-4.3073006 0.30526525 5.0708447 984075
-4.2574539 0.30526525 5.0708447 918536
-4.2076073 0.30526525 5.0708447 1246731
-4.1577606 0.30526525 5.0708447 983816
-4.107914 0.30526525 5.0708447 655881
-3.6071713 0.2713469 4.5074177 984077
-3.5628631 0.2713469 4.5074177 2232855
-3.5185549 0.2713469 4.5074177 2758680
-3.9085276 0.30526525 5.0708447 3218200
-3.858681 0.30526525 5.0708447 4137757
-3.8088343 0.30526525 5.0708447 4793885
-4.2959857 0.34887457 5.7952509 4990747
-3.709141 0.30526525 5.0708447 4597273
-3.6592944 0.30526525 5.0708447 3742483
-3.6094477 0.30526525 5.0708447 3479314
-3.5596011 0.30526525 5.0708447 3019536
-4.011148 0.34887457 5.7952509 1312008
-3.459908 0.30526525 5.0708447 918536
-3.4100614 0.30526525 5.0708447 1115915
-3.3602147 0.30526525 5.0708447 1115145
-2.9425495 0.2713469 4.5074177 1180684
-2.8982413 0.2713469 4.5074177 1050123
-2.8539333 0.2713469 4.5074177 1115145
-2.5286627 0.24421221 4.0566759 1246476
-2.765317 0.2713469 4.5074177 918282
-2.721009 0.2713469 4.5074177 4467497
-2.6767008 0.2713469 4.5074177 10249542
-2.6323926 0.2713469 4.5074177 10709321
-2.9115949 0.30526525 5.0708447 11038285
-2.8617485 0.30526525 5.0708447 11301708
-2.8119018 0.30526525 5.0708447 11301453
-2.7620552 0.30526525 5.0708447 11039308
-2.7122085 0.30526525 5.0708447 10841931
-2.6623619 0.30526525 5.0708447 10973517
-3.4833536 0.40702033 6.761126 11039310
-3.4168913 0.40702033 6.761126 11498319
-0.37929386 0.046077773 0.76541048 10907976
-0.36488524 0.045224484 0.75123626 7488819
-0.35750055 0.045224484 0.75123626 983816
-0.35011587 0.045224484 0.75123626 1116431
-0.33649969 0.044402216 0.73757738 852746
-0.32336983 0.043609321 0.72440636 985102
-0.31070065 0.042844247 0.71169752 918797
-0.30370465 0.042844247 0.71169752 1180942
-0.28187317 0.040702034 0.67611259 918026
-0.27071506 0.040034786 0.66502881 984075
-0.2641778 0.040034786 0.66502881 787468
-0.25764054 0.040034786 0.66502881 852746
-0.24705321 0.039389066 0.65430254 918283
-0.236802 0.038763843 0.64391679 1050126
-0.23047227 0.038763843 0.64391679 786954
-0.22414254 0.038763843 0.64391679 655624
-0.21781281 0.038763843 0.64391679 721675
-0.21148308 0.038763843 0.64391679 2562331
-0.20194782 0.038158156 0.63385558 2300189
-0.19571699 0.038158156 0.63385558 2167834
-0.18948616 0.038158156 0.63385558 2430751
-0.18325533 0.038158156 0.63385558 2036506
-0.17430106 0.03757111 0.62410396 1905178
-0.16816609 0.03757111 0.62410396 2628383
-0.16203111 0.03757111 0.62410396 1642772
-0.15833202 0.038158156 0.63385558 786696
-0.15958159 0.040034786 0.66502881 655882
-0.15559505 0.040702034 0.67611259 590602
-0.14894883 0.040702034 0.67611259 786696
-0.14230262 0.040702034 0.67611259 590089
-0.13795567 0.041391902 0.68757218 786698
-0.12689526 0.040034786 0.66502881 590089
-0.12035801 0.040034786 0.66502881 655628
-0.11571775 0.040702034 0.67611259 590089
-0.10728347 0.040034786 0.66502881 720905
-0.097547919 0.038763843 0.64391679 655882
-0.091218188 0.038763843 0.64391679 720903
-0.084888458 0.038763843 0.64391679 720907
-0.091651849 0.045224484 0.75123626 655882
-0.084267162 0.045224484 0.75123626 655880
-0.075484611 0.044402216 0.73757738 655880
-0.05518942 0.035913561 0.59656996 590089
-0.049325112 0.035913561 0.59656996 655882
-0.046177104 0.038158156 0.63385558 917769
0 0 0 786697
0 0 0 590088
0 0 0 655625
0 0 0 786696
0 0 0 655367
0 0 0 786698
0 0 0 720903
0 0 0 720903
0 0 0 1049098
0 0 0 1049352
0 0 0 1115915
0 0 0 1312267
0.13929468 0.15263262 2.5354223 1312266
0.10947867 0.10175508 1.6902815 1508875
0.089007683 0.071827121 1.1931399 1443852
0.1007363 0.071827121 1.1931399 1246474
0.10925163 0.069774918 1.1590502 1312267
0.14075267 0.081404068 1.3522252 1312524
0 0 0 1180681
0 0 0 1049352
0 0 0 1049865
0 0 0 1509644
0 0 0 4466209
0 0 0 4793629
0 0 0 4793627
0 0 0 4859165
0.41113356 0.12853274 2.1350925 4728349
0.35697001 0.10617922 1.763772 4924701
0.40995637 0.11629152 1.9317503 8936517
0.45039287 0.12210611 2.028338 10316878
0.55333114 0.14365424 2.3862798 11038544
0.57678843 0.14365424 2.3862798 11367508
0.60024565 0.14365424 2.3862798 12024663
0.66268432 0.15263262 2.5354223 12352857
0.73344809 0.16280814 2.7044504 12944476
0.76003295 0.16280814 2.7044504 10379074
0.73745424 0.15263262 2.5354223 1050122
0.76237756 0.15263262 2.5354223 1246732
0.78730088 0.15263262 2.5354223 1181966
0.81222421 0.15263262 2.5354223 1181194
0.78790355 0.14365424 2.3862798 984074
0.81136078 0.14365424 2.3862798 787467
0.64508665 0.11100554 1.8439435 984072
0.69479424 0.11629152 1.9317503 984073
0.71378344 0.11629152 1.9317503 983816
0.73277265 0.11629152 1.9317503 918282
0.75176179 0.11629152 1.9317503 918282
0.770751 0.11629152 1.9317503 1115146
0.7897402 0.11629152 1.9317503 1050122
0.80872941 0.11629152 1.9317503 984072
0.96567178 0.13567345 2.2537088 1246731
1.0459331 0.14365424 2.3862798 1246731
1.0693904 0.14365424 2.3862798 1246476
1.0928476 0.14365424 2.3862798 1378060
1.1860739 0.15263262 2.5354223 1180937
1.1397622 0.14365424 2.3862798 1115915
1.1632193 0.14365424 2.3862798 1181451
1.1866766 0.14365424 2.3862798 984329
1.2101338 0.14365424 2.3862798 786696
1.2335911 0.14365424 2.3862798 787211
1.2570482 0.14365424 2.3862798 787466
1.2805055 0.14365424 2.3862798 918284
1.3039628 0.14365424 2.3862798 918540
1.32742 0.14365424 2.3862798 852489
1.3508773 0.14365424 2.3862798 721673
1.2296677 0.12853274 2.1350925 852489
1.2506558 0.12853274 2.1350925 1509645
1.2716439 0.12853274 2.1350925 4464927
1.2280003 0.12210611 2.028338 4268317
1.247939 0.12210611 2.028338 3874586
1.2678777 0.12210611 2.028338 3941151
1.2878163 0.12210611 2.028338 3743515
1.307755 0.12210611 2.028338 3874846
1.26447 0.11629152 1.9317503 4203295
1.2834592 0.11629152 1.9317503 4465697
1.3024484 0.11629152 1.9317503 3215631
1.3214376 0.11629152 1.9317503 2035475
1.3404268 0.11629152 1.9317503 655623
1.359416 0.11629152 1.9317503 655624
1.3157504 0.11100554 1.8439435 786696
1.3338765 0.11100554 1.8439435 721160
1.4163835 0.11629152 1.9317503 655628
1.2559512 0.10175508 1.6902815 786698
1.2725667 0.10175508 1.6902815 721415
1.2891822 0.10175508 1.6902815 721675
1.3057978 0.10175508 1.6902815 721675
1.3799095 0.10617922 1.763772 721419
1.4607588 0.11100554 1.8439435 721417
1.4788848 0.11100554 1.8439435 721675
1.4319234 0.10617922 1.763772 852489
1.4492614 0.10617922 1.763772 787209
1.4665993 0.10617922 1.763772 918284
1.4839373 0.10617922 1.763772 852491
1.5695151 0.11100554 1.8439435 918282
1.5876411 0.11100554 1.8439435 918025
1.6822323 0.11629152 1.9317503 1049610
1.7012215 0.11629152 1.9317503 721673
1.7202107 0.11629152 1.9317503 918282
1.82616 0.12210611 2.028338 852489
1.8460985 0.12210611 2.028338 918282
1.8660372 0.12210611 2.028338 918282
1.9852377 0.12853274 2.1350925 918283
2.0062258 0.12853274 2.1350925 918284
2.0272138 0.12853274 2.1350925 721419
2.2891667 0.14365424 2.3862798 853002
2.312624 0.14365424 2.3862798 918282
2.3360813 0.14365424 2.3862798 984075
2.2284532 0.13567345 2.2537088 918282
2.0255466 0.12210611 2.028338 918026
1.8595318 0.11100554 1.8439435 853002
1.7960205 0.10617922 1.763772 984075
1.7378019 0.10175508 1.6902815 1049098
1.6842408 0.097684883 1.6226703 1049868
1.7001917 0.097684883 1.6226703 1115661
1.7876486 0.10175508 1.6902815 3940384
1.9682881 0.11100554 1.8439435 6370596
1.9864142 0.11100554 1.8439435 5910813
2.0999944 0.11629152 1.9317503 7949619
2.2249329 0.12210611 2.028338 8673349
2.3630228 0.12853274 2.1350925 8672574
2.5164559 0.13567345 2.2537088 8936000
2.53861 0.13567345 2.2537088 9395784
2.4259868 0.12853274 2.1350925 9592904
2.446975 0.12853274 2.1350925 9724232
2.467963 0.12853274 2.1350925 9856330
2.3645036 0.12210611 2.028338 10316880
2.2708972 0.11629152 1.9317503 10512716
2.2898865 0.11629152 1.9317503 10119244
2.3088756 0.11629152 1.9317503 9790542
2.3278649 0.11629152 1.9317503 9658956
2.4641969 0.12210611 2.028338 9593674
3.5487647 0.17443728 2.8976254 9593931
0 0 0 9791052
0 0 0 10118989
0 0 0 10184782
0 0 0 9791565
0 0 0 9791566
0 0 0 9528395
0 0 0 9791311
0 0 0 4136980
0 0 0 1115657
-4.0346217 0.23674124 3.380563 1444109
-4.0013905 0.23674124 3.380563 1509645
-3.9681594 0.23674124 3.380563 2758937
-4.2926493 0.25826317 3.687887 3809050
-4.2563972 0.25826317 3.687887 3873558
-4.6421599 0.28408951 4.0566759 4070937
-4.6022825 0.28408951 4.0566759 3809050
-4.1476407 0.25826317 3.687887 3874328
-4.1113887 0.25826317 3.687887 3874328
-4.0751367 0.25826317 3.687887 3874330
-4.0388846 0.25826317 3.687887 4005401
-4.0026326 0.25826317 3.687887 4005656
-3.9663804 0.25826317 3.687887 3874582
-3.6026175 0.23674124 3.380563 3940118
-3.8938763 0.25826317 3.687887 4005911
-3.8576241 0.25826317 3.687887 3940375
-3.821372 0.25826317 3.687887 3874325
-3.78512 0.25826317 3.687887 4005141
-3.7488678 0.25826317 3.687887 3150349
-3.7126157 0.25826317 3.687887 1838350
-4.0440001 0.28408951 4.0566759 2100753
-4.4490256 0.31565502 4.5074177 2561045
-4.4047174 0.31565502 4.5074177 3021336
-4.3604093 0.31565502 4.5074177 3020823
-4.3161011 0.31565502 4.5074177 2823959
-4.2717929 0.31565502 4.5074177 2823959
-4.2274847 0.31565502 4.5074177 2758423
-3.7648592 0.28408951 4.0566759 2034961
-3.7249818 0.28408951 4.0566759 721157
-3.6851046 0.28408951 4.0566759 655880
-3.6452272 0.28408951 4.0566759 918282
-3.60535 0.28408951 4.0566759 918282
-3.5654726 0.28408951 4.0566759 852489
-3.5255952 0.28408951 4.0566759 852489
-3.8730199 0.31565502 4.5074177 852491
-4.3073006 0.3551119 5.0708447 918282
-4.2574539 0.3551119 5.0708447 918536
-4.2076073 0.3551119 5.0708447 786696
-4.1577606 0.3551119 5.0708447 786953
-3.6514795 0.31565502 4.5074177 655882
-3.6071713 0.31565502 4.5074177 918284
-3.5628631 0.31565502 4.5074177 1180680
-3.9583743 0.3551119 5.0708447 1377031
-3.9085276 0.3551119 5.0708447 1245699
-3.858681 0.3551119 5.0708447 1312264
-3.8088343 0.3551119 5.0708447 1180678
-3.7589877 0.3551119 5.0708447 1311750
-3.709141 0.3551119 5.0708447 918021
-3.6592944 0.3551119 5.0708447 917767
-3.6094477 0.3551119 5.0708447 983303
-3.5596011 0.3551119 5.0708447 853001
-3.5097547 0.3551119 5.0708447 918281
-3.459908 0.3551119 5.0708447 984074
-3.4100614 0.3551119 5.0708447 721673
-3.3602147 0.3551119 5.0708447 983559
-2.9425495 0.31565502 4.5074177 918281
-2.6084173 0.28408951 4.0566759 721417
-2.5685399 0.28408951 4.0566759 852743
-2.5286627 0.28408951 4.0566759 786950
-2.765317 0.31565502 4.5074177 1049868
-2.721009 0.31565502 4.5074177 3218205
-3.0112882 0.3551119 5.0708447 9131842
-2.9614415 0.3551119 5.0708447 9986625
-2.9115949 0.3551119 5.0708447 10250055
-2.8617485 0.3551119 5.0708447 10578506
-2.8119018 0.3551119 5.0708447 11038538
-2.7620552 0.3551119 5.0708447 10709575
-2.7122085 0.3551119 5.0708447 10775113
-2.6623619 0.3551119 5.0708447 10775370
-2.9857316 0.40584216 5.7952509 10776140
-2.9287641 0.40584216 5.7952509 10841163
-2.8717964 0.40584216 5.7952509 10972747
-0.36488524 0.052609168 0.75123626 9264966
-0.35750055 0.052609168 0.75123626 918536
-0.35011587 0.052609168 0.75123626 1050125
-0.33049077 0.050730269 0.72440636 918282
-0.31769669 0.049840268 0.71169752 984332
-0.31070065 0.049840268 0.71169752 918282
-0.29846835 0.048980948 0.69942683 984075
-0.28187317 0.04734825 0.67611259 852746
-0.27071506 0.046572052 0.66502881 918796
-0.2641778 0.046572052 0.66502881 853003
-0.25348502 0.045820888 0.65430254 852490
-0.24705321 0.045820888 0.65430254 787723
-0.23310196 0.044388987 0.63385558 984075
-0.23047227 0.045093574 0.64391679 787211
-0.22064032 0.044388987 0.63385558 721419
-0.21781281 0.045093574 0.64391679 524551
-0.21148308 0.045093574 0.64391679 984848
-0.20194782 0.044388987 0.63385558 1510419
-0.19571699 0.044388987 0.63385558 1575442
-0.18948616 0.044388987 0.63385558 2299167
-0.18325533 0.044388987 0.63385558 2168091
-0.17430106 0.043706078 0.62410396 2036760
-0.16816609 0.043706078 0.62410396 1773588
-0.16203111 0.043706078 0.62410396 1772305
-0.16084523 0.045093574 0.64391679 852489
-0.15700768 0.045820888 0.65430254 720905
-0.15559505 0.04734825 0.67611259 721675
-0.14894883 0.04734825 0.67611259 655882
-0.1399698 0.046572052 0.66502881 655882
-0.13128039 0.045820888 0.65430254 786698
-0.12484857 0.045820888 0.65430254 720903
-0.12035801 0.046572052 0.66502881 786696
-0.11571775 0.04734825 0.67611259 655882
-0.10907153 0.04734825 0.67611259 590089
-0.097547919 0.045093574 0.64391679 655882
-0.091218188 0.045093574 0.64391679 720905
-0.083562076 0.044388987 0.63385558 590087
