# .PCD v0.7 - Point Cloud Data file format
VERSION 0.7
FIELDS x y z rgb
SIZE 4 4 4 4
TYPE F F F U
COUNT 1 1 1 1
WIDTH 1245
HEIGHT 1
VIEWPOINT 0 0 0 1 0 0 0
POINTS 1245
DATA ascii
-4.6820374 -1.2711254 4.0566759 14983537
-4.6421599 -1.2711254 4.0566759 14852207
-4.6022825 -1.2711254 4.0566759 14589552
-4.5624051 -1.2711254 4.0566759 14524272
-5.0250311 -1.4123616 4.5074177 14720621
-4.9807229 -1.4123616 4.5074177 15048300
-5.5534663 -1.5889068 5.0708447 14787442
-4.8921065 -1.4123616 4.5074177 14983538
-4.8477983 -1.4123616 4.5074177 15375721
-4.8034906 -1.4123616 4.5074177 14786411
-4.7591825 -1.4123616 4.5074177 14524013
-4.2433867 -1.2711254 4.0566759 14457450
-3.821372 -1.1555685 3.687887 14391652
-3.78512 -1.1555685 3.687887 12352076
-3.7488678 -1.1555685 3.687887 11499086
-4.0838776 -1.2711254 4.0566759 12091221
-3.6763637 -1.1555685 3.687887 12024660
-4.0041227 -1.2711254 4.0566759 12091226
-3.9642456 -1.2711254 4.0566759 11894615
-4.9054604 -1.5889068 5.0708447 11763028
-4.8556137 -1.5889068 5.0708447 11631699
-4.8057671 -1.5889068 5.0708447 11763287
-4.2274847 -1.4123616 4.5074177 11894357
-4.7060738 -1.5889068 5.0708447 11762515
-4.6562271 -1.5889068 5.0708447 11761745
-4.0945606 -1.4123616 4.5074177 11697492
-4.0502524 -1.4123616 4.5074177 11762258
-4.0059443 -1.4123616 4.5074177 11828051
-3.9616363 -1.4123616 4.5074177 11630672
-3.9173281 -1.4123616 4.5074177 11762259
-3.8730199 -1.4123616 4.5074177 11433296
-3.8287117 -1.4123616 4.5074177 11302482
-3.7844038 -1.4123616 4.5074177 11367503
-3.7400956 -1.4123616 4.5074177 11564625
-4.1577606 -1.5889068 5.0708447 11367759
-4.107914 -1.5889068 5.0708447 11302478
-4.0580673 -1.5889068 5.0708447 11301453
-4.0082207 -1.5889068 5.0708447 11170124
-3.5185549 -1.4123616 4.5074177 11039308
-3.474247 -1.4123616 4.5074177 11105358
-3.4299388 -1.4123616 4.5074177 11039566
-3.3856306 -1.4123616 4.5074177 11104589
-3.3413227 -1.4123616 4.5074177 10974030
-3.2970145 -1.4123616 4.5074177 10907722
-3.2527063 -1.4123616 4.5074177 10974032
-3.2083981 -1.4123616 4.5074177 11171154
-3.5596011 -1.5889068 5.0708447 10710858
-3.5097547 -1.5889068 5.0708447 10906954
-3.459908 -1.5889068 5.0708447 11039051
-3.8972127 -1.8158933 5.7952509 10841931
-4.4802861 -2.1185422 6.761126 11104587
-3.7832778 -1.8158933 5.7952509 11104332
-3.72631 -1.8158933 5.7952509 10907725
-3.2106748 -1.5889068 5.0708447 11104333
-3.1608281 -1.5889068 5.0708447 10907724
-3.1109815 -1.5889068 5.0708447 10841678
-3.0611348 -1.5889068 5.0708447 10974030
-3.0112882 -1.5889068 5.0708447 10776650
-2.9614415 -1.5889068 5.0708447 11104333
-2.9115949 -1.5889068 5.0708447 10973517
-2.8617485 -1.5889068 5.0708447 11235660
-2.8119018 -1.5889068 5.0708447 11104076
-2.7620552 -1.5889068 5.0708447 10907724
-2.7122085 -1.5889068 5.0708447 11104331
-2.6623619 -1.5889068 5.0708447 11235659
-2.3222358 -1.4123616 4.5074177 11236689
-2.2779276 -1.4123616 4.5074177 11301712
-2.2336197 -1.4123616 4.5074177 11235917
-2.1893115 -1.4123616 4.5074177 11104331
-2.1450033 -1.4123616 4.5074177 11433294
-1.8906257 -1.2711254 4.0566759 11171149
-2.0563872 -1.4123616 4.5074177 11564109
-2.012079 -1.4123616 4.5074177 11367246
-2.5299909 -1.8158933 5.7952509 11433295
-2.4730234 -1.8158933 5.7952509 11630670
-3.3824785 -2.5422509 8.1133518 11695693
-3.3027239 -2.5422509 8.1133518 11695180
-3.2229691 -2.5422509 8.1133518 11564109
-3.1432145 -2.5422509 8.1133518 11366988
-2.1881855 -1.8158933 5.7952509 11433293
-2.131218 -1.8158933 5.7952509 11499086
-2.4199588 -2.1185422 6.761126 11040075
-1.5689979 -1.4123616 4.5074177 11104331
-1.2474734 -1.1555685 3.687887 11038538
-1.1102861 -1.0592711 3.380563 11104585
-1.077055 -1.0592711 3.380563 10907724
-1.043824 -1.0592711 3.380563 10513479
-0.93285501 -0.97778875 3.1205199 10316869
-0.90218014 -0.97778875 3.1205199 10446921
-0.87150532 -0.97778875 3.1205199 10052676
-1.2145329 -1.4123616 4.5074177 9922884
0 0 0 9986883
-1.447607 -1.8158933 5.7952509 9986624
-0.30420238 -0.39722669 1.2677112 9855038
-0.25932512 -0.35309041 1.1268544 9658686
-0.16248964 -0.2311137 0.73757738 9526591
-0.15811403 -0.2353936 0.75123626 8540469
-0.15072934 -0.2353936 0.75123626 7554091
-0.1382252 -0.22698666 0.72440636 5516058
-0.12880418 -0.22300446 0.71169752 1772298
-0.12180816 -0.22300446 0.71169752 1904401
-0.11283262 -0.21915954 0.69942683 4663846
-0.10416134 -0.21544498 0.68757218 6107944
-0.097402476 -0.21544498 0.68757218 6435624
-0.090643607 -0.21544498 0.68757218 6106147
-0.083884746 -0.21544498 0.68757218 5842721
-0.077125877 -0.21544498 0.68757218 5253153
-0.071580231 -0.21915954 0.69942683 5383967
-0.064704835 -0.21915954 0.69942683 4989981
-0.05782944 -0.21915954 0.69942683 5055774
-0.050954044 -0.21915954 0.69942683 4923418
-0.044078644 -0.21915954 0.69942683 4464150
-0.037203249 -0.21915954 0.69942683 4726039
-0.030327851 -0.21915954 0.69942683 4529430
-0.023863902 -0.22300446 0.71169752 4464407
-0.016867884 -0.22300446 0.71169752 3675411
-0.010230841 -0.2311137 0.73757738 2165517
-0.0029804225 -0.2311137 0.73757738 1443851
0.0042699962 -0.2311137 0.73757738 1049351
0.011520416 -0.2311137 0.73757738 1049094
0.018770834 -0.2311137 0.73757738 1377031
0.026503129 -0.2353936 0.75123626 1574921
0.033887815 -0.2353936 0.75123626 4925985
0.041272502 -0.2353936 0.75123626 10973002
0.049575243 -0.23983496 0.76541048 11106125
0 0 0 12024144
0 0 0 11959121
0.072147302 -0.23983496 0.76541048 11826507
0.079671323 -0.23983496 0.76541048 12287832
0.088872179 -0.24444719 0.78012997 11828051
0.096540891 -0.24444719 0.78012997 11893072
0.12041999 -0.28247231 0.90148348 11959379
0.12928161 -0.28247231 0.90148348 11565393
0.13814323 -0.28247231 0.90148348 11761488
0.15034588 -0.28889212 0.92197174 11564879
0.16311608 -0.29561055 0.94341296 11826767
0 0 0 11564878
0 0 0 11893074
0 0 0 11565136
0 0 0 11828051
0 0 0 11696981
0.39194289 -0.52963555 1.6902815 11959123
0.39221612 -0.50845015 1.6226703 11828050
0.40816703 -0.50845015 1.6226703 12221780
0.42411795 -0.50845015 1.6226703 12288087
0.45840508 -0.52963555 1.6902815 12156246
0.47502062 -0.52963555 1.6902815 12484439
0.49163616 -0.52963555 1.6902815 12484438
0.50825173 -0.52963555 1.6902815 12551002
0.52486724 -0.52963555 1.6902815 12616023
0.54148281 -0.52963555 1.6902815 12287830
0.55809832 -0.52963555 1.6902815 12484696
0.57471389 -0.52963555 1.6902815 12812888
0.48937607 -0.43831909 1.3988537 13010007
0.52109569 -0.45397332 1.4488127 12944730
0.53533757 -0.45397332 1.4488127 13076574
0.56993431 -0.4707872 1.5024725 13470303
0.71759081 -0.57778424 1.8439435 13470046
0.770751 -0.6052978 1.9317503 13405790
0.7897402 -0.6052978 1.9317503 13537379
0.80872941 -0.6052978 1.9317503 13799266
0.82771862 -0.6052978 1.9317503 14061667
0.84670776 -0.6052978 1.9317503 13996129
0.86569697 -0.6052978 1.9317503 13733473
0.88468617 -0.6052978 1.9317503 13799263
0.90367538 -0.6052978 1.9317503 14127970
0.92266452 -0.6052978 1.9317503 14389860
0.94165373 -0.6052978 1.9317503 14193249
0.96064293 -0.6052978 1.9317503 14128229
0.97963214 -0.6052978 1.9317503 13931363
0.99862134 -0.6052978 1.9317503 13997669
1.0176105 -0.6052978 1.9317503 14390628
1.0365998 -0.6052978 1.9317503 14521446
1.0555888 -0.6052978 1.9317503 14194021
1.074578 -0.6052978 1.9317503 14324324
1.0935673 -0.6052978 1.9317503 14062434
1.1125565 -0.6052978 1.9317503 14390887
1.1315457 -0.6052978 1.9317503 14259042
1.006718 -0.52963555 1.6902815 14062950
1.1695241 -0.6052978 1.9317503 14128231
1.1885133 -0.6052978 1.9317503 14258532
1.2678777 -0.63556272 2.028338 14127718
1.2878163 -0.63556272 2.028338 13996902
1.5385351 -0.74772078 2.3862798 13799784
1.5619924 -0.74772078 2.3862798 13930597
1.3476323 -0.63556272 2.028338 13996390
1.3024484 -0.6052978 1.9317503 13667938
1.3214376 -0.6052978 1.9317503 13733475
1.3404268 -0.6052978 1.9317503 13733474
1.4273869 -0.63556272 2.028338 13667429
1.4473255 -0.63556272 2.028338 13339746
1.3338765 -0.57778424 1.8439435 13471075
1.0256571 -0.43831909 1.3988537 13273440
1.0047609 -0.42370844 1.3522252 13535585
1.0180533 -0.42370844 1.3522252 13076577
1.1050134 -0.45397332 1.4488127 12945505
1.1607091 -0.4707872 1.5024725 12945760
1.1754786 -0.4707872 1.5024725 12748899
1.5303187 -0.6052978 1.9317503 12879710
1.4788848 -0.57778424 1.8439435 12879713
1.4970108 -0.57778424 1.8439435 12747098
1.3888755 -0.52963555 1.6902815 12747356
1.405491 -0.52963555 1.6902815 12551263
1.3652223 -0.50845015 1.6226703 12484959
1.4387221 -0.52963555 1.6902815 12419423
1.4553376 -0.52963555 1.6902815 12352859
1.6822323 -0.6052978 1.9317503 12288348
1.7012215 -0.6052978 1.9317503 12352858
1.7202107 -0.6052978 1.9317503 12025180
1.7391998 -0.6052978 1.9317503 11959383
1.758189 -0.6052978 1.9317503 12090969
1.7771782 -0.6052978 1.9317503 12025435
1.7961674 -0.6052978 1.9317503 11632218
1.8151566 -0.6052978 1.9317503 11500631
1.8341458 -0.6052978 1.9317503 11500122
1.853135 -0.6052978 1.9317503 11368023
1.8721242 -0.6052978 1.9317503 11695955
1.8911134 -0.6052978 1.9317503 11500122
2.0056078 -0.63556272 2.028338 11367505
2.0255466 -0.63556272 2.028338 11237972
1.7045708 -0.52963555 1.6902815 11564627
1.7211864 -0.52963555 1.6902815 11236692
1.7378019 -0.52963555 1.6902815 11433557
1.7544174 -0.52963555 1.6902815 10909009
2.3613775 -0.70618081 2.2537088 10974032
2.2580824 -0.66901338 2.1350925 10908757
2.2790704 -0.66901338 2.1350925 11170388
2.5706537 -0.74772078 2.3862798 10973524
0 0 0 10776147
0 0 0 10973265
0 0 0 10449237
0 0 0 10710608
2.53861 -0.70618081 2.2537088 10514259
2.4259868 -0.66901338 2.1350925 10777175
2.446975 -0.66901338 2.1350925 10512979
2.467963 -0.66901338 2.1350925 10316883
2.488951 -0.66901338 2.1350925 10579026
2.6493802 -0.70618081 2.2537088 10250831
2.5309272 -0.66901338 2.1350925 10120530
2.5519152 -0.66901338 2.1350925 10251857
2.7158425 -0.70618081 2.2537088 10120272
0 0 0 10316366
0 0 0 10119761
0 0 0 9988688
0 0 0 10119761
0 0 0 9988688
0 0 0 10120788
0 0 0 9923922
0 0 0 10119759
0 0 0 10316368
0 0 0 12681818
0 0 0 12748899
-4.0346217 -1.0260401 3.380563 13472104
-4.3651533 -1.1193165 3.687887 14458224
-4.3289013 -1.1193165 3.687887 14522987
-4.2926493 -1.1193165 3.687887 14457196
-4.2563972 -1.1193165 3.687887 14655087
-4.6421599 -1.2312481 4.0566759 14457963
-4.6022825 -1.2312481 4.0566759 14391915
-4.5624051 -1.2312481 4.0566759 14392429
-4.5225282 -1.2312481 4.0566759 14589806
-4.9807229 -1.3680534 4.5074177 15048043
-4.9364147 -1.3680534 4.5074177 14327917
-4.8921065 -1.3680534 4.5074177 14261870
-4.8477983 -1.3680534 4.5074177 14458731
-4.8034906 -1.3680534 4.5074177 14393451
-4.2832642 -1.2312481 4.0566759 14523242
-4.2433867 -1.2312481 4.0566759 14195304
-3.821372 -1.1193165 3.687887 13996895
-4.1636324 -1.2312481 4.0566759 12024656
-3.7488678 -1.1193165 3.687887 10906956
-3.7126157 -1.1193165 3.687887 12157530
-3.6763637 -1.1193165 3.687887 12418901
-4.0041227 -1.2312481 4.0566759 11697492
-3.9642456 -1.2312481 4.0566759 12025426
-4.3604093 -1.3680534 4.5074177 12157269
-4.3161011 -1.3680534 4.5074177 12025687
-4.2717929 -1.3680534 4.5074177 12090455
-4.2274847 -1.3680534 4.5074177 12090710
-4.183177 -1.3680534 4.5074177 11827538
-4.1388688 -1.3680534 4.5074177 11959125
-4.0945606 -1.3680534 4.5074177 12155222
-4.0502524 -1.3680534 4.5074177 12157016
-4.0059443 -1.3680534 4.5074177 11828051
-3.9616363 -1.3680534 4.5074177 11827280
-3.9173281 -1.3680534 4.5074177 11696463
-3.8730199 -1.3680534 4.5074177 11828051
-3.8287117 -1.3680534 4.5074177 11958865
-3.7844038 -1.3680534 4.5074177 11828049
-3.7400956 -1.3680534 4.5074177 11499086
-4.1577606 -1.5390601 5.0708447 11630672
-4.107914 -1.5390601 5.0708447 11696211
-4.0580673 -1.5390601 5.0708447 11236430
-3.5628631 -1.3680534 4.5074177 11171407
-3.5185549 -1.3680534 4.5074177 11236941
-3.474247 -1.3680534 4.5074177 11433037
-3.4299388 -1.3680534 4.5074177 11432523
-3.3856306 -1.3680534 4.5074177 11171409
-3.3413227 -1.3680534 4.5074177 11301455
-3.2970145 -1.3680534 4.5074177 11170896
-3.2527063 -1.3680534 4.5074177 10908495
-3.2083981 -1.3680534 4.5074177 11170124
-3.1640902 -1.3680534 4.5074177 11039566
-3.5097547 -1.5390601 5.0708447 11105103
-3.459908 -1.5390601 5.0708447 11235917
-3.4100614 -1.5390601 5.0708447 11104332
-3.3602147 -1.5390601 5.0708447 11367504
-3.3103681 -1.5390601 5.0708447 11105103
-3.2605214 -1.5390601 5.0708447 10842444
-3.2106748 -1.5390601 5.0708447 11039308
-3.1608281 -1.5390601 5.0708447 11365706
-3.1109815 -1.5390601 5.0708447 10973774
-3.0611348 -1.5390601 5.0708447 11301453
-2.6767008 -1.3680534 4.5074177 11104330
-2.6323926 -1.3680534 4.5074177 11105105
-2.5880845 -1.3680534 4.5074177 11039823
-2.5437765 -1.3680534 4.5074177 11235914
-2.8119018 -1.5390601 5.0708447 11367501
-2.7620552 -1.5390601 5.0708447 11170638
-2.7122085 -1.5390601 5.0708447 11301705
-2.366544 -1.3680534 4.5074177 11564621
-2.3222358 -1.3680534 4.5074177 11302993
-2.2779276 -1.3680534 4.5074177 11499343
-2.2336197 -1.3680534 4.5074177 11499341
-2.1893115 -1.3680534 4.5074177 11761486
-1.930503 -1.2312481 4.0566759 11499342
-1.8906257 -1.2312481 4.0566759 11499343
-2.0563872 -1.3680534 4.5074177 11893074
-2.012079 -1.3680534 4.5074177 11892302
-1.9677709 -1.3680534 4.5074177 12023890
-1.9234627 -1.3680534 4.5074177 12090452
-2.114049 -1.5390601 5.0708447 12090450
-2.0642023 -1.5390601 5.0708447 11828049
-2.0143557 -1.5390601 5.0708447 11892558
-1.964509 -1.5390601 5.0708447 11761488
-1.7019222 -1.3680534 4.5074177 11827281
-1.6576141 -1.3680534 4.5074177 11893842
-1.6133059 -1.3680534 4.5074177 11760716
-1.5689979 -1.3680534 4.5074177 11499084
-1.1435173 -1.0260401 3.380563 11498316
-1.0248796 -0.94711393 3.1205199 11367502
-0.9942047 -0.94711393 3.1205199 11301452
-0.96352983 -0.94711393 3.1205199 11039050
-0.93285501 -0.94711393 3.1205199 10841929
-0.90218014 -0.94711393 3.1205199 11038281
-1.258841 -1.3680534 4.5074177 10842442
0 0 0 10382663
0 0 0 10644551
-1.447607 -1.7589258 5.7952509 10316100
-0.30420238 -0.38476503 1.2677112 10381123
-0.16670898 -0.21986572 0.72440636 10119238
-0.15958804 -0.21986572 0.72440636 9790017
-0.15523921 -0.22386327 0.73757738 9067323
-0.1479888 -0.22386327 0.73757738 7359282
-0.1382252 -0.21986572 0.72440636 4333076
-0.12880418 -0.21600844 0.71169752 1180678
-0.12180816 -0.21600844 0.71169752 2691862
-0.11283262 -0.21228415 0.69942683 5976104
-0.10416134 -0.20868611 0.68757218 5845542
-0.097402476 -0.20868611 0.68757218 5778727
-0.090643607 -0.20868611 0.68757218 5449762
-0.083884746 -0.20868611 0.68757218 5187362
-0.077125877 -0.20868611 0.68757218 5055776
-0.070367016 -0.20868611 0.68757218 5186590
-0.064704835 -0.21228415 0.69942683 4793115
-0.056849282 -0.20868611 0.68757218 4858138
-0.050954044 -0.21228415 0.69942683 4989209
-0.044078644 -0.21228415 0.69942683 4661018
-0.037203249 -0.21228415 0.69942683 4464152
-0.030327851 -0.21228415 0.69942683 4464151
-0.023452453 -0.21228415 0.69942683 4463636
-0.016577058 -0.21228415 0.69942683 3741203
-0.0098718647 -0.21600844 0.71169752 2230538
-0.0029804225 -0.22386327 0.73757738 1771274
0.0042699962 -0.22386327 0.73757738 1311496
0.011520416 -0.22386327 0.73757738 983302
0.018770834 -0.22386327 0.73757738 1114888
0.026503129 -0.22800891 0.75123626 1246471
0.033887815 -0.22800891 0.75123626 2494218
0.042051226 -0.23231095 0.76541048 10578503
0.050528619 -0.23677848 0.78012997 11959377
0 0 0 12353364
0 0 0 12221776
0.070811249 -0.22800891 0.75123626 12155473
0.075403214 -0.21986572 0.72440636 11893329
0.087195344 -0.23231095 0.76541048 11893070
0.094719358 -0.23231095 0.76541048 11893585
0.10224338 -0.23231095 0.76541048 12090452
0.1097674 -0.23231095 0.76541048 12155989
0.11729142 -0.23231095 0.76541048 11827797
0.12481544 -0.23231095 0.76541048 12286803
0.15586647 -0.27361068 0.90148348 12221524
0 0 0 11959636
0 0 0 12024915
0 0 0 12025429
0 0 0 12221267
0 0 0 12680535
0 0 0 12025169
0.35019296 -0.43973145 1.4488127 12222033
0.36443484 -0.43973145 1.4488127 12222034
0.42411795 -0.49249923 1.6226703 12155990
0.44006887 -0.49249923 1.6226703 12354137
0.47502062 -0.51302004 1.6902815 12483925
0.49163616 -0.51302004 1.6902815 12550745
0.50825173 -0.51302004 1.6902815 12354391
0.52486724 -0.51302004 1.6902815 12420184
0.54148281 -0.51302004 1.6902815 12878682
0.63782668 -0.5863086 1.9317503 12747609
0.57471389 -0.51302004 1.6902815 12682070
0.48937607 -0.4245683 1.3988537 12944728
0.52109569 -0.43973145 1.4488127 13404252
0.53533757 -0.43973145 1.4488127 13273181
0.56993431 -0.45601782 1.5024725 13404509
0.75176179 -0.5863086 1.9317503 13535839
0.80928862 -0.61562407 2.028338 13405791
0.7897402 -0.5863086 1.9317503 13668193
0.80872941 -0.5863086 1.9317503 13668704
0.82771862 -0.5863086 1.9317503 13930595
0.84670776 -0.5863086 1.9317503 14192480
0.86569697 -0.5863086 1.9317503 13865059
0.88468617 -0.5863086 1.9317503 13996646
0.90367538 -0.5863086 1.9317503 14062438
0.92266452 -0.5863086 1.9317503 14259303
0.94165373 -0.5863086 1.9317503 14193767
0.96064293 -0.5863086 1.9317503 14259042
0.93510342 -0.55965823 1.8439435 14194022
0.87379366 -0.51302004 1.6902815 14522215
1.1247275 -0.64802527 2.1350925 14717795
1.1457155 -0.64802527 2.1350925 14785131
1.1083684 -0.61562407 2.028338 14260071
1.074578 -0.5863086 1.9317503 14522212
1.0935673 -0.5863086 1.9317503 14455651
1.1681844 -0.61562407 2.028338 14391142
1.1315457 -0.5863086 1.9317503 14062948
1.1505349 -0.5863086 1.9317503 14260071
1.1695241 -0.5863086 1.9317503 14061665
1.1885133 -0.5863086 1.9317503 13930079
1.2075025 -0.5863086 1.9317503 13931622
0.91986871 -0.43973145 1.4488127 13734244
1.3765841 -0.64802527 2.1350925 14259559
1.3975722 -0.64802527 2.1350925 13800294
1.3476323 -0.61562407 2.028338 13866342
1.0130155 -0.45601782 1.5024725 13996388
1.0277848 -0.45601782 1.5024725 13864802
1.1259586 -0.49249923 1.6226703 14061922
1.359416 -0.5863086 1.9317503 13471332
1.4473255 -0.61562407 2.028338 13537127
1.3973943 -0.5863086 1.9317503 13339748
1.0256571 -0.4245683 1.3988537 13405026
1.0394078 -0.4245683 1.3988537 13143141
0 0 0 12946017
0 0 0 13207904
0 0 0 13142367
1.5113295 -0.5863086 1.9317503 12682844
1.5303187 -0.5863086 1.9317503 13010272
1.5493079 -0.5863086 1.9317503 12682590
1.4970108 -0.55965823 1.8439435 12551516
1.515137 -0.55965823 1.8439435 12485725
1.6062754 -0.5863086 1.9317503 12551004
1.4221066 -0.51302004 1.6902815 12354398
1.6442538 -0.5863086 1.9317503 12157789
1.6632431 -0.5863086 1.9317503 12156762
0 0 0 12025691
1.7012215 -0.5863086 1.9317503 12025693
1.7202107 -0.5863086 1.9317503 12287832
1.7391998 -0.5863086 1.9317503 12157016
1.758189 -0.5863086 1.9317503 11893847
1.7771782 -0.5863086 1.9317503 11762520
1.7961674 -0.5863086 1.9317503 11828313
1.8151566 -0.5863086 1.9317503 11302230
1.8341458 -0.5863086 1.9317503 11631195
1.853135 -0.5863086 1.9317503 11498839
2.4571631 -0.76953006 2.5354223 11498839
2.4820864 -0.76953006 2.5354223 11433816
2.0056078 -0.61562407 2.028338 11367507
1.7613447 -0.53532523 1.763772 11631449
1.7045708 -0.51302004 1.6902815 11433300
1.3325315 -0.3971768 1.3086051 11302230
1.7378019 -0.51302004 1.6902815 11105364
1.7544174 -0.51302004 1.6902815 11039828
0 0 0 11235925
1.7876486 -0.51302004 1.6902815 11630427
2.165117 -0.61562407 2.028338 11433817
2.0810053 -0.5863086 1.9317503 11235921
2.3210466 -0.64802527 2.1350925 10908755
2.3420346 -0.64802527 2.1350925 10580822
0 0 0 10645587
0 0 0 10841427
0 0 0 10711124
2.3046875 -0.61562407 2.028338 10317140
2.446975 -0.64802527 2.1350925 10580312
2.467963 -0.64802527 2.1350925 10251602
2.488951 -0.64802527 2.1350925 10448979
2.5099392 -0.64802527 2.1350925 10448977
2.5309272 -0.64802527 2.1350925 10317649
2.5519152 -0.64802527 2.1350925 10252116
2.8755977 -0.72426355 2.3862798 10054738
2.899055 -0.72426355 2.3862798 10315857
0 0 0 10251601
0 0 0 10119761
0 0 0 10120272
0 0 0 9792077
0 0 0 9858126
0 0 0 10121041
0 0 0 9988173
0 0 0 9857356
0 0 0 12748382
0 0 0 13076325
-4.0346217 -0.99280894 3.380563 13208162
-4.3651533 -1.0830643 3.687887 13604458
-4.3289013 -1.0830643 3.687887 13997417
-4.2926493 -1.0830643 3.687887 14260075
-4.2563972 -1.0830643 3.687887 14260845
-4.6421599 -1.1913708 4.0566759 14194793
-4.6022825 -1.1913708 4.0566759 14325868
-4.5624051 -1.1913708 4.0566759 14391151
-4.5225282 -1.1913708 4.0566759 14588527
-4.4826508 -1.1913708 4.0566759 14194796
-4.9364147 -1.3237454 4.5074177 14654570
-4.8921065 -1.3237454 4.5074177 14588779
-4.8477983 -1.3237454 4.5074177 14260069
-4.3231416 -1.1913708 4.0566759 14195307
-3.8938763 -1.0830643 3.687887 14259817
-3.8576241 -1.0830643 3.687887 13867630
-3.821372 -1.0830643 3.687887 13733725
-3.78512 -1.0830643 3.687887 11498054
-3.7488678 -1.0830643 3.687887 10710092
-3.7126157 -1.0830643 3.687887 11893590
-3.3699999 -0.99280894 3.380563 12222037
-3.6401114 -1.0830643 3.687887 12550232
-3.6038594 -1.0830643 3.687887 12156502
-3.9243684 -1.1913708 4.0566759 12024659
-3.2370756 -0.99280894 3.380563 12484691
-4.2717929 -1.3237454 4.5074177 12091221
-4.2274847 -1.3237454 4.5074177 12352855
-4.183177 -1.3237454 4.5074177 12287317
-4.1388688 -1.3237454 4.5074177 12156502
-4.0945606 -1.3237454 4.5074177 12090966
-4.0502524 -1.3237454 4.5074177 12156761
-4.0059443 -1.3237454 4.5074177 11959383
-3.9616363 -1.3237454 4.5074177 11893844
-3.9173281 -1.3237454 4.5074177 11894101
-3.8730199 -1.3237454 4.5074177 11828048
-3.8287117 -1.3237454 4.5074177 11828050
-3.7844038 -1.3237454 4.5074177 11630669
-3.7400956 -1.3237454 4.5074177 11828306
-3.6957874 -1.3237454 4.5074177 11630675
-3.6514795 -1.3237454 4.5074177 11762261
-3.6071713 -1.3237454 4.5074177 11696469
-3.5628631 -1.3237454 4.5074177 11367503
-3.5185549 -1.3237454 4.5074177 11761486
-3.474247 -1.3237454 4.5074177 11564877
-3.4299388 -1.3237454 4.5074177 11433293
-3.0470676 -1.1913708 4.0566759 11367248
-3.0071902 -1.1913708 4.0566759 11498320
-2.9673131 -1.1913708 4.0566759 11301711
-3.2527063 -1.3237454 4.5074177 11432269
-3.2083981 -1.3237454 4.5074177 11170126
-3.1640902 -1.3237454 4.5074177 11236177
-3.5097547 -1.4892135 5.0708447 11104330
-3.459908 -1.4892135 5.0708447 11235915
-3.0311658 -1.3237454 4.5074177 11367503
-3.3602147 -1.4892135 5.0708447 11170128
-3.3103681 -1.4892135 5.0708447 11301456
-3.2605214 -1.4892135 5.0708447 11367505
-3.2106748 -1.4892135 5.0708447 11367247
-3.1608281 -1.4892135 5.0708447 11433293
-2.765317 -1.3237454 4.5074177 11236687
-2.721009 -1.3237454 4.5074177 11433298
-2.6767008 -1.3237454 4.5074177 11564111
-2.6323926 -1.3237454 4.5074177 11367503
-2.5880845 -1.3237454 4.5074177 11498318
-2.5437765 -1.3237454 4.5074177 11630929
-2.4994683 -1.3237454 4.5074177 11696978
-2.4551601 -1.3237454 4.5074177 11434320
-2.4108522 -1.3237454 4.5074177 11368018
-2.366544 -1.3237454 4.5074177 11499339
-2.3222358 -1.3237454 4.5074177 11762004
-2.2779276 -1.3237454 4.5074177 11893074
-2.2336197 -1.3237454 4.5074177 12024400
-1.9703803 -1.1913708 4.0566759 12089938
-1.930503 -1.1913708 4.0566759 12023889
-2.1006951 -1.3237454 4.5074177 11958867
-2.0563872 -1.3237454 4.5074177 11959892
-2.012079 -1.3237454 4.5074177 12418640
-1.9677709 -1.3237454 4.5074177 12287313
-1.9234627 -1.3237454 4.5074177 12221523
-1.8791547 -1.3237454 4.5074177 12353879
-1.8348465 -1.3237454 4.5074177 12419668
-1.7905384 -1.3237454 4.5074177 12549717
-1.7462304 -1.3237454 4.5074177 12090449
-1.7019222 -1.3237454 4.5074177 12287573
-1.4918526 -1.1913708 4.0566759 12091221
-1.4519753 -1.1913708 4.0566759 12549974
-1.4120981 -1.1913708 4.0566759 12417872
-1.1435173 -0.99280894 3.380563 12090706
-1.0248796 -0.91643906 3.1205199 12287574
-0.9942047 -0.91643906 3.1205199 11892560
-0.96352983 -0.91643906 3.1205199 11827281
-0.93285501 -0.91643906 3.1205199 11433293
-0.90218014 -0.91643906 3.1205199 11433039
0 0 0 11433298
0 0 0 11498316
0 0 0 11170125
0 0 0 10907464
-0.18366936 -0.22478692 0.76541048 10776137
-0.16670898 -0.21274477 0.72440636 10578246
-0.15958804 -0.21274477 0.72440636 10119234
-0.15246709 -0.21274477 0.72440636 8606772
-0.1479888 -0.21661286 0.73757738 8147511
-0.1382252 -0.21274477 0.72440636 5648676
-0.13110425 -0.21274477 0.72440636 1378059
-0.12180816 -0.20901242 0.71169752 2890265
-0.11283262 -0.20540875 0.69942683 5976358
-0.10416134 -0.20192726 0.68757218 5451047
-0.097402476 -0.20192726 0.68757218 5712934
-0.090643607 -0.20192726 0.68757218 5055776
-0.083884746 -0.20192726 0.68757218 5187875
-0.077125877 -0.20192726 0.68757218 4858656
-0.070367016 -0.20192726 0.68757218 5186849
-0.063608147 -0.20192726 0.68757218 5055006
-0.056849282 -0.20192726 0.68757218 4792861
-0.050954044 -0.20540875 0.69942683 4661018
-0.044078644 -0.20540875 0.69942683 4857883
-0.037203249 -0.20540875 0.69942683 4726553
-0.030327851 -0.20540875 0.69942683 4858395
-0.023452453 -0.20540875 0.69942683 4661017
-0.016577058 -0.20540875 0.69942683 4332568
-0.0097016599 -0.20540875 0.69942683 3544595
-0.0029804225 -0.21661286 0.73757738 2362382
0.0042699962 -0.21661286 0.73757738 1443080
0.011520416 -0.21661286 0.73757738 983559
0.019118443 -0.22062422 0.75123626 983815
0.026503129 -0.22062422 0.75123626 1180679
0.034527205 -0.22478692 0.76541048 1574665
0.042051226 -0.22478692 0.76541048 9987135
0 0 0 12549972
0 0 0 12549973
0.069898658 -0.2431369 0.82789302 12681302
0.070811249 -0.22062422 0.75123626 12484434
0.075403214 -0.21274477 0.72440636 12550486
0.085580617 -0.22062422 0.75123626 12485206
0.092965305 -0.22062422 0.75123626 12418901
0.10224338 -0.22478692 0.76541048 12353621
0.1097674 -0.22478692 0.76541048 12549204
0.11729142 -0.22478692 0.76541048 12287830
0.14700486 -0.26474905 0.90148348 12156243
0.1594089 -0.27076608 0.92197174 12419157
0 0 0 12091478
0 0 0 12418387
0 0 0 12418388
0 0 0 12222290
0 0 0 12418133
0.33595106 -0.42548954 1.4488127 12353875
0.35019296 -0.42548954 1.4488127 12419416
0.40816703 -0.47654831 1.6226703 12681816
0 0 0 12747096
0.52389151 -0.56731939 1.9317503 12746326
0.45601982 -0.47654831 1.6226703 12550743
0.47197074 -0.47654831 1.6226703 12879198
0.50825173 -0.49640447 1.6902815 12878167
0.59984827 -0.56731939 1.9317503 12813658
0.64977938 -0.59568542 2.028338 12879449
0 0 0 13272924
0 0 0 13206877
0 0 0 13076061
0.54039556 -0.44124845 1.5024725 13338973
0.53533757 -0.42548954 1.4488127 13470302
0.73277265 -0.56731939 1.9317503 13536608
0.75176179 -0.56731939 1.9317503 13405279
0.80928862 -0.59568542 2.028338 13799268
0.7897402 -0.56731939 1.9317503 13865060
0.80872941 -0.56731939 1.9317503 13930849
0.82771862 -0.56731939 1.9317503 13799009
0.84670776 -0.56731939 1.9317503 14128483
0.90898186 -0.59568542 2.028338 13734754
0.88468617 -0.56731939 1.9317503 13800032
0.90367538 -0.56731939 1.9317503 14521958
0.96879786 -0.59568542 2.028338 14259813
0.98873651 -0.59568542 2.028338 14653030
1.0086751 -0.59568542 2.028338 14258790
0.85717809 -0.49640447 1.6902815 14588264
0.87379366 -0.49640447 1.6902815 14588779
1.1247275 -0.62703723 2.1350925 14521188
1.1457155 -0.62703723 2.1350925 14587235
1.1667036 -0.62703723 2.1350925 14325864
1.1283071 -0.59568542 2.028338 14653030
1.1482457 -0.59568542 2.028338 14324837
1.1681844 -0.59568542 2.028338 14390626
1.188123 -0.59568542 2.028338 14325862
1.2080617 -0.59568542 2.028338 13997156
1.2280003 -0.59568542 2.028338 13866083
1.1885133 -0.56731939 1.9317503 14062692
1.2075025 -0.56731939 1.9317503 14128230
0.91986871 -0.42548954 1.4488127 13996640
0.96870732 -0.44124845 1.5024725 13995619
0.9834767 -0.44124845 1.5024725 13930342
1.3476323 -0.59568542 2.028338 13930596
1.0130155 -0.44124845 1.5024725 13800038
1.0277848 -0.44124845 1.5024725 13799266
1.0826524 -0.45821953 1.5602599 13602658
1.189489 -0.49640447 1.6902815 13601637
1.1133273 -0.45821953 1.5602599 13405286
1.3973943 -0.56731939 1.9317503 13143138
1.8590034 -0.74460673 2.5354223 13404765
1.8839267 -0.74460673 2.5354223 13011809
0 0 0 13011553
0 0 0 13272670
0 0 0 12814686
1.5868961 -0.59568542 2.028338 12879197
1.5303187 -0.56731939 1.9317503 12749153
1.5493079 -0.56731939 1.9317503 13010272
1.3173696 -0.47654831 1.6226703 12485723
1.3888755 -0.49640447 1.6902815 12157791
1.6062754 -0.56731939 1.9317503 12420704
1.6252646 -0.56731939 1.9317503 12617311
1.6442538 -0.56731939 1.9317503 12354395
1.7464054 -0.59568542 2.028338 12091739
0 0 0 11959640
0 0 0 12155992
1.8062212 -0.59568542 2.028338 12418652
1.7391998 -0.56731939 1.9317503 11763033
1.758189 -0.56731939 1.9317503 11959389
1.6963974 -0.54153216 1.8439435 11828314
1.5716465 -0.49640447 1.6902815 11302997
1.588262 -0.49640447 1.6902815 11566169
1.6746548 -0.51798725 1.763772 11435355
1.853135 -0.56731939 1.9317503 11302995
0 0 0 11630679
0 0 0 11762011
2.0056078 -0.59568542 2.028338 11368277
1.2659665 -0.37230337 1.2677112 11434840
1.2784282 -0.37230337 1.2677112 11171154
1.7960205 -0.51798725 1.763772 11236948
1.8133585 -0.51798725 1.763772 11236950
1.8306965 -0.51798725 1.763772 11236950
2.0240376 -0.56731939 1.9317503 10974035
2.1451783 -0.59568542 2.028338 10908500
2.165117 -0.59568542 2.028338 10973524
2.1850557 -0.59568542 2.028338 10842707
2.2049944 -0.59568542 2.028338 10842708
2.2249329 -0.59568542 2.028338 10907990
2.3630228 -0.62703723 2.1350925 10579538
0 0 0 10449492
2.53861 -0.66187268 2.2537088 10449236
2.4259868 -0.62703723 2.1350925 10579796
2.446975 -0.62703723 2.1350925 10317389
2.467963 -0.62703723 2.1350925 10645585
2.488951 -0.62703723 2.1350925 10382413
2.5099392 -0.62703723 2.1350925 10710354
2.5309272 -0.62703723 2.1350925 10578257
2.5519152 -0.62703723 2.1350925 10316111
2.8755977 -0.70080632 2.3862798 10382161
2.899055 -0.70080632 2.3862798 10448209
0 0 0 10054479
0 0 0 10054479
0 0 0 10054481
0 0 0 9988688
0 0 0 9922895
0 0 0 10120018
0 0 0 10185554
0 0 0 10120272
0 0 0 12617824
0 0 0 13012323
-3.7242663 -0.88576424 3.1205199 13142881
-4.0013905 -0.95957786 3.380563 13669223
-4.3289013 -1.0468122 3.687887 13932138
-4.2926493 -1.0468122 3.687887 14062441
-4.2563972 -1.0468122 3.687887 14326128
-4.2201452 -1.0468122 3.687887 14129001
-4.1838932 -1.0468122 3.687887 14129516
-4.1476407 -1.0468122 3.687887 14324842
-4.1113887 -1.0468122 3.687887 14390887
-4.4826508 -1.1514935 4.0566759 14194793
-4.9364147 -1.2794372 4.5074177 14325610
-4.8921065 -1.2794372 4.5074177 14063206
-4.3630185 -1.1514935 4.0566759 14194278
-4.3231416 -1.1514935 4.0566759 14392172
-3.8938763 -1.0468122 3.687887 14062694
-3.8576241 -1.0468122 3.687887 14128743
-3.821372 -1.0468122 3.687887 13996127
-4.1636324 -1.1514935 4.0566759 11761481
-4.123755 -1.1514935 4.0566759 10709574
-4.0838776 -1.1514935 4.0566759 10711117
-3.3699999 -0.95957786 3.380563 12222296
-3.3367689 -0.95957786 3.380563 12354136
-3.3035378 -0.95957786 3.380563 12352853
-3.2703068 -0.95957786 3.380563 12354393
-3.2370756 -0.95957786 3.380563 12353623
-3.2038445 -0.95957786 3.380563 12485207
-3.1706135 -0.95957786 3.380563 12222551
-3.1373823 -0.95957786 3.380563 12091223
-4.1388688 -1.2794372 4.5074177 12090453
-4.0945606 -1.2794372 4.5074177 12221782
-4.0502524 -1.2794372 4.5074177 12221782
-4.0059443 -1.2794372 4.5074177 12287829
-3.9616363 -1.2794372 4.5074177 12090193
-3.9173281 -1.2794372 4.5074177 11894098
-3.8730199 -1.2794372 4.5074177 11958863
-3.8287117 -1.2794372 4.5074177 11893842
-3.7844038 -1.2794372 4.5074177 12024146
-3.7400956 -1.2794372 4.5074177 11958865
-3.6957874 -1.2794372 4.5074177 12221267
-3.6514795 -1.2794372 4.5074177 11959378
-3.6071713 -1.2794372 4.5074177 11828054
-3.5628631 -1.2794372 4.5074177 11499346
-3.5185549 -1.2794372 4.5074177 11565652
-3.1268222 -1.1514935 4.0566759 11564882
-3.4299388 -1.2794372 4.5074177 11433295
-3.0470676 -1.1514935 4.0566759 11433298
-3.0071902 -1.1514935 4.0566759 11498832
-2.9673131 -1.1514935 4.0566759 11433296
-2.9274356 -1.1514935 4.0566759 11630159
-3.2083981 -1.2794372 4.5074177 11433039
-3.1640902 -1.2794372 4.5074177 11367503
-3.119782 -1.2794372 4.5074177 11826771
-3.0754738 -1.2794372 4.5074177 11498832
-3.0311658 -1.2794372 4.5074177 11301968
-2.9868577 -1.2794372 4.5074177 11761234
-3.3103681 -1.4393668 5.0708447 11434066
-3.2605214 -1.4393668 5.0708447 11694926
-2.8539333 -1.2794372 4.5074177 11302736
-2.8096251 -1.2794372 4.5074177 11367503
-2.765317 -1.2794372 4.5074177 11695441
-2.721009 -1.2794372 4.5074177 11760974
-2.6767008 -1.2794372 4.5074177 11695693
-2.6323926 -1.2794372 4.5074177 11630417
-2.5880845 -1.2794372 4.5074177 11827538
-2.5437765 -1.2794372 4.5074177 11762258
-2.4994683 -1.2794372 4.5074177 11762002
-2.4551601 -1.2794372 4.5074177 11630418
-2.4108522 -1.2794372 4.5074177 12024658
-2.366544 -1.2794372 4.5074177 12089681
-2.3222358 -1.2794372 4.5074177 11893332
-2.2779276 -1.2794372 4.5074177 12024146
-1.1825044 -0.67734909 2.3862798 11959635
-1.6419835 -0.95957786 3.380563 12025427
-1.930503 -1.1514935 4.0566759 12091221
-2.1006951 -1.2794372 4.5074177 12418644
-2.0563872 -1.2794372 4.5074177 12746837
-2.012079 -1.2794372 4.5074177 12091220
-1.9677709 -1.2794372 4.5074177 12747351
-1.9234627 -1.2794372 4.5074177 12550487
-1.8791547 -1.2794372 4.5074177 12549717
-1.8348465 -1.2794372 4.5074177 12877912
-1.7905384 -1.2794372 4.5074177 12681816
-1.3096726 -0.95957786 3.380563 12681815
-1.3924817 -1.0468122 3.687887 12944987
-1.3562297 -1.0468122 3.687887 12550998
-1.3199775 -1.0468122 3.687887 12746835
-1.2837254 -1.0468122 3.687887 12943188
-1.0555544 -0.88576424 3.1205199 12549712
-0.95167381 -0.82249528 2.8976254 12746325
-0.92319 -0.82249528 2.8976254 12418644
-0.96352983 -0.88576424 3.1205199 12548944
-0.93285501 -0.88576424 3.1205199 12351822
0 0 0 11761486
0 0 0 11958865
0 0 0 11498574
0 0 0 11433037
0 0 0 11170121
-0.18366936 -0.21726291 0.76541048 10973516
-0.16974005 -0.20936243 0.73757738 10579016
-0.15958804 -0.20562382 0.72440636 10709575
-0.15246709 -0.20562382 0.72440636 9921344
-0.1479888 -0.20936243 0.73757738 8738106
-0.1382252 -0.20562382 0.72440636 4595988
-0.13110425 -0.20562382 0.72440636 1509645
-0.1239833 -0.20562382 0.72440636 3086874
-0.11481214 -0.2020164 0.71169752 5844772
-0.10595722 -0.19853336 0.69942683 5385252
-0.097402476 -0.19516839 0.68757218 5122342
-0.090643607 -0.19516839 0.68757218 5319461
-0.083884746 -0.19516839 0.68757218 5647142
-0.077125877 -0.19516839 0.68757218 5318690
-0.070367016 -0.19516839 0.68757218 4989984
-0.063608147 -0.19516839 0.68757218 4858653
-0.056849282 -0.19516839 0.68757218 5055518
-0.050090417 -0.19516839 0.68757218 4989981
-0.043331552 -0.19516839 0.68757218 4990236
-0.036572687 -0.19516839 0.68757218 4596252
-0.029813822 -0.19516839 0.68757218 4464409
-0.023452453 -0.19853336 0.69942683 3938325
-0.016577058 -0.19853336 0.69942683 3806996
-0.0097016599 -0.19853336 0.69942683 3873299
-0.0029272006 -0.20562382 0.72440636 3873304
0.0042699962 -0.20936243 0.73757738 1836811
0.011520416 -0.20936243 0.73757738 1114888
0.018770834 -0.20936243 0.73757738 852487
0.026503129 -0.21323954 0.75123626 1115658
0.034527205 -0.21726291 0.76541048 1114885
0.042051226 -0.21726291 0.76541048 7949363
0 0 0 12812373
0 0 0 13011035
0 0 0 12812628
0.070811249 -0.21323954 0.75123626 12746836
0.07819593 -0.21323954 0.75123626 13075545
0.085580617 -0.21323954 0.75123626 12878424
0.094719358 -0.21726291 0.76541048 12485461
0.10224338 -0.21726291 0.76541048 12681819
0.1097674 -0.21726291 0.76541048 12418902
0.13814323 -0.25588742 0.90148348 12221778
0.14700486 -0.25588742 0.90148348 12550741
0.15586647 -0.25588742 0.90148348 12352339
0 0 0 12287059
0 0 0 12353624
0 0 0 12484953
0 0 0 12682070
0.31061575 -0.39706671 1.3988537 12681818
0 0 0 12222035
0 0 0 12681816
0 0 0 12222805
0 0 0 12682070
0.44006887 -0.4605974 1.6226703 12813400
0.40716052 -0.41124764 1.4488127 12616280
0.42140242 -0.41124764 1.4488127 12681817
0.43564433 -0.41124764 1.4488127 12813144
0 0 0 13076318
0 0 0 13338720
0 0 0 13207901
0 0 0 13600092
0 0 0 13470298
0 0 0 13338716
0.71378344 -0.54833019 1.9317503 13471326
0.73277265 -0.54833019 1.9317503 13799264
0.75176179 -0.54833019 1.9317503 13930596
0.80928862 -0.57574677 2.028338 13799267
0.7897402 -0.54833019 1.9317503 13602656
0.80872941 -0.54833019 1.9317503 14259042
0.82771862 -0.54833019 1.9317503 14259814
0.84670776 -0.54833019 1.9317503 14062438
0.90898186 -0.57574677 2.028338 14194021
0.92892057 -0.57574677 2.028338 14259812
0.94885921 -0.57574677 2.028338 14456165
0.96879786 -0.57574677 2.028338 14325608
0.98873651 -0.57574677 2.028338 14653033
0.91697735 -0.52340609 1.8439435 14587237
0.93510342 -0.52340609 1.8439435 14259557
0.87379366 -0.47978893 1.6902815 14456936
1.0176105 -0.54833019 1.9317503 14391398
1.1457155 -0.60604918 2.1350925 14391140
1.1667036 -0.60604918 2.1350925 14128485
1.1283071 -0.57574677 2.028338 14390630
1.1482457 -0.57574677 2.028338 14390371
1.1681844 -0.57574677 2.028338 14194024
1.188123 -0.57574677 2.028338 14456420
1.2080617 -0.57574677 2.028338 14193251
0.9446156 -0.44288212 1.5602599 14325095
0.92439926 -0.42647907 1.5024725 14127971
0.93916857 -0.42647907 1.5024725 14324322
0.91986871 -0.41124764 1.4488127 13931106
0.93411064 -0.41124764 1.4488127 13865056
1.3276936 -0.57574677 2.028338 13996647
1.3476323 -0.57574677 2.028338 13799009
0.78146905 -0.32899815 1.1590502 13668194
0.81618208 -0.33867455 1.1931399 13930854
1.0053201 -0.41124764 1.4488127 13667428
1.019562 -0.41124764 1.4488127 13537127
1.0338038 -0.41124764 1.4488127 12880996
1.0480458 -0.41124764 1.4488127 12880735
1.2393357 -0.47978893 1.6902815 13602912
1.8839267 -0.71968341 2.5354223 13273692
0 0 0 12880735
0 0 0 13273694
0 0 0 12813915
1.5868961 -0.57574677 2.028338 12683360
1.5303187 -0.54833019 1.9317503 12682591
1.2050173 -0.42647907 1.5024725 12552032
1.1762228 -0.41124764 1.4488127 12616543
1.3888755 -0.47978893 1.6902815 12878945
1.6062754 -0.54833019 1.9317503 12288607
1.7065281 -0.57574677 2.028338 12616541
1.7264667 -0.57574677 2.028338 12156763
1.7464054 -0.57574677 2.028338 11960157
1.766344 -0.57574677 2.028338 12353631
1.7862827 -0.57574677 2.028338 12222559
1.8062212 -0.57574677 2.028338 12550239
1.7391998 -0.54833019 1.9317503 12091228
1.6782713 -0.52340609 1.8439435 11893850
1.5550309 -0.47978893 1.6902815 11697242
1.5087806 -0.4605974 1.6226703 11696728
1.5247315 -0.4605974 1.6226703 11893851
1.2036582 -0.3598417 1.2677112 11566169
1.6214931 -0.47978893 1.6902815 11763033
1.7093308 -0.50064933 1.763772 11564628
2.4820864 -0.71968341 2.5354223 11500119
2.0056078 -0.57574677 2.028338 11303252
1.9290917 -0.54833019 1.9317503 11237716
1.9480809 -0.54833019 1.9317503 11171926
2.0654237 -0.57574677 2.028338 11171668
2.0853624 -0.57574677 2.028338 11105878
1.8306965 -0.50064933 1.763772 10842964
1.8480344 -0.50064933 1.763772 10908499
2.0430269 -0.54833019 1.9317503 10777170
2.165117 -0.57574677 2.028338 10842451
2.3000586 -0.60604918 2.1350925 10907989
2.2049944 -0.57574677 2.028338 10710867
2.2249329 -0.57574677 2.028338 10776659
2.2448716 -0.57574677 2.028338 10776659
2.2648103 -0.57574677 2.028338 10644818
2.53861 -0.63971859 2.2537088 10644817
2.5607641 -0.63971859 2.2537088 10710865
2.446975 -0.60604918 2.1350925 10382929
2.467963 -0.60604918 2.1350925 10252372
2.488951 -0.60604918 2.1350925 10317138
2.5099392 -0.60604918 2.1350925 10251347
2.5309272 -0.60604918 2.1350925 10644563
2.5519152 -0.60604918 2.1350925 10382931
2.8755977 -0.67734909 2.3862798 10185810
2.899055 -0.67734909 2.3862798 10251859
0 0 0 10054736
0 0 0 9988945
0 0 0 10185813
0 0 0 10382161
0 0 0 10250577
0 0 0 10119759
0 0 0 10185038
0 0 0 10315596
0 0 0 12682584
0 0 0 12683357
-3.4582472 -0.79401153 2.8976254 13143397
-3.6935916 -0.85508937 3.1205199 13603434
-3.9681594 -0.92634678 3.380563 13865833
-4.2926493 -1.0105602 3.687887 13670251
-4.2563972 -1.0105602 3.687887 13668966
-4.2201452 -1.0105602 3.687887 13865831
-4.1838932 -1.0105602 3.687887 13997930
-3.8020041 -0.92634678 3.380563 14259308
-4.1113887 -1.0105602 3.687887 13996645
-4.4826508 -1.1116163 4.0566759 13997415
-4.4427733 -1.1116163 4.0566759 14194023
-4.4028959 -1.1116163 4.0566759 14194026
-4.3630185 -1.1116163 4.0566759 14194280
-4.3231416 -1.1116163 4.0566759 14062949
-4.2832642 -1.1116163 4.0566759 14063719
-4.2433867 -1.1116163 4.0566759 14128741
-3.821372 -1.0105602 3.687887 13865056
-4.1636324 -1.1116163 4.0566759 12090190
-4.123755 -1.1116163 4.0566759 10381380
-4.0838776 -1.1116163 4.0566759 10381641
-3.3699999 -0.92634678 3.380563 12024921
-3.3367689 -0.92634678 3.380563 12418904
-3.3035378 -0.92634678 3.380563 12287831
-3.2703068 -0.92634678 3.380563 12353108
-2.98807 -0.85508937 3.1205199 12485207
-3.2038445 -0.92634678 3.380563 12354134
-2.7176688 -0.79401153 2.8976254 12485209
-2.6891849 -0.79401153 2.8976254 12485211
-3.1041512 -0.92634678 3.380563 12483924
-4.0945606 -1.2351291 4.5074177 12288598
-4.0502524 -1.2351291 4.5074177 12156243
-4.0059443 -1.2351291 4.5074177 12222292
-2.7426713 -0.85508937 3.1205199 12221779
-3.5255952 -1.1116163 4.0566759 12155731
-3.8730199 -1.2351291 4.5074177 12090453
-3.8287117 -1.2351291 4.5074177 11827797
-3.7844038 -1.2351291 4.5074177 12090456
-3.7400956 -1.2351291 4.5074177 12024404
-3.6957874 -1.2351291 4.5074177 12090451
-3.2863314 -1.1116163 4.0566759 12351568
-2.9513218 -1.0105602 3.687887 12023888
-2.9150696 -1.0105602 3.687887 11762001
-2.8788176 -1.0105602 3.687887 11565396
-3.1268222 -1.1116163 4.0566759 11433810
-3.0869448 -1.1116163 4.0566759 11434068
-3.0470676 -1.1116163 4.0566759 11630162
-3.0071902 -1.1116163 4.0566759 11564879
-2.9673131 -1.1116163 4.0566759 11433550
-2.9274356 -1.1116163 4.0566759 11564623
-3.2083981 -1.2351291 4.5074177 11499086
-3.1640902 -1.2351291 4.5074177 11630672
-3.119782 -1.2351291 4.5074177 11302224
-3.0754738 -1.2351291 4.5074177 11564625
-3.0311658 -1.2351291 4.5074177 11696465
-3.3602147 -1.3895202 5.0708447 11564370
-3.3103681 -1.3895202 5.0708447 11368273
-3.2605214 -1.3895202 5.0708447 11367503
-2.8539333 -1.2351291 4.5074177 11499086
-2.8096251 -1.2351291 4.5074177 11565651
-2.765317 -1.2351291 4.5074177 11630675
-2.721009 -1.2351291 4.5074177 11629900
-2.6767008 -1.2351291 4.5074177 11893587
-2.6323926 -1.2351291 4.5074177 11893073
-2.5880845 -1.2351291 4.5074177 11695441
-2.5437765 -1.2351291 4.5074177 12090450
-2.4994683 -1.2351291 4.5074177 11762515
-1.6997262 -0.85508937 3.1205199 12156244
-1.1419826 -0.58506113 2.1350925 12155731
-1.0649447 -0.55580813 2.028338 11959379
-1.2294189 -0.65389186 2.3862798 12090707
-1.2059617 -0.65389186 2.3862798 12549971
-1.1825044 -0.65389186 2.3862798 12614740
-1.4074144 -0.79401153 2.8976254 12549717
-1.930503 -1.1116163 4.0566759 12680530
-2.1006951 -1.2351291 4.5074177 12945240
-2.0563872 -1.2351291 4.5074177 12551000
-2.012079 -1.2351291 4.5074177 12419673
-1.9677709 -1.2351291 4.5074177 13075545
-1.9234627 -1.2351291 4.5074177 13076313
-1.8791547 -1.2351291 4.5074177 13141851
-1.8348465 -1.2351291 4.5074177 13141590
-1.3429037 -0.92634678 3.380563 13075543
-1.3096726 -0.92634678 3.380563 13403736
-1.2764416 -0.92634678 3.380563 13207131
-1.2432104 -0.92634678 3.380563 13142361
-1.1169041 -0.85508937 3.1205199 13272919
-1.0862292 -0.85508937 3.1205199 12945240
-0.98015761 -0.79401153 2.8976254 12814677
-0.7837314 -0.65389186 2.3862798 12748374
-0.64623308 -0.55580813 2.028338 12551000
-0.73681694 -0.65389186 2.3862798 12812371
-0.67372864 -0.61756456 2.2537088 12418644
0 0 0 12090450
0 0 0 12155727
0 0 0 12090449
0 0 0 11762257
-0.21110936 -0.23158669 0.84514076 11564363
-0.19866279 -0.22686045 0.82789302 10972747
-0.17288339 -0.20585485 0.75123626 10972747
-0.15958804 -0.19850288 0.72440636 10776138
-0.15246709 -0.19850288 0.72440636 10251079
-0.1479888 -0.20211202 0.73757738 9724483
-0.1382252 -0.19850288 0.72440636 3086349
-0.13110425 -0.19850288 0.72440636 1837838
-0.1239833 -0.19850288 0.72440636 2494483
-0.11481214 -0.19502038 0.71169752 6041897
-0.10595722 -0.19165795 0.69942683 5844520
-0.099081822 -0.19165795 0.69942683 5713962
-0.090643607 -0.18840952 0.68757218 5450791
-0.083884746 -0.18840952 0.68757218 5319206
-0.077125877 -0.18840952 0.68757218 4990241
-0.070367016 -0.18840952 0.68757218 4989471
-0.063608147 -0.18840952 0.68757218 4793375
-0.056849282 -0.18840952 0.68757218 4727068
-0.050090417 -0.18840952 0.68757218 4529687
-0.043331552 -0.18840952 0.68757218 3741457
-0.036572687 -0.18840952 0.68757218 2098950
-0.029813822 -0.18840952 0.68757218 1573892
-0.023054956 -0.18840952 0.68757218 1903116
-0.016577058 -0.19165795 0.69942683 2560275
-0.0097016599 -0.19165795 0.69942683 2822417
-0.0028758463 -0.19502038 0.71169752 4004631
0.0041937465 -0.19850288 0.72440636 3414552
0.011520416 -0.20211202 0.73757738 1640718
0.018770834 -0.20211202 0.73757738 918536
0.026503129 -0.20585485 0.75123626 1312266
0.034527205 -0.2097389 0.76541048 1706252
0.042051226 -0.2097389 0.76541048 8410431
0 0 0 13009750
0 0 0 13206872
0 0 0 13206873
0.073534757 -0.21377234 0.78012997 12944472
0.079671323 -0.2097389 0.76541048 13075545
0.087195344 -0.2097389 0.76541048 13141079
0.094719358 -0.2097389 0.76541048 13010523
0.10224338 -0.2097389 0.76541048 12878424
0.12928161 -0.2470258 0.90148348 12484693
0.14128286 -0.25264004 0.92197174 12681046
0.15034588 -0.25264004 0.92197174 12484951
0.1594089 -0.25264004 0.92197174 12616791
0.16847192 -0.25264004 0.92197174 12484950
0.19052531 -0.27112588 0.98943311 12419413
0.20025147 -0.27112588 0.98943311 12616279
0.20997766 -0.27112588 0.98943311 12746839
0 0 0 12485720
0 0 0 12484954
0 0 0 12615514
0 0 0 12550230
0 0 0 12747350
0.39291865 -0.39700577 1.4488127 12420186
0.38001648 -0.37053871 1.3522252 12814172
0.36872712 -0.34738004 1.2677112 12813913
0.42062211 -0.38331589 1.3988537 12878678
0.48449287 -0.42754468 1.5602599 12814172
0.49983031 -0.42754468 1.5602599 13404252
0 0 0 13142367
0 0 0 13077346
0 0 0 13600860
0 0 0 13733470
0.71378344 -0.52934104 1.9317503 13602655
0.73277265 -0.52934104 1.9317503 13865314
0.75176179 -0.52934104 1.9317503 13602911
0.770751 -0.52934104 1.9317503 13864290
0.7897402 -0.52934104 1.9317503 13668193
0.80872941 -0.52934104 1.9317503 14062437
0.82771862 -0.52934104 1.9317503 14127456
0.84670776 -0.52934104 1.9317503 14194017
0.72718549 -0.44464645 1.6226703 14193251
0.74313641 -0.44464645 1.6226703 14324834
0.90367538 -0.52934104 1.9317503 14324065
0.92266452 -0.52934104 1.9317503 14456423
0.94165373 -0.52934104 1.9317503 14588009
0.96064293 -0.52934104 1.9317503 14587496
0.93510342 -0.50528008 1.8439435 14260839
0.95322943 -0.50528008 1.8439435 14326120
0.9713555 -0.50528008 1.8439435 14522984
1.0884298 -0.55580813 2.028338 14194278
1.1083684 -0.55580813 2.028338 14194022
1.1283071 -0.55580813 2.028338 14586982
1.1482457 -0.55580813 2.028338 14587753
1.1681844 -0.55580813 2.028338 14193767
1.188123 -0.55580813 2.028338 14456423
0.89486051 -0.4117097 1.5024725 14259814
0.87714303 -0.39700577 1.4488127 14194278
0.89138496 -0.39700577 1.4488127 13865059
0.90562683 -0.39700577 1.4488127 14259300
0.88814908 -0.38331589 1.3988537 13931620
0.93411064 -0.39700577 1.4488127 13865059
0.91565067 -0.38331589 1.3988537 13996645
0.96259439 -0.39700577 1.4488127 13995361
0.75976163 -0.30878228 1.1268544 13799268
0.9910782 -0.39700577 1.4488127 13733477
1.0425543 -0.4117097 1.5024725 13471589
1.0573236 -0.4117097 1.5024725 13930855
0.85136789 -0.32694593 1.1931399 13798241
0.86309654 -0.32694593 1.1931399 13339746
0.87482512 -0.32694593 1.1931399 13274464
0.91341901 -0.33685336 1.2292956 13273694
0.95442504 -0.34738004 1.2677112 12879966
1.0313457 -0.37053871 1.3522252 12945503
0 0 0 12814174
1.5113295 -0.52934104 1.9317503 12879195
1.1902479 -0.4117097 1.5024725 12879198
1.1619809 -0.39700577 1.4488127 12747872
1.1762228 -0.39700577 1.4488127 12551006
1.3333205 -0.44464645 1.6226703 12550491
1.6865894 -0.55580813 2.028338 12484957
0 0 0 12090971
1.7264667 -0.55580813 2.028338 12354652
1.7464054 -0.55580813 2.028338 11960664
1.766344 -0.55580813 2.028338 12025435
1.7862827 -0.55580813 2.028338 12090973
1.7202107 -0.52934104 1.9317503 12222043
1.6601453 -0.50528008 1.8439435 11762778
1.5384154 -0.46317339 1.6902815 11499861
1.1309315 -0.33685336 1.2292956 11696988
1.1093975 -0.32694593 1.1931399 11631450
1.1550996 -0.33685336 1.2292956 11631706
1.1671836 -0.33685336 1.2292956 11631449
1.3419253 -0.38331589 1.3988537 11762263
1.3556761 -0.38331589 1.3988537 11564886
1.2410432 -0.34738004 1.2677112 11236691
1.2535049 -0.34738004 1.2677112 11237204
1.9290917 -0.52934104 1.9317503 11039827
0 0 0 10974293
