# .PCD v0.7 - Point Cloud Data file format
VERSION 0.7
FIELDS x y z rgb
SIZE 4 4 4 4
TYPE F F F U
COUNT 1 1 1 1
WIDTH 1320
HEIGHT 1
VIEWPOINT 0 0 0 1 0 0 0
POINTS 1320
DATA ascii
1.2834592 0.1542699 1.9317503 7361611
1.3024484 0.1542699 1.9317503 3544598
1.3214376 0.1542699 1.9317503 2888471
1.3404268 0.1542699 1.9317503 720903
1.359416 0.1542699 1.9317503 655624
1.3784052 0.1542699 1.9317503 720903
1.3973943 0.1542699 1.9317503 720903
1.2932198 0.14085513 1.763772 655623
1.2559512 0.13498616 1.6902815 786696
1.2725667 0.13498616 1.6902815 721159
1.3452337 0.14085513 1.763772 786696
1.4923403 0.1542699 1.9317503 918282
1.5113295 0.1542699 1.9317503 786697
1.4607588 0.14725764 1.8439435 852489
1.4788848 0.14725764 1.8439435 721675
1.37226 0.13498616 1.6902815 786954
1.3888755 0.13498616 1.6902815 786954
1.4665993 0.14085513 1.763772 918025
1.4839373 0.14085513 1.763772 852489
1.5695151 0.14725764 1.8439435 721673
1.6632431 0.1542699 1.9317503 787468
1.6822323 0.1542699 1.9317503 786953
1.429026 0.12958673 1.6226703 721675
1.6420193 0.14725764 1.8439435 852491
1.6601453 0.14725764 1.8439435 852489
1.5384154 0.13498616 1.6902815 852489
1.5550309 0.13498616 1.6902815 721673
1.5716465 0.13498616 1.6902815 787720
1.8151566 0.1542699 1.9317503 787466
2.4073164 0.20247926 2.5354223 721673
2.4322398 0.20247926 2.5354223 852489
2.312624 0.19056872 2.3862798 787466
1.8051536 0.14725764 1.8439435 852489
1.9101025 0.1542699 1.9317503 918282
1.8414057 0.14725764 1.8439435 655881
1.7786826 0.14085513 1.763772 852744
1.7211864 0.13498616 1.6902815 984330
1.7378019 0.13498616 1.6902815 984075
1.7544174 0.13498616 1.6902815 1049609
1.7710329 0.13498616 1.6902815 1049353
1.7876486 0.13498616 1.6902815 1378059
1.7320936 0.12958673 1.6226703 1838610
1.8208796 0.13498616 1.6902815 1312270
1.9173863 0.14085513 1.763772 1969422
1.9347242 0.14085513 1.763772 6701612
2.0407922 0.14725764 1.8439435 7949365
2.1569622 0.1542699 1.9317503 8409402
2.4049988 0.17050885 2.1350925 8343866
2.4259868 0.17050885 2.1350925 8936259
2.3246262 0.16198342 2.028338 9067586
2.1314225 0.14725764 1.8439435 9395779
2.2519081 0.1542699 1.9317503 9921608
2.2708972 0.1542699 1.9317503 10119241
2.1858006 0.14725764 1.8439435 10053196
2.2039268 0.14725764 1.8439435 9462090
2.3278649 0.1542699 1.9317503 9527880
2.4641969 0.16198342 2.028338 9264711
0 0 0 9198919
0 0 0 9461834
0 0 0 9856332
0 0 0 9528394
0 0 0 9724745
0 0 0 9789513
0 0 0 9724233
0 0 0 9593417
0 0 0 4662295
0 0 0 1312264
-4.0346217 0.30320343 3.380563 1443855
-4.3651533 0.33076736 3.687887 1312524
-4.3289013 0.33076736 3.687887 2626582
-3.9349284 0.30320343 3.380563 3414296
-3.9016974 0.30320343 3.380563 3480085
-3.8684664 0.30320343 3.380563 3283222
-3.8352351 0.30320343 3.380563 3545878
-3.8020041 0.30320343 3.380563 3480603
-3.7687731 0.30320343 3.380563 3479831
-4.0751367 0.33076736 3.687887 3545111
-4.0388846 0.33076736 3.687887 3611417
-4.4028959 0.36384413 4.0566759 3610904
-4.3630185 0.36384413 4.0566759 3611159
-4.3231416 0.36384413 4.0566759 3545365
-4.7591825 0.40427125 4.5074177 3479829
-4.7148743 0.40427125 4.5074177 3479829
-4.6705661 0.40427125 4.5074177 3545621
-4.1636324 0.36384413 4.0566759 3414036
-4.123755 0.36384413 4.0566759 2559759
-4.0838776 0.36384413 4.0566759 1246474
-4.4933338 0.40427125 4.5074177 1115658
-4.4490256 0.40427125 4.5074177 2167059
-4.4047174 0.40427125 4.5074177 983302
-4.3604093 0.40427125 4.5074177 786696
-4.8556137 0.45480514 5.0708447 786696
-4.8057671 0.45480514 5.0708447 720905
-4.2274847 0.40427125 4.5074177 655882
-4.183177 0.40427125 4.5074177 721675
-4.1388688 0.40427125 4.5074177 918284
-4.0945606 0.40427125 4.5074177 787466
-4.0502524 0.40427125 4.5074177 852489
-4.0059443 0.40427125 4.5074177 918282
-3.5654726 0.36384413 4.0566759 918282
-3.5255952 0.36384413 4.0566759 984075
-3.8730199 0.40427125 4.5074177 984329
-3.8287117 0.40427125 4.5074177 1115146
-3.4059634 0.36384413 4.0566759 852231
-3.366086 0.36384413 4.0566759 721418
-3.3262088 0.36384413 4.0566759 655626
-3.2863314 0.36384413 4.0566759 721162
-3.2464542 0.36384413 4.0566759 786696
-3.2065768 0.36384413 4.0566759 984074
-3.5185549 0.40427125 4.5074177 1246475
-3.474247 0.40427125 4.5074177 1115145
-3.4299388 0.40427125 4.5074177 918282
-3.3856306 0.40427125 4.5074177 918537
-3.7589877 0.45480514 5.0708447 1049352
-3.709141 0.45480514 5.0708447 918282
-3.6592944 0.45480514 5.0708447 983817
-3.6094477 0.45480514 5.0708447 983559
-3.1640902 0.40427125 4.5074177 983559
-3.119782 0.40427125 4.5074177 983560
-3.0754738 0.40427125 4.5074177 1049098
-3.4100614 0.45480514 5.0708447 852489
-3.3602147 0.45480514 5.0708447 787466
-2.9425495 0.40427125 4.5074177 655880
-2.8982413 0.40427125 4.5074177 786696
-2.8539333 0.40427125 4.5074177 852489
-2.8096251 0.40427125 4.5074177 786953
-2.765317 0.40427125 4.5074177 787468
-2.721009 0.40427125 4.5074177 2823192
-3.0112882 0.45480514 5.0708447 4266784
-2.9614415 0.45480514 5.0708447 8607038
-3.3275371 0.5197773 5.7952509 9723972
-2.8617485 0.45480514 5.0708447 9921344
-2.8119018 0.45480514 5.0708447 9855551
-2.7620552 0.45480514 5.0708447 9789758
-2.4108522 0.40427125 4.5074177 9921088
0 0 0 9986624
0 0 0 9987137
0 0 0 7685418
0 0 0 2364958
0 0 0 6174253
-0.20321083 0.038299382 0.42701849 5780011
-0.19901322 0.038299382 0.42701849 5056035
-0.19481561 0.038299382 0.42701849 4530205
-0.19264585 0.03870682 0.43156123 4661791
-0.18840358 0.03870682 0.43156123 4661791
-0.18816483 0.039548274 0.440943 4464152
-0.18585044 0.03998287 0.44578853 4135707
-0.18554626 0.040881362 0.45580626 3938840
-0.18106568 0.040881362 0.45580626 3872790
-0.17658508 0.040881362 0.45580626 4004119
-0.17019221 0.040427122 0.45074174 4135192
-0.16393985 0.03998287 0.44578853 3938327
-0.16133058 0.040427122 0.45074174 3675668
-0.15689978 0.040427122 0.45074174 2953488
-0.15246896 0.040427122 0.45074174 1903376
-0.14970151 0.040881362 0.45580626 918282
-0.15028675 0.042307455 0.47170648 721417
-0.14911771 0.043314774 0.48293757 786698
0 0 0 655882
0 0 0 787468
-0.14713725 0.04725248 0.52684098 721674
-0.13663495 0.045480516 0.50708449 655881
-0.13165028 0.045480516 0.50708449 590089
-0.12666562 0.045480516 0.50708449 590089
-0.12168096 0.045480516 0.50708449 720903
-0.1166963 0.045480516 0.50708449 720905
-0.11171164 0.045480516 0.50708449 590089
-0.10672697 0.045480516 0.50708449 720905
-0.10048622 0.044919025 0.50082415 655882
-0.093260378 0.043836642 0.48875612 720903
-0.090639971 0.044919025 0.50082415 655368
0 0 0 393479
0 0 0 458759
0 0 0 524296
-0.083286174 0.05273103 0.587924 590089
-0.073259905 0.049841661 0.555709 720905
-0.065121047 0.047874227 0.53377312 589835
-0.062334612 0.049841661 0.555709 524296
-0.057661861 0.050533906 0.56342721 720903
-0.043638147 0.042307455 0.47170648 590089
-0.039001253 0.042307455 0.47170648 655368
-0.034364354 0.042307455 0.47170648 655367
-0.035507802 0.050533906 0.56342721 655625
0 0 0 720903
0 0 0 852232
0 0 0 720904
0 0 0 786696
0 0 0 786696
-0.002308778 0.051245652 0.57136279 786696
0.0033077439 0.051245652 0.57136279 918282
0.0090517551 0.051977731 0.57952511 983305
0.015408894 0.054305092 0.605474 1180681
0.022362014 0.056850642 0.63385558 1312266
0 0 0 1443852
0 0 0 1705741
0 0 0 1705739
0 0 0 1574666
0 0 0 1574668
0 0 0 1246474
0 0 0 1312266
0 0 0 1115145
0 0 0 1377802
0 0 0 5451297
0 0 0 5779490
0 0 0 5056027
0 0 0 4924700
0 0 0 5056798
0 0 0 5714211
0.35506988 0.16538368 1.8439435 7488050
0.39096716 0.17325909 1.9317503 8737340
0.43045419 0.18192206 2.028338 9590325
0.52987391 0.21402594 2.3862798 9526082
0.55333114 0.21402594 2.3862798 10183496
0.61283767 0.22740257 2.5354223 10972237
0.72886968 0.25988865 2.8976254 10972231
0.70686322 0.24256274 2.7044504 6963245
0.73344809 0.24256274 2.7044504 9592124
0.87696117 0.27988011 3.1205199 8277043
0.98327231 0.30320343 3.380563 1049097
1.0165035 0.30320343 3.380563 918281
1.0497345 0.30320343 3.380563 918282
0.99966061 0.27988011 3.1205199 918281
0.89295733 0.24256274 2.7044504 984073
0.72595441 0.19149691 2.1350925 1444367
0.70959538 0.18192206 2.028338 1443853
0.60794497 0.15160172 1.6902815 1247246
0.71378344 0.17325909 1.9317503 1115658
0.76941133 0.18192206 2.028338 1050381
0.75176179 0.17325909 1.9317503 787466
0.770751 0.17325909 1.9317503 918282
0.7897402 0.17325909 1.9317503 1114891
0.80872941 0.17325909 1.9317503 984075
0.82771862 0.17325909 1.9317503 1247501
1.0459331 0.21402594 2.3862798 3218202
1.0693904 0.21402594 2.3862798 1904659
1.0928476 0.21402594 2.3862798 1443853
1.1163049 0.21402594 2.3862798 1180427
0.92266452 0.17325909 1.9317503 720903
0.85977083 0.1581931 1.763772 655881
0.84056258 0.15160172 1.6902815 786696
0.89444673 0.1581931 1.763772 918282
0.87379366 0.15160172 1.6902815 852748
0.92912263 0.1581931 1.763772 721675
0.9464606 0.1581931 1.763772 918282
1.0076076 0.16538368 1.8439435 852746
1.1283071 0.18192206 2.028338 852489
1.1482457 0.18192206 2.028338 852748
1.2296677 0.19149691 2.1350925 721416
1.188123 0.18192206 2.028338 1574409
1.2080617 0.18192206 2.028338 6373685
1.2926319 0.19149691 2.1350925 6636340
1.31362 0.19149691 2.1350925 7095863
1.334608 0.19149691 2.1350925 8277564
1.3555961 0.19149691 2.1350925 8278593
1.307755 0.18192206 2.028338 7359554
1.3276936 0.18192206 2.028338 7163972
1.3476323 0.18192206 2.028338 7623243
1.3024484 0.17325909 1.9317503 3742492
1.3214376 0.17325909 1.9317503 3019799
1.3404268 0.17325909 1.9317503 917512
1.359416 0.17325909 1.9317503 720905
1.3784052 0.17325909 1.9317503 655882
1.3973943 0.17325909 1.9317503 524294
1.3520025 0.16538368 1.8439435 590089
1.3105577 0.1581931 1.763772 655626
1.3278956 0.1581931 1.763772 655623
1.3452337 0.1581931 1.763772 918023
1.4923403 0.17325909 1.9317503 852746
1.5113295 0.17325909 1.9317503 2431262
1.4607588 0.16538368 1.8439435 5453874
1.4788848 0.16538368 1.8439435 6243132
1.4970108 0.16538368 1.8439435 6638149
1.515137 0.16538368 1.8439435 6441543
1.533263 0.16538368 1.8439435 5916482
1.551389 0.16538368 1.8439435 4075825
1.5695151 0.16538368 1.8439435 1642007
1.6632431 0.17325909 1.9317503 721675
1.6822323 0.17325909 1.9317503 721418
1.7012215 0.17325909 1.9317503 786953
1.5051843 0.15160172 1.6902815 918284
1.5217998 0.15160172 1.6902815 852491
1.5384154 0.15160172 1.6902815 852489
1.5550309 0.15160172 1.6902815 852489
1.5716465 0.15160172 1.6902815 852489
1.588262 0.15160172 1.6902815 786953
1.6048776 0.15160172 1.6902815 852490
1.6214931 0.15160172 1.6902815 786697
1.7093308 0.1581931 1.763772 787211
1.8911134 0.17325909 1.9317503 786696
1.9101025 0.17325909 1.9317503 852489
1.6879553 0.15160172 1.6902815 984075
1.7045708 0.15160172 1.6902815 984075
1.7211864 0.15160172 1.6902815 984075
1.7378019 0.15160172 1.6902815 983305
1.7544174 0.15160172 1.6902815 1049098
1.7710329 0.15160172 1.6902815 1180938
1.7161427 0.14553764 1.6226703 4268838
1.7320936 0.14553764 1.6226703 5847082
1.8208796 0.15160172 1.6902815 5848379
1.9173863 0.1581931 1.763772 1641232
1.9347242 0.1581931 1.763772 2953733
1.9520621 0.1581931 1.763772 7357223
2.0589182 0.16538368 1.8439435 8081208
2.1759512 0.17325909 1.9317503 8344638
2.3046875 0.18192206 2.028338 8475967
2.3246262 0.18192206 2.028338 8475453
2.2329187 0.17325909 1.9317503 8541503
2.2519081 0.17325909 1.9317503 8936771
2.2708972 0.17325909 1.9317503 9527620
2.2898865 0.17325909 1.9317503 9330758
2.3088756 0.17325909 1.9317503 9133125
2.4442582 0.18192206 2.028338 9066821
2.899055 0.21402594 2.3862798 9132869
0 0 0 9198918
0 0 0 9264711
0 0 0 9396297
0 0 0 9397065
0 0 0 9658440
0 0 0 9724233
0 0 0 9592905
0 0 0 9396297
0 0 0 4465429
0 0 0 1181703
-4.0346217 0.33643451 3.380563 1312270
-4.0013905 0.33643451 3.380563 1312525
-3.9681594 0.33643451 3.380563 2626326
-3.9349284 0.33643451 3.380563 3282711
-3.9016974 0.33643451 3.380563 3217686
-4.2201452 0.36701947 3.687887 3349015
-4.1838932 0.36701947 3.687887 3480344
-4.1476407 0.36701947 3.687887 3545879
-4.1113887 0.36701947 3.687887 3414295
-4.0751367 0.36701947 3.687887 3480346
-4.0388846 0.36701947 3.687887 4531490
-4.4028959 0.40372145 4.0566759 4662563
-4.8477983 0.44857937 4.5074177 4596511
-4.3231416 0.40372145 4.0566759 3545879
-4.7591825 0.44857937 4.5074177 3414808
-4.2433867 0.40372145 4.0566759 3611929
-4.2035093 0.40372145 4.0566759 3480085
-4.1636324 0.40372145 4.0566759 3414549
-4.123755 0.40372145 4.0566759 2560528
-4.0838776 0.40372145 4.0566759 1180424
-4.0440001 0.40372145 4.0566759 1049608
-4.4490256 0.44857937 4.5074177 2232338
-4.4047174 0.44857937 4.5074177 1114889
-4.3604093 0.44857937 4.5074177 918282
-4.8556137 0.50465178 5.0708447 852746
-4.2717929 0.44857937 4.5074177 918282
-4.2274847 0.44857937 4.5074177 918282
-4.183177 0.44857937 4.5074177 852747
-4.1388688 0.44857937 4.5074177 918282
-4.0945606 0.44857937 4.5074177 1049868
-4.0502524 0.44857937 4.5074177 1115145
-4.0059443 0.44857937 4.5074177 1115146
-3.5654726 0.40372145 4.0566759 1115403
-3.5255952 0.40372145 4.0566759 1312524
-3.485718 0.40372145 4.0566759 984075
-3.4458406 0.40372145 4.0566759 1115915
-3.4059634 0.40372145 4.0566759 1049352
-3.366086 0.40372145 4.0566759 852231
-3.3262088 0.40372145 4.0566759 655882
-3.2863314 0.40372145 4.0566759 720905
-3.2464542 0.40372145 4.0566759 655880
-3.2065768 0.40372145 4.0566759 590087
-3.5185549 0.44857937 4.5074177 852231
-3.474247 0.44857937 4.5074177 918793
-2.8063133 0.36701947 3.687887 983816
-3.0470676 0.40372145 4.0566759 983817
-3.3413227 0.44857937 4.5074177 1049097
-3.2970145 0.44857937 4.5074177 1181454
-3.2527063 0.44857937 4.5074177 1181451
-3.2083981 0.44857937 4.5074177 786696
-3.1640902 0.44857937 4.5074177 721673
-3.119782 0.44857937 4.5074177 721673
-3.0754738 0.44857937 4.5074177 918282
-3.0311658 0.44857937 4.5074177 786951
-2.9868577 0.44857937 4.5074177 852489
-2.6482944 0.40372145 4.0566759 786696
-2.8982413 0.44857937 4.5074177 852489
-2.8539333 0.44857937 4.5074177 786696
-2.8096251 0.44857937 4.5074177 852489
-2.765317 0.44857937 4.5074177 1049611
-2.721009 0.44857937 4.5074177 2757655
-3.0112882 0.50465178 5.0708447 4926502
-2.9614415 0.50465178 5.0708447 8146231
-3.3275371 0.57674485 5.7952509 9264191
-3.2705696 0.57674485 5.7952509 9526845
-2.8119018 0.50465178 5.0708447 9592894
-2.7620552 0.50465178 5.0708447 9986366
-2.7122085 0.50465178 5.0708447 9527105
0 0 0 9790276
0 0 0 9395518
0 0 0 6436896
0 0 0 1838616
-0.2264805 0.04640476 0.46628457 6108975
-0.20758097 0.043410905 0.43620169 5845548
-0.20329309 0.043410905 0.43620169 5253414
-0.19688812 0.042949084 0.43156123 4793631
-0.19471732 0.043410905 0.43620169 4792862
-0.19042943 0.043410905 0.43620169 4464414
-0.18816483 0.043882761 0.440943 4464412
-0.18585044 0.044364989 0.44578853 4398619
-0.18348464 0.044857934 0.45074174 4004634
-0.18106568 0.045361958 0.45580626 3807255
-0.17658508 0.045361958 0.45580626 4004376
-0.17210448 0.045361958 0.45580626 4003605
-0.1657614 0.044857934 0.45074174 3806741
-0.16133058 0.044857934 0.45074174 3937813
-0.15689978 0.044857934 0.45074174 3281426
-0.15418209 0.045361958 0.45580626 2296848
-0.15314291 0.04640476 0.46628457 1509904
-0.15028675 0.04694435 0.47170648 787211
-0.16058831 0.051759157 0.52008665 720905
0 0 0 786698
0 0 0 721673
0 0 0 721418
-0.1401384 0.051759157 0.52008665 655882
-0.13331674 0.051103976 0.51350325 720905
-0.12666562 0.050465181 0.50708449 590089
-0.12168096 0.050465181 0.50708449 524807
-0.1212429 0.052431352 0.52684098 590089
-0.11171164 0.050465181 0.50708449 786696
-0.10540935 0.049842149 0.50082415 720905
-0.096897431 0.048062071 0.48293757 720903
-0.092150129 0.048062071 0.48293757 459016
-0.090639971 0.049842149 0.50082415 327686
0 0 0 393225
0 0 0 524296
0 0 0 590089
-0.079815917 0.056072421 0.56342721 786696
-0.073259905 0.055304304 0.555709 917512
-0.068738893 0.056072421 0.56342721 655882
-0.062334612 0.055304304 0.555709 590089
-0.057661861 0.056072421 0.56342721 524296
-0.042646371 0.045877434 0.46098587 655368
-0.038114857 0.045877434 0.46098587 590089
-0.033583347 0.045877434 0.46098587 655882
-0.030077195 0.047496639 0.47725597 590087
0 0 0 720904
0 0 0 786696
0 0 0 786696
0 0 0 852745
0 0 0 721673
-0.0023417606 0.05767449 0.57952511 917512
0.0033077439 0.056862172 0.57136279 852489
0.0091829393 0.058510348 0.587924 918536
0.015182292 0.059370797 0.59656996 1180681
0.022362014 0.063081473 0.63385558 1246474
0 0 0 1443852
0 0 0 1378059
0 0 0 1640461
0 0 0 1509643
0 0 0 1378060
0 0 0 1246474
0 0 0 1180684
0 0 0 1114634
0 0 0 1181451
0 0 0 5451818
0 0 0 7356463
0 0 0 7882544
0 0 0 8407601
0.28055966 0.16148856 1.6226703 8539185
0.29651058 0.16148856 1.6226703 8670259
0.32548073 0.16821726 1.6902815 8933427
0.37319595 0.18350974 1.8439435 9130293
0.40995637 0.19224828 1.9317503 9327671
0.52987391 0.23748319 2.3862798 9393722
0.55333114 0.23748319 2.3862798 8998964
0.57678843 0.23748319 2.3862798 8933684
0.637761 0.25232589 2.5354223 8998710
0.70686322 0.2691476 2.7044504 7685938
0.73344809 0.2691476 2.7044504 9458229
0.76003295 0.2691476 2.7044504 5843736
0.98327231 0.33643451 3.380563 1049868
1.355338 0.44857937 4.5074177 786953
1.0497345 0.33643451 3.380563 721416
0.99966061 0.31055495 3.1205199 983305
0.66971803 0.20186073 2.028338 1181196
0.47562528 0.13921428 1.3988537 1509387
0.48937607 0.13921428 1.3988537 1377545
0.54039556 0.14952646 1.5024725 1574925
0.59957808 0.16148856 1.6226703 1508875
0.73277265 0.19224828 1.9317503 1509132
0.75176179 0.19224828 1.9317503 1180680
0.73571688 0.18350974 1.8439435 1180680
0.75384295 0.18350974 1.8439435 1115145
0.77196896 0.18350974 1.8439435 852491
0.82771862 0.19224828 1.9317503 983558
1.0459331 0.23748319 2.3862798 918025
1.0693904 0.23748319 2.3862798 984076
0.77410042 0.16821726 1.6902815 984075
0.79071593 0.16821726 1.6902815 852489
0.8073315 0.16821726 1.6902815 655367
0.82394701 0.16821726 1.6902815 1049611
0.84056258 0.16821726 1.6902815 3679007
0.822891 0.16148856 1.6226703 3547163
0.87379366 0.16821726 1.6902815 3416350
0.92912263 0.17553104 1.763772 3153438
0.98948157 0.18350974 1.8439435 2496282
1.0555888 0.19224828 1.9317503 1443598
1.1283071 0.20186073 2.028338 983818
1.1482457 0.20186073 2.028338 984589
1.1681844 0.20186073 2.028338 918026
1.188123 0.20186073 2.028338 1640461
1.2716439 0.21248496 2.1350925 6766903
1.2926319 0.21248496 2.1350925 5912625
1.31362 0.21248496 2.1350925 6372659
1.334608 0.21248496 2.1350925 7951170
1.2878163 0.20186073 2.028338 8081989
1.307755 0.20186073 2.028338 7819845
1.3276936 0.20186073 2.028338 7491140
1.2834592 0.19224828 1.9317503 7028542
1.3024484 0.19224828 1.9317503 3545113
1.3214376 0.19224828 1.9317503 3019542
1.3404268 0.19224828 1.9317503 983305
1.359416 0.19224828 1.9317503 852234
1.3784052 0.19224828 1.9317503 655625
1.3973943 0.19224828 1.9317503 720903
1.4163835 0.19224828 1.9317503 655624
1.3701285 0.18350974 1.8439435 655624
1.3882545 0.18350974 1.8439435 721416
1.4733511 0.19224828 1.9317503 786953
1.5669575 0.20186073 2.028338 852491
1.5868961 0.20186073 2.028338 2824733
1.5303187 0.19224828 1.9317503 6831919
1.4788848 0.18350974 1.8439435 6766894
1.4970108 0.18350974 1.8439435 8279363
1.515137 0.18350974 1.8439435 9067589
1.533263 0.18350974 1.8439435 8541760
1.551389 0.18350974 1.8439435 6699561
1.5695151 0.18350974 1.8439435 4859685
1.6632431 0.19224828 1.9317503 1115409
1.6822323 0.19224828 1.9317503 852489
1.7012215 0.19224828 1.9317503 852489
1.6420193 0.18350974 1.8439435 787209
1.587965 0.17553104 1.763772 655881
1.605303 0.17553104 1.763772 852489
1.622641 0.17553104 1.763772 852489
1.5716465 0.16821726 1.6902815 786696
1.588262 0.16821726 1.6902815 721159
1.6048776 0.16821726 1.6902815 787209
1.6214931 0.16821726 1.6902815 918282
1.7093308 0.17553104 1.763772 918282
1.7266687 0.17553104 1.763772 918282
1.6713398 0.16821726 1.6902815 918282
1.6879553 0.16821726 1.6902815 852489
1.7045708 0.16821726 1.6902815 918282
1.7211864 0.16821726 1.6902815 983559
1.7378019 0.16821726 1.6902815 918025
1.7544174 0.16821726 1.6902815 918282
1.7710329 0.16821726 1.6902815 1180940
1.7876486 0.16821726 1.6902815 4794657
1.8827103 0.17553104 1.763772 7361080
1.9000483 0.17553104 1.763772 7887174
1.9173863 0.17553104 1.763772 2035729
1.9347242 0.17553104 1.763772 1904131
1.9520621 0.17553104 1.763772 9198913
1.9694002 0.17553104 1.763772 9856585
2.1759512 0.19224828 1.9317503 9002054
2.1949403 0.19224828 1.9317503 8213312
2.2139297 0.19224828 1.9317503 7621431
2.2329187 0.19224828 1.9317503 7818810
2.2519081 0.19224828 1.9317503 7753787
2.2708972 0.19224828 1.9317503 8148029
2.2898865 0.19224828 1.9317503 8935746
2.4243195 0.20186073 2.028338 8870467
2.5729032 0.21248496 2.1350925 8805185
2.899055 0.23748319 2.3862798 8936514
3.8217468 0.31055495 3.1205199 8936002
0 0 0 9067589
0 0 0 9264968
0 0 0 9658697
0 0 0 9264452
0 0 0 9264967
0 0 0 9067846
0 0 0 8936260
0 0 0 4596752
0 0 0 1312517
-4.0346217 0.36966559 3.380563 1246990
-4.0013905 0.36966559 3.380563 1378316
-3.9681594 0.36966559 3.380563 2955289
-3.6322417 0.3412298 3.1205199 3480344
-3.9016974 0.36966559 3.380563 3611671
-3.8684664 0.36966559 3.380563 3545878
-4.1838932 0.40327156 3.687887 3611671
-4.1476407 0.40327156 3.687887 3677464
-4.1113887 0.40327156 3.687887 3611671
-4.0751367 0.40327156 3.687887 3349015
-4.0388846 0.40327156 3.687887 3283222
-4.4028959 0.44359875 4.0566759 3545111
-4.3630185 0.44359875 4.0566759 3938838
-4.3231416 0.44359875 4.0566759 3545365
-4.7591825 0.4928875 4.5074177 3348756
-4.2433867 0.44359875 4.0566759 3217171
-4.6705661 0.4928875 4.5074177 3151122
-4.6262579 0.4928875 4.5074177 3019794
-4.5819497 0.4928875 4.5074177 2428688
-4.0838776 0.44359875 4.0566759 1114632
-4.0440001 0.44359875 4.0566759 983561
-4.0041227 0.44359875 4.0566759 983819
-4.4047174 0.4928875 4.5074177 852489
-4.3604093 0.4928875 4.5074177 1049352
-4.3161011 0.4928875 4.5074177 852489
-4.2717929 0.4928875 4.5074177 1049352
-4.2274847 0.4928875 4.5074177 1049352
-4.183177 0.4928875 4.5074177 984329
-4.1388688 0.4928875 4.5074177 1246477
-4.0945606 0.4928875 4.5074177 1049865
-4.0502524 0.4928875 4.5074177 1180938
-4.0059443 0.4928875 4.5074177 1180938
-3.5654726 0.44359875 4.0566759 1049608
-3.5255952 0.44359875 4.0566759 1049352
-3.1688342 0.40327156 3.687887 852489
-3.4458406 0.44359875 4.0566759 787466
-3.4059634 0.44359875 4.0566759 1115915
-3.366086 0.44359875 4.0566759 1115146
-3.0238259 0.40327156 3.687887 852232
-2.9875739 0.40327156 3.687887 786696
-3.2464542 0.44359875 4.0566759 721673
-3.2065768 0.44359875 4.0566759 787208
-3.1666996 0.44359875 4.0566759 1115144
-2.8425655 0.40327156 3.687887 984329
-2.8063133 0.40327156 3.687887 852743
-2.7700613 0.40327156 3.687887 721416
-3.3413227 0.4928875 4.5074177 1114890
-3.2970145 0.4928875 4.5074177 983817
-3.2527063 0.4928875 4.5074177 983819
-3.2083981 0.4928875 4.5074177 852488
-3.1640902 0.4928875 4.5074177 918282
-3.119782 0.4928875 4.5074177 919050
-3.0754738 0.4928875 4.5074177 984329
-3.0311658 0.4928875 4.5074177 1050124
-2.9868577 0.4928875 4.5074177 1312524
-2.6482944 0.44359875 4.0566759 1180938
-2.8982413 0.4928875 4.5074177 1050122
-3.2106748 0.55449843 5.0708447 1180684
-3.1608281 0.55449843 5.0708447 1312524
-3.1109815 0.55449843 5.0708447 1181454
-3.0611348 0.55449843 5.0708447 2560527
-3.0112882 0.55449843 5.0708447 4334877
-2.9614415 0.55449843 5.0708447 8146492
-3.3275371 0.63371247 5.7952509 8212533
-3.2705696 0.63371247 5.7952509 9001274
-3.2136018 0.63371247 5.7952509 9329212
-3.1566343 0.63371247 5.7952509 9658944
-3.0996668 0.63371247 5.7952509 9526847
-3.5498157 0.73933119 6.761126 7162415
0 0 0 7753271
0 0 0 6175269
0 0 0 1707798
-0.21417177 0.048217252 0.440943 6305071
-0.20758097 0.047698788 0.43620169 5845805
-0.20329309 0.047698788 0.43620169 5516325
-0.1990052 0.047698788 0.43620169 4793890
-0.19471732 0.047698788 0.43620169 4661791
-0.18840358 0.047191352 0.43156123 4595739
-0.18614155 0.047698788 0.43620169 4267548
-0.18383034 0.048217252 0.440943 4201755
-0.18348464 0.049288746 0.45074174 4004890
-0.17905383 0.049288746 0.45074174 4004119
-0.17658508 0.049842551 0.45580626 3938581
-0.17019221 0.049288746 0.45074174 3872533
-0.1657614 0.049288746 0.45074174 3938070
-0.16133058 0.049288746 0.45074174 3872276
-0.15866269 0.049842551 0.45580626 3215890
-0.15418209 0.049842551 0.45580626 2624783
-0.15314291 0.050988361 0.46628457 1641746
-0.15028675 0.051581249 0.47170648 918284
-0.15275472 0.054097407 0.49471655 655882
0 0 0 852491
0 0 0 655882
0 0 0 655882
-0.1401384 0.056871634 0.52008665 721418
-0.13502593 0.056871634 0.52008665 786697
-0.12826897 0.056151737 0.51350325 655625
-0.12322122 0.056151737 0.51350325 655625
-0.11817346 0.056151737 0.51350325 720905
-0.11033247 0.054765273 0.50082415 524294
-0.10540935 0.054765273 0.50082415 590087
-0.096897431 0.052809373 0.48293757 852489
-0.092150129 0.052809373 0.48293757 327686
-0.087402835 0.052809373 0.48293757 458759
-0.085716851 0.054765273 0.50082415 589831
0 0 0 590089
0 0 0 655882
-0.079815917 0.061610937 0.56342721 786696
-0.073259905 0.06076695 0.555709 458759
-0.067797258 0.06076695 0.555709 655368
-0.052303758 0.050988361 0.46628457 590089
-0.047177881 0.050408944 0.46098587 655882
-0.042646371 0.050408944 0.46098587 590089
-0.038114857 0.050408944 0.46098587 590089
-0.033583347 0.050408944 0.46098587 655624
-0.029051835 0.050408944 0.46098587 852489
-0.025997452 0.05344563 0.48875612 786697
0 0 0 721416
0 0 0 786698
0 0 0 1049099
0 0 0 852488
-0.0024836853 0.067211926 0.61464781 918026
0.0033077439 0.062478695 0.57136279 918282
0.0090517551 0.063371249 0.57952511 852743
0.015182292 0.065235108 0.59656996 1114634
0.021684377 0.067211926 0.61464781 1312267
0 0 0 1050122
0 0 0 1246474
0 0 0 1378059
0 0 0 1115145
0 0 0 1246474
0 0 0 852743
0 0 0 1114891
0 0 0 1049095
0 0 0 1114891
0 0 0 5322291
0 0 0 7947311
0 0 0 8210223
0 0 0 8341808
0.28055966 0.1774395 1.6226703 8342580
0.29651058 0.1774395 1.6226703 8539187
0.32548073 0.1848328 1.6902815 8604978
0.39096716 0.21123749 1.9317503 8670772
0.45310968 0.23347302 2.1350925 9064500
0.52987391 0.26094043 2.3862798 8934197
0.55333114 0.26094043 2.3862798 9064500
0.61283767 0.27724922 2.5354223 9130809
0.637761 0.27724922 2.5354223 9132346
0.70686322 0.29573247 2.7044504 9328442
0.73344809 0.29573247 2.7044504 9918780
0.76003295 0.29573247 2.7044504 2164232
0.98327231 0.36966559 3.380563 984075
0 0 0 918279
0.96898574 0.3412298 3.1205199 852489
0.44812369 0.15296507 1.3988537 983306
0.44647866 0.14786623 1.3522252 1049611
0.44493979 0.14309636 1.3086051 983816
0.47306353 0.14786623 1.3522252 984329
0.48635596 0.14786623 1.3522252 918536
0.55516493 0.16429582 1.5024725 1115145
0.615529 0.1774395 1.6226703 1049352
0.71759081 0.20163578 1.8439435 1049098
0.70372921 0.19286901 1.763772 852489
0.72106713 0.19286901 1.763772 852489
0.73840511 0.19286901 1.763772 852489
0.79009503 0.20163578 1.8439435 984075
0.74086928 0.1848328 1.6902815 786696
0.72718549 0.1774395 1.6226703 918282
0.74313641 0.1774395 1.6226703 1114891
0.72989166 0.1706149 1.5602599 786950
0.77503824 0.1774395 1.6226703 655369
0.76056653 0.1706149 1.5602599 1378063
0.80694008 0.1774395 1.6226703 4465947
0.822891 0.1774395 1.6226703 4597020
0.87379366 0.1848328 1.6902815 4203035
0.92912263 0.19286901 1.763772 3874588
0.98948157 0.20163578 1.8439435 2297359
1.0555888 0.21123749 1.9317503 2561559
1.1283071 0.22179937 2.028338 2758169
1.1482457 0.22179937 2.028338 3217431
1.1681844 0.22179937 2.028338 3414040
1.188123 0.22179937 2.028338 2626064
1.2716439 0.23347302 2.1350925 4333080
1.2926319 0.23347302 2.1350925 4465179
1.31362 0.23347302 2.1350925 4464666
1.2678777 0.22179937 2.028338 4398873
1.2878163 0.22179937 2.028338 4530972
1.307755 0.22179937 2.028338 4399132
1.26447 0.21123749 1.9317503 4399132
1.2834592 0.21123749 1.9317503 4924703
1.3024484 0.21123749 1.9317503 3413782
1.3214376 0.21123749 1.9317503 2888468
1.3404268 0.21123749 1.9317503 1969426
1.359416 0.21123749 1.9317503 1772562
1.3784052 0.21123749 1.9317503 1904662
1.3973943 0.21123749 1.9317503 2101782
1.4163835 0.21123749 1.9317503 1970967
1.4353727 0.21123749 1.9317503 1708051
1.4543619 0.21123749 1.9317503 1708051
1.5470188 0.22179937 2.028338 1838611
1.5669575 0.22179937 2.028338 1641489
1.5868961 0.22179937 2.028338 2299159
1.5303187 0.21123749 1.9317503 5583400
1.4788848 0.20163578 1.8439435 7425085
1.4970108 0.20163578 1.8439435 5847598
1.515137 0.20163578 1.8439435 6570549
1.533263 0.20163578 1.8439435 6701366
1.551389 0.20163578 1.8439435 6570038
1.5695151 0.20163578 1.8439435 5123119
1.5186132 0.19286901 1.763772 1115151
1.5359511 0.19286901 1.763772 918282
1.6238931 0.20163578 1.8439435 918025
1.6420193 0.20163578 1.8439435 852489
1.587965 0.19286901 1.763772 984075
1.605303 0.19286901 1.763772 984329
1.622641 0.19286901 1.763772 984329
1.6399789 0.19286901 1.763772 787466
1.6573169 0.19286901 1.763772 721673
1.6746548 0.19286901 1.763772 721673
1.6919928 0.19286901 1.763772 721673
1.6381086 0.1848328 1.6902815 721673
1.7266687 0.19286901 1.763772 721674
1.6713398 0.1848328 1.6902815 787209
1.6879553 0.1848328 1.6902815 721673
1.7045708 0.1848328 1.6902815 786953
1.7960205 0.19286901 1.763772 918282
1.7378019 0.1848328 1.6902815 918282
1.8306965 0.19286901 1.763772 852489
1.7710329 0.1848328 1.6902815 1114891
1.7876486 0.1848328 1.6902815 2560276
1.8827103 0.19286901 1.763772 3808019
1.9000483 0.19286901 1.763772 7162942
1.9173863 0.19286901 1.763772 4730673
1.8541107 0.1848328 1.6902815 4796464
1.8707262 0.1848328 1.6902815 7228473
1.9694002 0.19286901 1.763772 7358253
2.0770445 0.20163578 1.8439435 7554607
2.1949403 0.21123749 1.9317503 7883318
2.2139297 0.21123749 1.9317503 8146750
2.2329187 0.21123749 1.9317503 7425086
2.2519081 0.21123749 1.9317503 7292469
2.2708972 0.21123749 1.9317503 7359030
2.2898865 0.21123749 1.9317503 7424822
2.3088756 0.21123749 1.9317503 7688248
2.7158425 0.24644375 2.2537088 8082492
2.899055 0.26094043 2.3862798 8410173
3.8217468 0.3412298 3.1205199 8606781
7.1544971 0.63371247 5.7952509 8804674
0 0 0 9198918
0 0 0 9396297
0 0 0 9592393
0 0 0 9395527
0 0 0 9330504
0 0 0 9198918
0 0 0 4794644
0 0 0 1509895
-4.0346217 0.40289667 3.380563 1312270
-4.0013905 0.40289667 3.380563 1246731
-3.9681594 0.40289667 3.380563 2757652
-3.6322417 0.37190464 3.1205199 3086100
-3.601567 0.37190464 3.1205199 3151378
-4.2201452 0.43952367 3.687887 3151121
-4.1838932 0.43952367 3.687887 3282708
-4.1476407 0.43952367 3.687887 3282708
-4.1113887 0.43952367 3.687887 3282965
-4.4826508 0.48347604 4.0566759 3348499
-4.4427733 0.48347604 4.0566759 3611158
-4.0026326 0.43952367 3.687887 3349269
-3.9663804 0.43952367 3.687887 3414292
-4.3231416 0.48347604 4.0566759 3479831
-4.2832642 0.48347604 4.0566759 3414038
-4.2433867 0.48347604 4.0566759 3151381
-4.6705661 0.53719562 4.5074177 3217431
-4.6262579 0.53719562 4.5074177 3151638
-4.5819497 0.53719562 4.5074177 2625298
-4.5376415 0.53719562 4.5074177 1049097
-4.0440001 0.48347604 4.0566759 918282
-4.0041227 0.48347604 4.0566759 918793
-3.9642456 0.48347604 4.0566759 918794
-4.3604093 0.53719562 4.5074177 1049609
-4.3161011 0.53719562 4.5074177 1115145
-4.2717929 0.53719562 4.5074177 1246731
-3.8047364 0.48347604 4.0566759 1246731
-3.7648592 0.48347604 4.0566759 1180938
-3.7249818 0.48347604 4.0566759 1049868
-4.0945606 0.53719562 4.5074177 918282
-4.0502524 0.53719562 4.5074177 918282
-3.60535 0.48347604 4.0566759 852489
-3.5654726 0.48347604 4.0566759 852489
-3.5255952 0.48347604 4.0566759 721673
-3.1688342 0.43952367 3.687887 984845
-3.1325822 0.43952367 3.687887 1312524
-3.4059634 0.48347604 4.0566759 1246988
-3.366086 0.48347604 4.0566759 1247244
-3.0238259 0.43952367 3.687887 1181452
-2.9875739 0.43952367 3.687887 918537
-3.2464542 0.48347604 4.0566759 1246477
-3.2065768 0.48347604 4.0566759 918281
-3.1666996 0.48347604 4.0566759 1378063
-3.1268222 0.48347604 4.0566759 1312524
-3.0869448 0.48347604 4.0566759 1050122
-3.3856306 0.53719562 4.5074177 787210
-3.3413227 0.53719562 4.5074177 1312524
-3.2970145 0.53719562 4.5074177 1312267
-3.2527063 0.53719562 4.5074177 1180938
-3.2083981 0.53719562 4.5074177 1049611
-3.1640902 0.53719562 4.5074177 1312782
-3.119782 0.53719562 4.5074177 1378829
-3.0754738 0.53719562 4.5074177 1509902
-3.0311658 0.53719562 4.5074177 1640974
-2.9868577 0.53719562 4.5074177 1576466
-3.3103681 0.60434502 5.0708447 1642002
-3.2605214 0.60434502 5.0708447 1641231
-3.2106748 0.60434502 5.0708447 1575439
-3.1608281 0.60434502 5.0708447 1379086
-3.1109815 0.60434502 5.0708447 1246730
-3.0611348 0.60434502 5.0708447 1969426
-3.0112882 0.60434502 5.0708447 4533800
-2.9614415 0.60434502 5.0708447 6502180
-2.9115949 0.60434502 5.0708447 5647128
-2.8617485 0.60434502 5.0708447 5252376
-2.8119018 0.60434502 5.0708447 4792596
-3.1566343 0.69068003 5.7952509 4529680
-3.0996668 0.69068003 5.7952509 3939088
-3.0426991 0.69068003 5.7952509 3281934
-2.9857316 0.69068003 5.7952509 3610900
0 0 0 4927011
-2.8717964 0.69068003 5.7952509 2361870
-0.21417177 0.052551743 0.440943 6042671
-0.20983727 0.052551743 0.440943 5911596
-0.20550278 0.052551743 0.440943 5254182
-0.1990052 0.051986668 0.43620169 4859170
-0.19471732 0.051986668 0.43620169 4728097
-0.19042943 0.051986668 0.43620169 4858910
-0.18614155 0.051986668 0.43620169 4661277
-0.18185367 0.051986668 0.43620169 4661277
-0.17949584 0.052551743 0.440943 4267033
-0.1770862 0.053129233 0.44578853 4135962
-0.17270409 0.053129233 0.44578853 4200983
-0.17019221 0.053719558 0.45074174 3938326
-0.16762388 0.054323148 0.45580626 3938070
-0.16314329 0.054323148 0.45580626 3806997
-0.15866269 0.054323148 0.45580626 3544083
-0.15418209 0.054323148 0.45580626 2756112
-0.14970151 0.054323148 0.45580626 2232342
-0.14855932 0.055571958 0.46628457 1510416
-0.15091431 0.058250125 0.48875612 721676
-0.15547584 0.061984107 0.52008665 786955
-0.15036336 0.061984107 0.52008665 787468
-0.14907327 0.06361527 0.53377312 786698
-0.14195837 0.06278909 0.52684098 590089
-0.1367795 0.06278909 0.52684098 721160
-0.12991346 0.061984107 0.52008665 721418
-0.12322122 0.061199497 0.51350325 655368
-0.11525559 0.059688397 0.50082415 720905
-0.11033247 0.059688397 0.50082415 786952
-0.10540935 0.059688397 0.50082415 787466
-0.096897431 0.05755667 0.48293757 786950
-0.09106601 0.056879532 0.47725597 524292
-0.086374566 0.056879532 0.47725597 524296
-0.083651386 0.058250125 0.48875612 393222
-0.078846894 0.058250125 0.48875612 590087
-0.074042395 0.058250125 0.48875612 655368
-0.070947476 0.059688397 0.50082415 524296
-0.073259905 0.066229597 0.555709 590089
-0.067797258 0.066229597 0.555709 655366
-0.052303758 0.055571958 0.46628457 720905
-0.047177881 0.054940458 0.46098587 590087
-0.042646371 0.054940458 0.46098587 590089
-0.038114857 0.054940458 0.46098587 720903
-0.033583347 0.054940458 0.46098587 786696
-0.029385764 0.055571958 0.46628457 721162
-0.025090564 0.056218144 0.47170648 721418
-0.021192957 0.058250125 0.48875612 786696
0 0 0 786696
0 0 0 983305
0 0 0 852743
0 0 0 984075
0.0034536736 0.071099415 0.59656996 984075
0.0093179829 0.071099415 0.59656996 852489
0.015182292 0.071099415 0.59656996 1049352
0.022362014 0.075543128 0.63385558 1049098
0 0 0 983559
0 0 0 1246474
0 0 0 1312267
0 0 0 983559
0 0 0 786696
0 0 0 786696
0 0 0 983559
0 0 0 1115145
0 0 0 1115145
0 0 0 2561818
0 0 0 5318939
0 0 0 6303774
0 0 0 6764066
0 0 0 7683371
0.35298878 0.23022668 1.9317503 8143918
0.37197798 0.23022668 1.9317503 8604210
0.4321216 0.25446108 2.1350925 8932914
0.50641668 0.28439766 2.3862798 9130552
0.52987391 0.28439766 2.3862798 9327672
0.55333114 0.28439766 2.3862798 9655863
0.61283767 0.30217251 2.5354223 9261879
0.637761 0.30217251 2.5354223 9131063
0.66268432 0.30217251 2.5354223 9196343
0.68760765 0.30217251 2.5354223 8932914
0.71253097 0.30217251 2.5354223 1311497
0.69407457 0.28439766 2.3862798 1114889
0.58085907 0.23022668 1.9317503 852489
0.46654868 0.1790652 1.5024725 918282
0.43318623 0.16115867 1.3522252 1049098
0.43207613 0.15596001 1.3086051 1049097
0.44493979 0.15596001 1.3086051 1049609
0.47306353 0.16115867 1.3522252 918536
0.48635596 0.16115867 1.3522252 1049611
0.55516493 0.1790652 1.5024725 1049352
0.59185487 0.18595232 1.5602599 984075
0.63147992 0.19339041 1.6226703 1049609
0.64743084 0.19339041 1.6226703 1049352
0.66338181 0.19339041 1.6226703 983305
0.7076382 0.20144834 1.6902815 1049868
0.72425377 0.20144834 1.6902815 917768
0.68387938 0.18595232 1.5602599 1903889
0.67331988 0.1790652 1.5024725 2166801
0.68808925 0.1790652 1.5024725 1903118
0.72989166 0.18595232 1.5602599 786696
0.77503824 0.19339041 1.6226703 655368
0.79098916 0.19339041 1.6226703 2035989
0.80694008 0.19339041 1.6226703 4793884
0.822891 0.19339041 1.6226703 4662299
0.83884192 0.19339041 1.6226703 4662302
0.89040917 0.20144834 1.6902815 4465437
0.98948157 0.21976183 1.8439435 4005916
1.0555888 0.23022668 1.9317503 3283996
1.074578 0.23022668 1.9317503 2035987
1.1482457 0.24173802 2.028338 1641231
1.1681844 0.24173802 2.028338 1904403
1.188123 0.24173802 2.028338 1378058
1.2716439 0.25446108 2.1350925 1575438
1.2926319 0.25446108 2.1350925 3546139
1.31362 0.25446108 2.1350925 4137502
1.2678777 0.24173802 2.028338 4333852
1.2264916 0.23022668 1.9317503 4268314
1.2454808 0.23022668 1.9317503 4136984
1.26447 0.23022668 1.9317503 4201753
1.2834592 0.23022668 1.9317503 3939353
1.3024484 0.23022668 1.9317503 3413780
1.3214376 0.23022668 1.9317503 2953748
1.4074482 0.24173802 2.028338 2363412
1.359416 0.23022668 1.9317503 2364182
1.3784052 0.23022668 1.9317503 2429460
1.3973943 0.23022668 1.9317503 2297876
1.4163835 0.23022668 1.9317503 2626835
1.5071415 0.24173802 2.028338 3086100
1.5270802 0.24173802 2.028338 3151895
1.5470188 0.24173802 2.028338 3217431
1.5669575 0.24173802 2.028338 3217429
1.5868961 0.24173802 2.028338 3349016
1.4607588 0.21976183 1.8439435 3940894
1.4788848 0.21976183 1.8439435 4333337
1.4970108 0.21976183 1.8439435 4203294
1.515137 0.21976183 1.8439435 5122848
1.4665993 0.21020697 1.763772 5319462
1.551389 0.21976183 1.8439435 4003352
1.4387221 0.20144834 1.6902815 3282206
1.5186132 0.21020697 1.763772 2101013
1.5359511 0.21020697 1.763772 1904403
1.6238931 0.21976183 1.8439435 2167575
1.6420193 0.21976183 1.8439435 2364438
1.6601453 0.21976183 1.8439435 2101780
1.605303 0.21020697 1.763772 2495768
1.622641 0.21020697 1.763772 2298388
1.6399789 0.21020697 1.763772 2364181
1.6573169 0.21020697 1.763772 2167316
1.6746548 0.21020697 1.763772 1970452
1.6919928 0.21020697 1.763772 1838866
1.6381086 0.20144834 1.6902815 1642003
1.6547242 0.20144834 1.6902815 1510933
1.6713398 0.20144834 1.6902815 1379603
1.6879553 0.20144834 1.6902815 1247502
1.7045708 0.20144834 1.6902815 1313294
1.7960205 0.21020697 1.763772 1181708
1.8133585 0.21020697 1.763772 985099
1.9139099 0.21976183 1.8439435 1181454
1.7710329 0.20144834 1.6902815 1048580
1.7876486 0.20144834 1.6902815 2888724
1.8827103 0.21020697 1.763772 2954254
1.9000483 0.21020697 1.763772 5255717
1.9173863 0.21020697 1.763772 6044975
1.8541107 0.20144834 1.6902815 6372915
1.9520621 0.21020697 1.763772 6570037
1.9694002 0.21020697 1.763772 6372397
2.0770445 0.21976183 1.8439435 6569261
2.1949403 0.23022668 1.9317503 6306092
2.2139297 0.23022668 1.9317503 6371886
2.2329187 0.23022668 1.9317503 6240813
2.2519081 0.23022668 1.9317503 6175018
2.2708972 0.23022668 1.9317503 6372911
2.2898865 0.23022668 1.9317503 6701362
2.3088756 0.23022668 1.9317503 7424824
2.3278649 0.23022668 1.9317503 7556666
2.899055 0.28439766 2.3862798 7556665
3.5487647 0.34534001 2.8976254 7754043
4.1734567 0.40289667 3.380563 8279616
7.2114644 0.69068003 5.7952509 8739139
0 0 0 9002054
0 0 0 9132871
0 0 0 9264454
0 0 0 9067586
0 0 0 9002053
0 0 0 4662803
0 0 0 1705731
-4.0346217 0.43612778 3.380563 1246732
-4.0013905 0.43612778 3.380563 1378063
-3.9681594 0.43612778 3.380563 2757140
-3.6322417 0.40257949 3.1205199 3217431
-3.601567 0.40257949 3.1205199 3282709
-3.8684664 0.43612778 3.380563 3414038
-4.1838932 0.47577575 3.687887 3414038
-4.1476407 0.47577575 3.687887 3348245
-4.5225282 0.52335334 4.0566759 3414038
-4.4826508 0.52335334 4.0566759 3283478
-4.4427733 0.52335334 4.0566759 3480085
-4.0026326 0.47577575 3.687887 3479572
-3.9663804 0.47577575 3.687887 3610904
-4.3231416 0.52335334 4.0566759 3414038
-4.2832642 0.52335334 4.0566759 3413782
-4.7148743 0.58150375 4.5074177 3479572
-4.6705661 0.58150375 4.5074177 3414038
-4.6262579 0.58150375 4.5074177 3217429
-4.5819497 0.58150375 4.5074177 2888724
-4.5376415 0.58150375 4.5074177 853258
-4.4933338 0.58150375 4.5074177 852489
-4.4490256 0.58150375 4.5074177 984075
-3.9642456 0.52335334 4.0566759 984329
-3.9243684 0.52335334 4.0566759 918536
-3.884491 0.52335334 4.0566759 918281
-4.2717929 0.58150375 4.5074177 1114888
-3.8047364 0.52335334 4.0566759 852489
-3.7648592 0.52335334 4.0566759 918282
-3.7249818 0.52335334 4.0566759 918282
-3.6851046 0.52335334 4.0566759 917769
-3.3138428 0.47577575 3.687887 918537
-3.60535 0.52335334 4.0566759 1049609
-3.5654726 0.52335334 4.0566759 1180938
-3.5255952 0.52335334 4.0566759 1246731
-3.1688342 0.47577575 3.687887 1050122
-3.1325822 0.47577575 3.687887 1246731
-3.4059634 0.52335334 4.0566759 1378060
-3.366086 0.52335334 4.0566759 1443853
-3.3262088 0.52335334 4.0566759 1180937
-2.9875739 0.47577575 3.687887 983817
-2.9513218 0.47577575 3.687887 1181708
-2.9150696 0.47577575 3.687887 1181452
-3.1666996 0.52335334 4.0566759 1707024
-3.1268222 0.52335334 4.0566759 1837840
-3.4299388 0.58150375 4.5074177 1706254
-3.3856306 0.58150375 4.5074177 918027
-3.3413227 0.58150375 4.5074177 1049868
-3.2970145 0.58150375 4.5074177 852489
-3.6592944 0.65419167 5.0708447 720903
-3.6094477 0.65419167 5.0708447 590089
-3.1640902 0.58150375 4.5074177 786953
-3.119782 0.58150375 4.5074177 1575693
-3.0754738 0.58150375 4.5074177 1509645
-3.0311658 0.58150375 4.5074177 1378316
-3.3602147 0.65419167 5.0708447 1443854
-3.3103681 0.65419167 5.0708447 1115661
-3.2605214 0.65419167 5.0708447 1049868
-3.2106748 0.65419167 5.0708447 984329
-3.1608281 0.65419167 5.0708447 918282
-3.1109815 0.65419167 5.0708447 852489
-3.0611348 0.65419167 5.0708447 1050122
-3.0112882 0.65419167 5.0708447 1509388
-2.9614415 0.65419167 5.0708447 2230795
-2.9115949 0.65419167 5.0708447 2953745
-2.8617485 0.65419167 5.0708447 3216659
-2.8119018 0.65419167 5.0708447 3545365
-2.7620552 0.65419167 5.0708447 3676694
-3.0996668 0.74764758 5.7952509 3545622
-3.0426991 0.74764758 5.7952509 3479574
-2.9857316 0.74764758 5.7952509 3348500
0 0 0 3479573
0 0 0 3281683
-0.21417177 0.05688623 0.440943 5977137
-0.20983727 0.05688623 0.440943 5648940
-0.20550278 0.05688623 0.440943 5122853
-0.1990052 0.056274552 0.43620169 4793890
-0.19471732 0.056274552 0.43620169 5056287
-0.19042943 0.056274552 0.43620169 4858652
-0.18614155 0.056274552 0.43620169 4792604
-0.18185367 0.056274552 0.43620169 4530205
-0.17756578 0.056274552 0.43620169 4595738
-0.17516136 0.05688623 0.440943 4398617
-0.17270409 0.057511356 0.44578853 3872790
-0.16832197 0.057511356 0.44578853 4069910
-0.16762388 0.058803745 0.45580626 3938326
-0.16314329 0.058803745 0.45580626 3872790
-0.15866269 0.058803745 0.45580626 3609874
-0.15246896 0.05815037 0.45074174 3085074
-0.14970151 0.058803745 0.45580626 2166034
-0.15205483 0.06157098 0.47725597 1378576
-0.15275472 0.063823581 0.49471655 721675
-0.15158895 0.065419167 0.50708449 721673
-0.15231612 0.067967966 0.52684098 787468
-0.14713725 0.067967966 0.52684098 786696
-0.14195837 0.067967966 0.52684098 655881
-0.1367795 0.067967966 0.52684098 655627
-0.12826897 0.066247255 0.51350325 720905
-0.12017871 0.064611524 0.50082415 720905
-0.11525559 0.064611524 0.50082415 721162
-0.11171164 0.065419167 0.50708449 590344
-0.10412387 0.063823581 0.49471655 852743
-0.095757462 0.06157098 0.47725597 524551
-0.09106601 0.06157098 0.47725597 524298
-0.089534611 0.063823581 0.49471655 458759
-0.083651386 0.063054621 0.48875612 524294
-0.078846894 0.063054621 0.48875612 393224
-0.074042395 0.063054621 0.48875612 590089
-0.072743617 0.066247255 0.51350325 720905
-0.073259905 0.071692236 0.555709 524296
-0.061101232 0.064611524 0.50082415 524296
-0.052911937 0.060855038 0.47170648 590089
-0.047177881 0.059471969 0.46098587 524294
-0.042646371 0.059471969 0.46098587 655880
-0.038114857 0.059471969 0.46098587 524296
-0.033583347 0.059471969 0.46098587 721161
-0.029727459 0.060855038 0.47170648 720903
-0.025090564 0.060855038 0.47170648 721160
-0.020694299 0.06157098 0.47725597 852489
-0.016193362 0.062303968 0.48293757 852491
0 0 0 917769
0 0 0 917512
0 0 0 786696
0 0 0 983559
0.0093179829 0.076963723 0.59656996 918282
0.015182292 0.076963723 0.59656996 918282
0 0 0 983305
0 0 0 852489
0 0 0 1049352
0 0 0 1575439
0 0 0 786696
0 0 0 852489
0 0 0 786696
0 0 0 983305
0 0 0 918282
0 0 0 1049352
0 0 0 1443855
0 0 0 2822673
0 0 0 5254953
0 0 0 8011568
0 0 0 10635055
0 0 0 11421743
0.41113356 0.27544913 2.1350925 11683116
0.4321216 0.27544913 2.1350925 12076843
0.47828245 0.29075187 2.2537088 12274479
0.52987391 0.30785489 2.3862798 12143662
0.55333114 0.30785489 2.3862798 12340785
0.61283767 0.32709584 2.5354223 12275762
0.637761 0.32709584 2.5354223 12210486
0.66268432 0.32709584 2.5354223 12275505
0.55008614 0.26167667 2.028338 11882545
0.57002479 0.26167667 2.028338 10898997
0.53633034 0.23788787 1.8439435 10307636
0.50825173 0.21806389 1.6902815 9192755
0.46654868 0.19383457 1.5024725 8997436
0.44812369 0.18046667 1.3988537 7421235
0.41857377 0.16354792 1.2677112 6634547
0.4597711 0.1744511 1.3522252 5714734
0.47306353 0.1744511 1.3522252 4992043
0.50312686 0.18046667 1.3988537 3941412
0.53533757 0.1869119 1.4488127 3678241
0.59185487 0.20128974 1.5602599 3480862
0.63147992 0.20934133 1.6226703 2955288
0.64743084 0.20934133 1.6226703 2101011
0.66338181 0.20934133 1.6226703 2298391
0.7076382 0.21806389 1.6902815 2363667
0.66854197 0.20128974 1.5602599 1245703
0.6585505 0.19383457 1.5024725 2166288
0.67331988 0.19383457 1.5024725 1903633
0.68808925 0.19383457 1.5024725 1246731
0.70285863 0.19383457 1.5024725 852489
0.74522913 0.20128974 1.5602599 851976
0.76056653 0.20128974 1.5602599 3612704
0.80694008 0.20934133 1.6226703 4793370
0.79124135 0.20128974 1.5602599 4727835
0.83884192 0.20934133 1.6226703 4727578
0.85479283 0.20934133 1.6226703 4662041
0.9464606 0.22754492 1.763772 4596763
1.0555888 0.24921587 1.9317503 4596763
1.074578 0.24921587 1.9317503 4464921
1.1482457 0.26167667 2.028338 4596509
1.1681844 0.26167667 2.028338 4006177
1.188123 0.26167667 2.028338 3085845
1.2080617 0.26167667 2.028338 3151640
1.2280003 0.26167667 2.028338 4794918
1.247939 0.26167667 2.028338 5123110
1.2075025 0.24921587 1.9317503 4859681
1.170742 0.23788787 1.8439435 4267547
1.2454808 0.24921587 1.9317503 3742231
1.26447 0.24921587 1.9317503 3807512
1.2834592 0.24921587 1.9317503 3609364
1.3024484 0.24921587 1.9317503 2887181
1.3214376 0.24921587 1.9317503 2427403
1.4074482 0.26167667 2.028338 1640459
1.359416 0.24921587 1.9317503 1706765
1.3784052 0.24921587 1.9317503 3414805
1.3973943 0.24921587 1.9317503 3480085
1.4872029 0.26167667 2.028338 3414038
1.5071415 0.26167667 2.028338 3676697
1.5270802 0.26167667 2.028338 3348502
1.4733511 0.24921587 1.9317503 3348503
1.4923403 0.24921587 1.9317503 3348759
1.4426327 0.23788787 1.8439435 3611670
1.4607588 0.23788787 1.8439435 4531745
1.4788848 0.23788787 1.8439435 4596765
1.4970108 0.23788787 1.8439435 4268316
1.515137 0.23788787 1.8439435 4662304
1.4665993 0.22754492 1.763772 4597535
1.4839373 0.22754492 1.763772 4662560
1.5012753 0.22754492 1.763772 4136478
1.5186132 0.22754492 1.763772 3479572
1.5359511 0.22754492 1.763772 3282707
1.5532892 0.22754492 1.763772 3283223
1.5706271 0.22754492 1.763772 3283480
1.587965 0.22754492 1.763772 3545882
1.605303 0.22754492 1.763772 3414808
1.622641 0.22754492 1.763772 3087387
1.6399789 0.22754492 1.763772 3414810
1.6573169 0.22754492 1.763772 3545624
1.6746548 0.22754492 1.763772 3546394
1.6919928 0.22754492 1.763772 3546396
1.6381086 0.21806389 1.6902815 3546139
1.7266687 0.22754492 1.763772 3348762
1.6713398 0.21806389 1.6902815 3414811
1.6879553 0.21806389 1.6902815 3283223
1.7045708 0.21806389 1.6902815 3283737
1.7960205 0.22754492 1.763772 3086617
1.8133585 0.22754492 1.763772 3218459
1.8306965 0.22754492 1.763772 3349533
1.7710329 0.21806389 1.6902815 3349275
