# .PCD v0.7 - Point Cloud Data file format
VERSION 0.7
FIELDS x y z rgb
SIZE 4 4 4 4
TYPE F F F U
COUNT 1 1 1 1
WIDTH 1298
HEIGHT 1
VIEWPOINT 0 0 0 1 0 0 0
POINTS 1298
DATA ascii
1.0940567 0.68786901 1.6226703 10564641
1.1562579 0.7165302 1.6902815 10761249
1.1728734 0.7165302 1.6902815 10499104
1.189489 0.7165302 1.6902815 10499618
1.1578604 0.68786901 1.6226703 10630433
1.1286647 0.66141254 1.5602599 10368545
1.1440022 0.66141254 1.5602599 10237474
1.0765295 0.6141687 1.4488127 10171683
1.0907714 0.6141687 1.4488127 10237219
1.1050134 0.6141687 1.4488127 10302499
1.2535659 0.68786901 1.6226703 10434085
1.1334971 0.6141687 1.4488127 10565927
1.2854677 0.68786901 1.6226703 10237732
1.3014187 0.68786901 1.6226703 10369061
1.3173696 0.68786901 1.6226703 10434085
1.3333205 0.68786901 1.6226703 10172709
1.3492714 0.68786901 1.6226703 10369061
1.3652223 0.68786901 1.6226703 10369062
1.4387221 0.7165302 1.6902815 10237476
1.4553376 0.7165302 1.6902815 10041380
1.4719532 0.7165302 1.6902815 10041122
1.429026 0.68786901 1.6226703 9778467
1.4449769 0.68786901 1.6226703 9844263
1.4609278 0.68786901 1.6226703 9844261
1.4768788 0.68786901 1.6226703 10041126
1.5550309 0.7165302 1.6902815 9975332
1.5716465 0.7165302 1.6902815 10041382
1.588262 0.7165302 1.6902815 9975589
1.6746548 0.74768364 1.763772 10171686
1.853135 0.81889164 1.9317503 9975847
2.4571631 1.0747952 2.5354223 10041381
2.2062991 0.95537364 2.2537088 10237989
2.5070097 1.0747952 2.5354223 9910054
1.8414057 0.78166932 1.8439435 9712932
1.8595318 0.78166932 1.8439435 9778727
1.8776579 0.78166932 1.8439435 9844261
1.9860593 0.81889164 1.9317503 9975333
2.4768248 1.011572 2.3862798 9976614
2.5002818 1.011572 2.3862798 9976102
2.5237391 1.011572 2.3862798 9844774
1.9682881 0.78166932 1.8439435 9976362
2.5706537 1.011572 2.3862798 10238759
1.7639954 0.68786901 1.6226703 10108200
1.7799463 0.68786901 1.6226703 9976360
1.2134441 0.46477634 1.0963988 10041894
1.1614412 0.44094166 1.0401733 10042153
1.0879756 0.40944582 0.96587515 10239273
1.0974702 0.40944582 0.96587515 10239788
1.1069648 0.40944582 0.96587515 10108460
1.1436901 0.41943231 0.98943311 10371372
0 0 0 10174509
0 0 0 10436654
0 0 0 10306351
0 0 0 10043435
0 0 0 10175278
0 0 0 10109483
0 0 0 8927271
0 0 0 6631458
0 0 0 6041120
0 0 0 6435623
0 0 0 6106917
0 0 0 5844002
0 0 0 5318687
0 0 0 5122594
0 0 0 2101269
0 0 0 3218461
0 0 0 4665131
0 0 0 4204577
-0.79363191 0.29325828 0.67611259 4006942
-0.7869857 0.29325828 0.67611259 5450019
-0.78033948 0.29325828 0.67611259 7615526
-0.76100981 0.28845078 0.66502881 8205350
-0.75447249 0.28845078 0.66502881 8336166
-0.74793524 0.28845078 0.66502881 8861222
-0.74139798 0.28845078 0.66502881 9188388
-0.73486072 0.28845078 0.66502881 9319200
-0.77943391 0.30869296 0.71169752 9253409
-0.81535107 0.32584256 0.75123626 9188129
-0.82321101 0.33199051 0.76541048 9318946
-0.815687 0.33199051 0.76541048 9187105
-0.80816299 0.33199051 0.76541048 9121824
-0.81603593 0.33837497 0.78012997 9318945
-0.79311496 0.33199051 0.76541048 9383970
-0.78559089 0.33199051 0.76541048 9318432
-0.76365829 0.32584256 0.75123626 9384994
-0.77054286 0.33199051 0.76541048 9253667
-0.76301885 0.33199051 0.76541048 9384483
-0.77002364 0.33837497 0.78012997 9515296
-0.76235491 0.33837497 0.78012997 9515298
-0.78487366 0.35190997 0.81133515 9581089
-0.77689815 0.35190997 0.81133515 9843231
-0.72539878 0.33199051 0.76541048 9843745
-0.70458078 0.32584256 0.75123626 10040097
-0.71035069 0.33199051 0.76541048 10499365
-0.71634263 0.33837497 0.78012997 10105890
-0.72256947 0.34500974 0.79542661 10301984
-0.71475041 0.34500974 0.79542661 10303011
-0.69333649 0.33837497 0.78012997 10368547
-0.67273062 0.33199051 0.76541048 10040610
-0.652888 0.32584256 0.75123626 10171683
-0.67033035 0.33837497 0.78012997 9777440
-0.66266167 0.33837497 0.78012997 9910051
-0.68119264 0.35190997 0.81133515 10171425
-0.67321718 0.35190997 0.81133515 10106145
-0.66524172 0.35190997 0.81133515 10368032
-0.65726626 0.35190997 0.81133515 10368290
-0.6492908 0.35190997 0.81133515 10302495
-0.68225032 0.37437227 0.86312246 10367775
-0.70371097 0.39101106 0.90148348 10564640
-0.69484931 0.39101106 0.90148348 10368289
-0.68598771 0.39101106 0.90148348 10368290
-0.63480568 0.36657286 0.84514076 10302241
-0.66826445 0.39101106 0.90148348 10302497
-0.64506799 0.38251081 0.88188601 10433570
-0.63639903 0.38251081 0.88188601 10368290
-0.62773001 0.38251081 0.88188601 10367777
-0.63281798 0.39101106 0.90148348 10301982
-0.62395638 0.39101106 0.90148348 10302238
-0.61509472 0.39101106 0.90148348 10171680
-0.59305412 0.38251081 0.88188601 10368288
-0.58438516 0.38251081 0.88188601 10367777
-0.57571614 0.38251081 0.88188601 10236704
-0.56704718 0.38251081 0.88188601 10433570
0 0 0 10433054
0 0 0 10236189
0 0 0 10040095
0 0 0 10499106
-0.73000926 0.53319687 1.2292956 10432799
-0.71792519 0.53319687 1.2292956 10302240
-0.70584118 0.53319687 1.2292956 10236702
-0.67335254 0.51751465 1.1931399 10301983
-0.62486708 0.48876384 1.1268544 10104860
-0.47013703 0.37437227 0.86312246 10104605
-0.45203474 0.36657286 0.84514076 10170398
-0.44372696 0.36657286 0.84514076 10236191
-0.4354192 0.36657286 0.84514076 10236191
-0.41839486 0.35909179 0.82789302 10170142
-0.29134166 0.25500721 0.587924 10498849
-0.27751836 0.24782392 0.57136279 10367777
-0.26445246 0.24103421 0.555709 10367518
-0.2662853 0.24782392 0.57136279 10367775
-0.26822439 0.25500721 0.587924 10563872
-0.25505227 0.24782392 0.57136279 10498849
-0.19677708 0.19550553 0.45074174 10367775
-0.19234626 0.19550553 0.45074174 10301982
-0.19665571 0.20459881 0.47170648 10695200
-0.22935581 0.24438192 0.56342721 10367263
0 0 0 10563869
0 0 0 10432798
-0.22198984 0.25500721 0.587924 10563870
-0.20720176 0.24438192 0.56342721 10563357
-0.19890073 0.24103421 0.555709 10564124
0 0 0 10563870
0 0 0 10367262
-0.19309324 0.25500721 0.587924 10235677
-0.18731391 0.25500721 0.587924 10170140
-0.18978617 0.26659843 0.61464781 10433056
-0.186571 0.27069998 0.62410396 10629663
-0.21324256 0.31991813 0.73757738 10498847
-0.20599215 0.31991813 0.73757738 10564127
-0.19874173 0.31991813 0.73757738 10563872
-0.18807182 0.31420532 0.72440636 10629663
-0.18095088 0.31420532 0.72440636 10695199
-0.14107937 0.25500721 0.587924 10563870
-0.12966256 0.24438192 0.56342721 10498332
-0.1224237 0.24103421 0.555709 10695199
-0.11088516 0.22851294 0.52684098 10760990
-0.10570628 0.22851294 0.52684098 10367261
-0.10052741 0.22851294 0.52684098 10564894
-0.095348544 0.22851294 0.52684098 10695710
-0.093825199 0.23777699 0.54819942 10498847
0 0 0 10433568
0 0 0 10695197
-0.082096368 0.25136426 0.57952511 10760988
-0.075323559 0.24782392 0.57136279 10892576
-0.069707043 0.24782392 0.57136279 11154720
-0.0650061 0.25136426 0.57952511 10761247
0 0 0 10892575
0 0 0 11089697
0 0 0 11285793
0 0 0 11154978
0 0 0 10892318
0 0 0 11154978
-0.083762638 0.83788085 1.9317503 11220771
-0.064773448 0.83788085 1.9317503 10892574
-0.045784254 0.83788085 1.9317503 11154978
-0.033099782 1.0350293 2.3862798 11023390
-0.0081961621 0.87977493 2.028338 11154976
0.011742491 0.87977493 2.028338 10761503
0.018635966 0.51751465 1.1931399 10892574
0.029497026 0.50272852 1.1590502 11024162
0.029816018 0.36657286 0.84514076 10892576
0.040665377 0.39101106 0.90148348 10957599
0.050652612 0.39989766 0.92197174 10958112
0 0 0 11156005
0 0 0 11155491
0 0 0 11024161
0 0 0 11155488
0.15080643 0.62841064 1.4488127 11417636
0.16504833 0.62841064 1.4488127 11286563
0.17929022 0.62841064 1.4488127 11352100
0.18062997 0.58651656 1.3522252 11221540
0.17629309 0.53319687 1.2292956 11352353
0.19426392 0.54985929 1.2677112 11024162
0.3150104 0.83788085 1.9317503 11614242
0.3339996 0.83788085 1.9317503 11155746
0.35298878 0.83788085 1.9317503 11155746
0.3124615 0.70381993 1.6226703 11352353
0.39096716 0.83788085 1.9317503 11352355
0.40995637 0.83788085 1.9317503 11286561
0.40944803 0.79979533 1.8439435 11352098
0.42757407 0.79979533 1.8439435 11221282
0.44570011 0.79979533 1.8439435 11548963
0.46382618 0.79979533 1.8439435 11221797
0.48195222 0.79979533 1.8439435 11352357
0.52389151 0.83788085 1.9317503 11286562
0.51820433 0.79979533 1.8439435 11483426
0.51301163 0.76502162 1.763772 11680291
0.50825173 0.73314571 1.6902815 11679521
0.50387257 0.70381993 1.6226703 11680550
0.49983031 0.67674994 1.5602599 11746086
0.47837001 0.62841064 1.4488127 11614244
0.49261189 0.62841064 1.4488127 11483684
0.50685376 0.62841064 1.4488127 11483940
0.56118 0.67674994 1.5602599 11549732
0.59957808 0.70381993 1.6226703 11483169
0.615529 0.70381993 1.6226703 11680549
0.63147992 0.70381993 1.6226703 11484197
0.64743084 0.70381993 1.6226703 11221797
0.66338181 0.70381993 1.6226703 10893859
0.67933273 0.70381993 1.6226703 11156005
0.69528365 0.70381993 1.6226703 11090725
0.74086928 0.73314571 1.6902815 11089953
0.75748485 0.73314571 1.6902815 10696225
0.77410042 0.73314571 1.6902815 11089955
0.79071593 0.73314571 1.6902815 10893605
0.8073315 0.73314571 1.6902815 10958628
0.82394701 0.73314571 1.6902815 11024421
0.84056258 0.73314571 1.6902815 10893602
0.85717809 0.73314571 1.6902815 11155235
0.87379366 0.73314571 1.6902815 10959652
0.89040917 0.73314571 1.6902815 10958882
0.98948157 0.79979533 1.8439435 10893091
1.0076076 0.79979533 1.8439435 10499618
1.0257336 0.79979533 1.8439435 10500133
1.0438597 0.79979533 1.8439435 10631460
1.0619857 0.79979533 1.8439435 10106402
1.0331504 0.76502162 1.763772 10171683
1.0504884 0.76502162 1.763772 10696227
1.0678263 0.76502162 1.763772 10565154
1.0851643 0.76502162 1.763772 10696480
1.1025022 0.76502162 1.763772 10958367
1.0731802 0.73314571 1.6902815 10564897
1.046204 0.70381993 1.6226703 10564898
1.0621549 0.70381993 1.6226703 10695456
1.0781058 0.70381993 1.6226703 10761249
1.0940567 0.70381993 1.6226703 10695714
1.1562579 0.73314571 1.6902815 10696485
1.1728734 0.73314571 1.6902815 10696485
1.189489 0.73314571 1.6902815 10564899
1.1578604 0.70381993 1.6226703 10499363
1.0868623 0.65168512 1.5024725 10630692
1.0622877 0.62841064 1.4488127 10630177
1.0765295 0.62841064 1.4488127 10368292
1.0907714 0.62841064 1.4488127 10302497
1.1050134 0.62841064 1.4488127 10564640
1.0806602 0.60674131 1.3988537 10433568
1.094411 0.60674131 1.3988537 10172709
1.1477391 0.62841064 1.4488127 9975587
1.2513641 0.67674994 1.5602599 9778468
1.2667016 0.67674994 1.5602599 10434340
1.3333205 0.70381993 1.6226703 10304038
1.3492714 0.70381993 1.6226703 10041637
1.3652223 0.70381993 1.6226703 10172966
1.3811733 0.70381993 1.6226703 10172964
1.3971242 0.70381993 1.6226703 10107173
1.4130751 0.70381993 1.6226703 10172966
1.429026 0.70381993 1.6226703 10237989
1.4449769 0.70381993 1.6226703 10237989
1.4609278 0.70381993 1.6226703 10107174
1.4768788 0.70381993 1.6226703 10172712
1.4354132 0.67674994 1.5602599 9844774
1.5716465 0.73314571 1.6902815 9845546
1.588262 0.73314571 1.6902815 9975846
1.6746548 0.76502162 1.763772 9909797
3.5378032 1.5995907 3.687887 9909541
3.5740552 1.5995907 3.687887 9975333
2.4820864 1.0997186 2.5354223 9844258
2.2284532 0.97752768 2.2537088 10171940
2.0255466 0.87977493 2.028338 9778722
1.8595318 0.79979533 1.8439435 9778981
1.8776579 0.79979533 1.8439435 9844519
1.9860593 0.83788085 1.9317503 9844262
2.0050485 0.83788085 1.9317503 9975587
2.0240376 0.83788085 1.9317503 10237989
2.0430269 0.83788085 1.9317503 9976101
1.8827103 0.76502162 1.763772 10107431
1.3656597 0.54985929 1.2677112 10239273
1.1918888 0.47555399 1.0963988 10173480
1.2026664 0.47555399 1.0963988 10435884
1.2134441 0.47555399 1.0963988 10173483
1.1324052 0.43988746 1.014169 10370859
1.1423745 0.43988746 1.014169 10107685
1.0974702 0.41894042 0.96587515 10305066
1.1069648 0.41894042 0.96587515 10240302
1.1436901 0.42915848 0.98943311 10042410
0 0 0 10042924
0 0 0 10239790
0 0 0 10304812
0 0 0 10436656
0 0 0 9911337
0 0 0 9845544
0 0 0 9780266
0 0 0 7877925
0 0 0 6237472
0 0 0 5778207
0 0 0 6106916
0 0 0 6106659
0 0 0 5449760
0 0 0 4859168
0 0 0 4793117
0 0 0 6631976
0 0 0 6961708
0 0 0 7615525
-0.83540207 0.31568897 0.71169752 8401185
-0.8003245 0.30498764 0.68757218 8860708
-0.76754707 0.29498804 0.66502881 8860709
-0.76100981 0.29498804 0.66502881 8925988
-0.75447249 0.29498804 0.66502881 9188131
-0.74793524 0.29498804 0.66502881 9122082
-0.74139798 0.29498804 0.66502881 9253409
-0.77287072 0.31024605 0.69942683 9188129
-0.77943391 0.31568897 0.71169752 9318688
-0.7862314 0.32132626 0.72440636 9056289
-0.77911043 0.32132626 0.72440636 8990750
-0.77198946 0.32132626 0.72440636 8924703
-0.75144982 0.31568897 0.71169752 9253152
-0.77152479 0.32716855 0.73757738 9384223
-0.76427442 0.32716855 0.73757738 9187614
-0.771043 0.33322725 0.75123626 9383710
-0.74977356 0.32716855 0.73757738 9384223
-0.75627363 0.33322725 0.75123626 9515807
-0.74888891 0.33322725 0.75123626 9384995
-0.75549483 0.33951452 0.76541048 9450018
-0.74797082 0.33951452 0.76541048 9646884
-0.80089146 0.36723003 0.82789302 9974819
-0.80926889 0.37488064 0.84514076 9974563
-0.78461504 0.36723003 0.82789302 10434083
-0.7316801 0.34604368 0.78012997 10302245
-0.72401136 0.34604368 0.78012997 10171683
-0.71634263 0.34604368 0.78012997 10303267
-0.68242675 0.33322725 0.75123626 10171681
-0.68777865 0.33951452 0.76541048 10237474
-0.68025464 0.33951452 0.76541048 10302497
-0.67273062 0.33951452 0.76541048 10236962
-0.652888 0.33322725 0.75123626 10236704
-0.64550334 0.33322725 0.75123626 9909281
-0.66266167 0.34604368 0.78012997 9580832
-0.65499294 0.34604368 0.78012997 9843232
-0.6473242 0.34604368 0.78012997 9842974
-0.65219778 0.35282883 0.79542661 10236704
-0.65726626 0.35988542 0.81133515 10170911
-0.6492908 0.35988542 0.81133515 10039838
-0.65440339 0.36723003 0.82789302 10368032
-0.70371097 0.39987269 0.90148348 10301984
-0.69484931 0.39987269 0.90148348 10367779
-0.68598771 0.39987269 0.90148348 10302241
-0.63480568 0.37488064 0.84514076 10302497
-0.63982767 0.38285682 0.86312246 10433570
-0.63134313 0.38285682 0.86312246 10303009
-0.63639903 0.3911798 0.88188601 10368288
-0.64167958 0.39987269 0.90148348 10302238
-0.64720023 0.4089607 0.92197174 10236961
-0.63813716 0.4089607 0.92197174 10433570
-0.61509472 0.39987269 0.90148348 10433568
-0.60623312 0.39987269 0.90148348 10368032
-0.59737146 0.39987269 0.90148348 10302240
-0.57571614 0.3911798 0.88188601 10171424
-0.55498236 0.38285682 0.86312246 10236702
-0.54649782 0.38285682 0.86312246 10236449
0 0 0 10236704
0 0 0 10367261
0 0 0 10301981
0 0 0 10563870
-0.71792519 0.54528093 1.2292956 10367519
-0.70584118 0.54528093 1.2292956 10367776
-0.69375712 0.54528093 1.2292956 10170655
-0.62486708 0.49984089 1.1268544 10302497
-0.47013703 0.38285682 0.86312246 10368290
-0.45203474 0.37488064 0.84514076 10171680
-0.44372696 0.37488064 0.84514076 10368032
-0.4354192 0.37488064 0.84514076 10105118
-0.42711142 0.37488064 0.84514076 10433056
-0.29134166 0.26078653 0.587924 10498849
-0.28556234 0.26078653 0.587924 10236191
-0.27578613 0.257061 0.57952511 10498592
-0.27008939 0.257061 0.57952511 10432797
-0.26822439 0.26078653 0.587924 10563870
-0.24806452 0.24649686 0.555709 10433054
-0.19677708 0.19993635 0.45074174 10367516
-0.19450746 0.20218281 0.45580626 10367775
-0.19002686 0.20218281 0.45580626 10760736
-0.19201882 0.20923571 0.47170648 10498590
-0.18738192 0.20923571 0.47170648 10367261
-0.2182788 0.24992044 0.56342721 10433056
-0.22198984 0.26078653 0.587924 10629664
-0.21621051 0.26078653 0.587924 10432542
-0.20166324 0.24992044 0.56342721 10235677
-0.19343808 0.24649686 0.555709 10760736
-0.19887255 0.26078653 0.587924 10694943
-0.19309324 0.26078653 0.587924 10367519
-0.18731391 0.26078653 0.587924 10236191
-0.18420424 0.26462162 0.59656996 10432541
-0.18374415 0.27264047 0.61464781 10104861
-0.17770213 0.27264047 0.61464781 10433055
-0.17430106 0.27683493 0.62410396 10498335
-0.16816609 0.27683493 0.62410396 10367262
-0.16203111 0.27683493 0.62410396 10498077
-0.14685868 0.26078653 0.587924 10367261
-0.13906395 0.257061 0.57952511 10498849
-0.12966256 0.24992044 0.56342721 10629663
-0.1224237 0.24649686 0.555709 10564382
-0.11234418 0.23676673 0.53377312 10760991
-0.10709716 0.23676673 0.53377312 10563869
-0.10052741 0.23369183 0.52684098 10695454
-0.096603133 0.23676673 0.53377312 10498847
-0.091356121 0.23676673 0.53377312 10498847
-0.08843638 0.24316582 0.54819942 10695197
0 0 0 10696226
-0.083286174 0.26078653 0.587924 10564640
-0.077506848 0.26078653 0.587924 10695456
-0.070702858 0.257061 0.57952511 10760736
-0.0650061 0.257061 0.57952511 10826783
0 0 0 10827296
0 0 0 11024161
0 0 0 11023648
0 0 0 11089441
0 0 0 10827040
0 0 0 11023391
0 0 0 11023904
0 0 0 10958625
-0.056557018 1.0584865 2.3862798 11351329
0 0 0 11089696
-0.0096425433 1.0584865 2.3862798 10892318
0.011742491 0.89971358 2.028338 10826782
0.018635966 0.52924323 1.1931399 10958369
0.022443388 0.3911798 0.88188601 10893602
0.02920753 0.36723003 0.82789302 11154976
0.040665377 0.39987269 0.90148348 11089700
0.063677572 0.51412201 1.1590502 11023905
0 0 0 11024161
0 0 0 11221027
0 0 0 10893089
0.13656454 0.64265251 1.4488127 10958110
0.15080643 0.64265251 1.4488127 11220512
0.16504833 0.64265251 1.4488127 11352612
0.14765078 0.52924323 1.1931399 11089953
0.16420907 0.54528093 1.2292956 11417378
0.18180226 0.56232095 1.2677112 11351585
0.2220159 0.64265251 1.4488127 11024160
0 0 0 11024675
0.3339996 0.85687 1.9317503 11155748
0.2647416 0.64265251 1.4488127 11483941
0.27898347 0.64265251 1.4488127 11154978
0.37319595 0.8179214 1.8439435 11352355
0.39132199 0.8179214 1.8439435 11483170
0.40944803 0.8179214 1.8439435 11286819
0.44793475 0.85687 1.9317503 11352355
0.44570011 0.8179214 1.8439435 11352355
0.48591313 0.85687 1.9317503 11353638
0.5049023 0.85687 1.9317503 11352355
0.52389151 0.85687 1.9317503 11286561
0.54288071 0.85687 1.9317503 11483940
0.49163616 0.74976128 1.6902815 11418148
0.48792166 0.71977085 1.6226703 11352612
0.50387257 0.71977085 1.6226703 11286817
0.46412811 0.64265251 1.4488127 11679775
0.47837001 0.64265251 1.4488127 11614242
0.49261189 0.64265251 1.4488127 11548707
0.50685376 0.64265251 1.4488127 11548962
0.52109569 0.64265251 1.4488127 11483171
0.55516493 0.66645449 1.5024725 11353124
0.56993431 0.66645449 1.5024725 11221538
0.60719228 0.69208735 1.5602599 11418146
0.64743084 0.71977085 1.6226703 11287332
0.66338181 0.71977085 1.6226703 11418146
0.67933273 0.71977085 1.6226703 11090211
0.69528365 0.71977085 1.6226703 10761760
0.71123457 0.71977085 1.6226703 10892835
0.72718549 0.71977085 1.6226703 10958883
0.74313641 0.71977085 1.6226703 11024421
0.75908732 0.71977085 1.6226703 10828066
0.8073315 0.74976128 1.6902815 10959397
0.82394701 0.74976128 1.6902815 10959140
0.84056258 0.74976128 1.6902815 10958628
0.822891 0.71977085 1.6226703 10892831
0.83884192 0.71977085 1.6226703 11024673
0.82191622 0.69208735 1.5602599 11090468
0.87074375 0.71977085 1.6226703 11154976
0.96379858 0.7823596 1.763772 11024162
1.0257336 0.8179214 1.8439435 10893347
0.99847448 0.7823596 1.763772 10892835
0.9734869 0.74976128 1.6902815 10762020
0.99010247 0.74976128 1.6902815 10499620
1.006718 0.74976128 1.6902815 10499363
1.0678263 0.7823596 1.763772 10696228
1.0851643 0.7823596 1.763772 10564383
1.2075025 0.85687 1.9317503 10565153
1.170742 0.8179214 1.8439435 10564897
1.1371782 0.7823596 1.763772 10433570
1.1064112 0.74976128 1.6902815 10499362
1.0781058 0.71977085 1.6226703 10498847
1.0940567 0.71977085 1.6226703 10433568
1.1100076 0.71977085 1.6226703 10564899
1.1259586 0.71977085 1.6226703 10892835
1.1419095 0.71977085 1.6226703 10565154
1.0338038 0.64265251 1.4488127 10499362
1.0480458 0.64265251 1.4488127 10499362
0.99146849 0.59980899 1.3522252 10564388
1.0394078 0.6204921 1.3988537 10565156
1.0531586 0.6204921 1.3988537 10499106
1.0669094 0.6204921 1.3988537 10368033
1.0806602 0.6204921 1.3988537 10236704
1.094411 0.6204921 1.3988537 10106401
1.1081618 0.6204921 1.3988537 10041380
1.1219126 0.6204921 1.3988537 9975330
1.2667016 0.69208735 1.5602599 10171683
1.2820389 0.69208735 1.5602599 10107173
1.3492714 0.71977085 1.6226703 10106146
1.3652223 0.71977085 1.6226703 10106917
1.3811733 0.71977085 1.6226703 9713188
1.3971242 0.71977085 1.6226703 9778981
1.4130751 0.71977085 1.6226703 10238505
1.429026 0.71977085 1.6226703 10369832
1.4449769 0.71977085 1.6226703 9910310
1.4609278 0.71977085 1.6226703 9844774
1.4200758 0.69208735 1.5602599 10041894
1.3822497 0.66645449 1.5024725 10042409
1.5087806 0.71977085 1.6226703 9910824
1.588262 0.74976128 1.6902815 10107687
1.7507756 0.8179214 1.8439435 9910054
1.9457918 0.89971358 2.028338 10107688
2.184145 0.99968177 2.2537088 10041380
1.9856691 0.89971358 2.028338 9975331
2.0056078 0.89971358 2.028338 9778981
2.0255466 0.89971358 2.028338 9647138
2.045485 0.89971358 2.028338 9713188
1.7211864 0.74976128 1.6902815 9712675
1.8133585 0.7823596 1.763772 9778468
2.0050485 0.85687 1.9317503 9778981
2.0240376 0.85687 1.9317503 9975074
2.0430269 0.85687 1.9317503 9845028
1.3531981 0.56232095 1.2677112 9910821
1.1811111 0.48633164 1.0963988 9976101
1.1918888 0.48633164 1.0963988 9845285
1.1710173 0.47353345 1.0675462 10173480
1.1512163 0.46139157 1.0401733 10370345
1.1324052 0.44985679 1.014169 10567724
1.1423745 0.44985679 1.014169 10304809
1.1242378 0.43888465 0.98943311 10239016
1.1339639 0.43888465 0.98943311 10239529
1.1436901 0.43888465 0.98943311 10502957
1.1822518 0.44985679 1.014169 10371371
0 0 0 10305837
0 0 0 10371372
0 0 0 10305325
0 0 0 10173739
0 0 0 9977130
0 0 0 9844522
0 0 0 9124140
0 0 0 8010028
0 0 0 6763816
0 0 0 5778980
0 0 0 6171939
0 0 0 6041127
0 0 0 5646370
0 0 0 8599592
0 0 0 8926502
0 0 0 9057316
0 0 0 9253922
-0.89845121 0.34703854 0.76541048 9384995
-0.82840604 0.322685 0.71169752 9253154
-0.76754707 0.30152532 0.66502881 9319204
-0.74873543 0.296662 0.65430254 9122596
-0.75447249 0.30152532 0.66502881 9253668
-0.74793524 0.30152532 0.66502881 9187362
-0.77974612 0.31712145 0.69942683 9318687
-0.77287072 0.31712145 0.69942683 9056543
-0.76599532 0.31712145 0.69942683 8990496
-0.7862314 0.32844719 0.72440636 8925475
-0.77911043 0.32844719 0.72440636 8990751
-0.77198946 0.32844719 0.72440636 9318431
-0.76486856 0.32844719 0.72440636 9449503
-0.77152479 0.33441898 0.73757738 9450016
-0.76427442 0.33441898 0.73757738 9253407
-0.75702399 0.33441898 0.73757738 9318689
-0.74977356 0.33441898 0.73757738 9449503
-0.75627363 0.34061193 0.75123626 9450018
-0.76301885 0.34703854 0.76541048 9842977
-0.77002364 0.35371238 0.78012997 9581090
-0.76235491 0.35371238 0.78012997 9712675
-0.80089146 0.37536824 0.82789302 9974563
-0.79275328 0.37536824 0.82789302 10105890
-0.78461504 0.37536824 0.82789302 10368547
-0.7764768 0.37536824 0.82789302 10237475
-0.72401136 0.35371238 0.78012997 10172194
-0.70282668 0.34703854 0.76541048 10040608
-0.68242675 0.34061193 0.75123626 10170911
-0.67504203 0.34061193 0.75123626 10171938
-0.68025464 0.34703854 0.76541048 10236704
-0.66027266 0.34061193 0.75123626 10302497
-0.652888 0.34061193 0.75123626 9974560
-0.67033035 0.35371238 0.78012997 9843232
-0.66266167 0.35371238 0.78012997 10040095
-0.65499294 0.35371238 0.78012997 9777438
-0.6473242 0.35371238 0.78012997 9778208
-0.63965553 0.35371238 0.78012997 9974560
-0.64437866 0.36064792 0.79542661 10236961
-0.63655961 0.36064792 0.79542661 10302497
-0.65440339 0.37536824 0.82789302 10302497
-0.64626521 0.37536824 0.82789302 10171426
-0.63812697 0.37536824 0.82789302 10302754
-0.62998873 0.37536824 0.82789302 10368288
-0.62185049 0.37536824 0.82789302 10368288
-0.61371231 0.37536824 0.82789302 10367775
-0.61819017 0.3831884 0.84514076 10433568
-0.60988241 0.3831884 0.84514076 10433568
-0.62773001 0.39984876 0.88188601 10368290
-0.63281798 0.40873429 0.90148348 10302497
-0.61039209 0.39984876 0.88188601 10433569
-0.61509472 0.40873429 0.90148348 10564897
-0.60623312 0.40873429 0.90148348 10105888
-0.59737146 0.40873429 0.90148348 9909792
-0.56346691 0.39134136 0.86312246 10236704
-0.5434202 0.3831884 0.84514076 10236704
-0.54649782 0.39134136 0.86312246 10236703
-0.53801328 0.39134136 0.86312246 10171681
0 0 0 10301984
0 0 0 10367775
0 0 0 10433056
0 0 0 10301986
-0.70584118 0.55736494 1.2292956 10302499
-0.69375712 0.55736494 1.2292956 10367263
-0.66162395 0.54097188 1.1931399 10236704
-0.4603425 0.3831884 0.84514076 10236191
-0.45203474 0.3831884 0.84514076 10301726
-0.44372696 0.3831884 0.84514076 10301984
-0.4354192 0.3831884 0.84514076 10301728
-0.42711142 0.3831884 0.84514076 10367262
-0.29134166 0.26656586 0.587924 10301468
-0.28556234 0.26656586 0.587924 10367520
-0.27578613 0.26275778 0.57952511 10498079
-0.2662853 0.25905696 0.57136279 10301469
-0.25352716 0.2519595 0.555709 10432797
-0.22635889 0.22991306 0.50708449 10301982
-0.19677708 0.20436715 0.45074174 10366491
-0.19234626 0.20436715 0.45074174 10629404
-0.19002686 0.20666341 0.45580626 10629407
-0.19201882 0.2138726 0.47170648 10498078
-0.18738192 0.2138726 0.47170648 10498590
-0.18274502 0.2138726 0.47170648 10563870
-0.20154341 0.24201374 0.53377312 10433056
-0.20720176 0.25545895 0.56342721 10301727
-0.19890073 0.2519595 0.555709 10236190
-0.18827973 0.24524058 0.5408901 10236189
-0.18797544 0.2519595 0.555709 10695197
-0.1850477 0.25545895 0.56342721 10563614
-0.18203747 0.25905696 0.57136279 10104606
-0.18420424 0.27048594 0.59656996 10367263
-0.17833991 0.27048594 0.59656996 10039325
-0.17504987 0.27452305 0.605474 10170656
-0.16909803 0.27452305 0.605474 10170140
-0.16816609 0.28296992 0.62410396 10235933
-0.16203111 0.28296992 0.62410396 10104605
-0.15353407 0.27868247 0.61464781 10367263
-0.13906395 0.26275778 0.57952511 10563870
-0.13148879 0.25905696 0.57136279 10564640
-0.1224237 0.2519595 0.555709 10694943
-0.11234418 0.24201374 0.53377312 10826783
-0.10852512 0.24524058 0.5408901 10367004
-0.10320815 0.24524058 0.5408901 10498590
-0.097891174 0.24524058 0.5408901 10564126
-0.093825199 0.24855465 0.54819942 10760991
-0.08843638 0.24855465 0.54819942 10826270
-0.08418519 0.2519595 0.555709 10695710
-0.078722544 0.2519595 0.555709 10760990
-0.075323559 0.25905696 0.57136279 10498847
-0.069707043 0.25905696 0.57136279 10826783
-0.0650061 0.26275778 0.57952511 10565151
-0.059309341 0.26275778 0.57952511 10762016
0 0 0 10957599
0 0 0 10957855
0 0 0 10892062
0 0 0 10892576
0 0 0 11154976
0 0 0 11089955
0 0 0 11482658
0 0 0 11219999
0 0 0 11285792
0 0 0 11089185
0 0 0 10892576
0 0 0 11154976
0.022443388 0.39984876 0.88188601 11089955
0.031112367 0.39984876 0.88188601 11285794
0 0 0 11154978
0 0 0 11089955
0 0 0 11286564
0 0 0 11023904
0 0 0 10958625
0.13656454 0.65689439 1.4488127 10958625
0.1456062 0.63424289 1.3988537 11024162
0.14004101 0.55736494 1.2292956 10959652
0.14343219 0.52551556 1.1590502 11352355
0.15937939 0.54097188 1.1931399 11548964
0.17629309 0.55736494 1.2292956 11285794
0 0 0 10957599
0 0 0 10958367
0 0 0 11024418
0 0 0 11220769
0.27898347 0.65689439 1.4488127 11483172
0.30408558 0.68122387 1.5024725 11352355
0.40995637 0.8758592 1.9317503 11286049
0.42894554 0.8758592 1.9317503 11352355
0.47033152 0.91965222 2.028338 11221539
0.46692392 0.8758592 1.9317503 11156259
0.48591313 0.8758592 1.9317503 11418150
0.5049023 0.8758592 1.9317503 11680035
0.52389151 0.8758592 1.9317503 11417634
0.54288071 0.8758592 1.9317503 11417634
0.47197074 0.73572177 1.6226703 11023647
0.48792166 0.73572177 1.6226703 11220769
0.48449287 0.70742476 1.5602599 11221539
0.46412811 0.65689439 1.4488127 11615012
0.46187449 0.63424289 1.3988537 11548707
0.49261189 0.65689439 1.4488127 11746086
0.50685376 0.65689439 1.4488127 11615269
0.52109569 0.65689439 1.4488127 11614753
0.55516493 0.68122387 1.5024725 11286305
0.56993431 0.68122387 1.5024725 11155747
0.60719228 0.70742476 1.5602599 11286564
0.64743084 0.73572177 1.6226703 11220771
0.66338181 0.73572177 1.6226703 11286820
0.67933273 0.73572177 1.6226703 11090211
0.69528365 0.73572177 1.6226703 11024160
0.71123457 0.73572177 1.6226703 10630433
0.72718549 0.73572177 1.6226703 11024931
0.74313641 0.73572177 1.6226703 10696480
0.75908732 0.73572177 1.6226703 10237216
0.77503824 0.73572177 1.6226703 10303010
0.79098916 0.73572177 1.6226703 10499363
0.80694008 0.73572177 1.6226703 10827812
0.822891 0.73572177 1.6226703 10958882
0.83884192 0.73572177 1.6226703 10630430
0.82191622 0.70742476 1.5602599 10761505
0.83725363 0.70742476 1.5602599 11089955
0.88669467 0.73572177 1.6226703 10762019
0.90264559 0.73572177 1.6226703 10958882
0.91859657 0.73572177 1.6226703 10761762
0.9734869 0.76637679 1.6902815 10958630
0.99010247 0.76637679 1.6902815 10958882
1.006718 0.76637679 1.6902815 10892577
1.0233335 0.76637679 1.6902815 10630176
1.0399491 0.76637679 1.6902815 10630690
1.0565646 0.76637679 1.6902815 10565154
1.0731802 0.76637679 1.6902815 10695456
1.1371782 0.79969752 1.763772 10630433
1.1545161 0.79969752 1.763772 10236705
1.0781058 0.73572177 1.6226703 10105889
0.97683632 0.65689439 1.4488127 10368290
0.9910782 0.65689439 1.4488127 10368290
1.0826524 0.70742476 1.5602599 10630691
1.019562 0.65689439 1.4488127 10367775
0.99815547 0.63424289 1.3988537 10433825
1.0119063 0.63424289 1.3988537 10368290
0.99146849 0.61310142 1.3522252 10433826
1.0394078 0.63424289 1.3988537 10302498
1.0180533 0.61310142 1.3522252 10499363
1.0669094 0.63424289 1.3988537 10302497
1.0806602 0.63424289 1.3988537 10302754
1.094411 0.63424289 1.3988537 10237216
1.1081618 0.63424289 1.3988537 10236704
1.0845155 0.61310142 1.3522252 10171681
1.1762228 0.65689439 1.4488127 10040868
1.2820389 0.70742476 1.5602599 10105891
1.2973764 0.70742476 1.5602599 10105636
1.3652223 0.73572177 1.6226703 9975333
1.3811733 0.73572177 1.6226703 9713188
1.3971242 0.73572177 1.6226703 9844259
1.4130751 0.73572177 1.6226703 10106149
1.429026 0.73572177 1.6226703 9582374
1.5051843 0.76637679 1.6902815 9976360
1.4047384 0.70742476 1.5602599 10040869
1.3674804 0.68122387 1.5024725 9910312
1.3822497 0.68122387 1.5024725 9778983
1.5087806 0.73572177 1.6226703 9910056
1.588262 0.76637679 1.6902815 9778725
1.7507756 0.83604741 1.8439435 9910308
1.9457918 0.91965222 2.028338 10041640
3.2762172 1.5327536 3.380563 10042153
3.3094485 1.5327536 3.380563 10107430
3.0855503 1.4148495 3.1205199 9910308
2.0255466 0.91965222 2.028338 9975847
1.9480809 0.8758592 1.9317503 9910054
1.7211864 0.76637679 1.6902815 9910052
1.7378019 0.76637679 1.6902815 9910052
1.8306965 0.79969752 1.763772 9778211
2.0240376 0.8758592 1.9317503 9975845
2.0430269 0.8758592 1.9317503 9647138
1.2372097 0.52551556 1.1590502 9712675
1.1811111 0.49710929 1.0963988 9909796
1.1918888 0.49710929 1.0963988 9976614
1.1710173 0.48402748 1.0675462 9910820
1.1512163 0.47161654 1.0401733 10107687
1.1324052 0.45982611 1.014169 10239018
1.1423745 0.45982611 1.014169 10436395
1.1523438 0.45982611 1.014169 10371371
1.1623131 0.45982611 1.014169 10436650
1.1722825 0.45982611 1.014169 10371372
1.2444755 0.48402748 1.0675462 10305579
0 0 0 10043436
0 0 0 10240556
0 0 0 10306095
0 0 0 10240302
0 0 0 10108202
0 0 0 10173740
0 0 0 9911084
0 0 0 9387307
0 0 0 7879465
0 0 0 6237731
0 0 0 5515298
0 0 0 6106662
0 0 0 6172198
0 0 0 8926498
0 0 0 8926754
0 0 0 9057313
-0.84239805 0.32968101 0.71169752 9122334
-0.75583994 0.2982828 0.64391679 9056543
-0.76159906 0.30309382 0.65430254 8925987
-0.76754707 0.30806258 0.66502881 8991520
-0.76100981 0.30806258 0.66502881 9187872
-0.76704705 0.31319693 0.67611259 9122080
-0.80042195 0.32968101 0.71169752 8991009
-0.79342592 0.32968101 0.71169752 9188130
-0.78642994 0.32968101 0.71169752 9253151
-0.76599532 0.32399684 0.69942683 9318688
-0.77243787 0.32968101 0.71169752 9253408
-0.76544189 0.32968101 0.71169752 9515298
-0.77198946 0.33556816 0.72440636 9450016
-0.76486856 0.33556816 0.72440636 9515809
-0.75774759 0.33556816 0.72440636 9777697
-0.75062662 0.33556816 0.72440636 9581089
-0.74350572 0.33556816 0.72440636 9515296
-0.74977356 0.34166938 0.73757738 9581089
-0.75627363 0.34799662 0.75123626 9647137
-0.76301885 0.35456258 0.76541048 9974560
-0.81716794 0.38350648 0.82789302 9909284
-0.74797082 0.35456258 0.76541048 10106148
-0.80089146 0.38350648 0.82789302 10237219
-0.79275328 0.38350648 0.82789302 10302499
-0.78461504 0.38350648 0.82789302 10368291
-0.7764768 0.38350648 0.82789302 10237474
-0.72401136 0.36138111 0.78012997 10105888
-0.71634263 0.36138111 0.78012997 10106401
-0.69530267 0.35456258 0.76541048 10171681
-0.68777865 0.35456258 0.76541048 10171681
-0.68025464 0.35456258 0.76541048 9908510
-0.67273062 0.35456258 0.76541048 10040353
-0.66520661 0.35456258 0.76541048 9974815
-0.67033035 0.36138111 0.78012997 9974815
-0.66266167 0.36138111 0.78012997 10040609
-0.65499294 0.36138111 0.78012997 10040352
-0.6473242 0.36138111 0.78012997 10105890
-0.63965553 0.36138111 0.78012997 10171684
-0.64437866 0.368467 0.79542661 10040097
-0.63655961 0.368467 0.79542661 10237218
-0.62874055 0.368467 0.79542661 10236704
-0.64626521 0.38350648 0.82789302 10105118
-0.63812697 0.38350648 0.82789302 10302495
-0.62998873 0.38350648 0.82789302 10301983
-0.62185049 0.38350648 0.82789302 10368033
-0.61371231 0.38350648 0.82789302 10040353
-0.60557407 0.38350648 0.82789302 10105888
-0.59743583 0.38350648 0.82789302 10302241
-0.58929759 0.38350648 0.82789302 10236449
-0.61906105 0.40851775 0.88188601 10302499
-0.59740502 0.39982587 0.86312246 10433568
-0.58892047 0.39982587 0.86312246 10236704
-0.56834352 0.39149618 0.84514076 10171167
-0.56003577 0.39149618 0.84514076 10236704
-0.55172801 0.39149618 0.84514076 10236704
-0.5434202 0.39149618 0.84514076 10302239
-0.5241918 0.38350648 0.82789302 10302240
-0.53801328 0.39982587 0.86312246 10236704
0 0 0 10367775
0 0 0 10236704
0 0 0 10498592
0 0 0 10432799
-0.70584118 0.56944895 1.2292956 10629922
-0.69375712 0.56944895 1.2292956 10695456
-0.66162395 0.55270052 1.1931399 10564639
-0.491032 0.41759592 0.90148348 10302240
-0.46165249 0.39982587 0.86312246 10301984
-0.45316795 0.39982587 0.86312246 10301986
-0.4354192 0.39149618 0.84514076 10367777
-0.32033357 0.29362214 0.63385558 10433311
-0.28313488 0.26467347 0.57136279 10301984
-0.27751836 0.26467347 0.57136279 10236704
-0.27578613 0.26845452 0.57952511 10301984
-0.25898981 0.25742215 0.555709 10433054
-0.23134355 0.23489772 0.50708449 10367005
-0.2105664 0.2185095 0.47170648 10367006
-0.19461469 0.20650348 0.44578853 10367263
-0.19234626 0.20879796 0.45074174 10629664
-0.19002686 0.211144 0.45580626 10498077
-0.19201882 0.2185095 0.47170648 10432286
-0.18738192 0.2185095 0.47170648 10564128
-0.18709609 0.2237121 0.48293757 10563613
-0.18020351 0.2210802 0.47725597 10629663
-0.19374709 0.24404956 0.52684098 10498849
-0.18615068 0.24092074 0.52008665 10235933
-0.18338934 0.24404956 0.52684098 10301984
-0.18055536 0.24726075 0.53377312 10497821
-0.17764579 0.25055757 0.5408901 10629150
-0.17705014 0.25742215 0.555709 10235420
-0.17642096 0.26467347 0.57136279 10236191
-0.17575528 0.27234516 0.587924 10039327
-0.17247561 0.27635026 0.59656996 10432286
-0.15519957 0.25742215 0.555709 10170398
-0.16074699 0.27635026 0.59656996 10170398
-0.152638 0.27234516 0.587924 10236190
-0.15353407 0.28472447 0.61464781 10498590
-0.13906395 0.26845452 0.57952511 10629661
-0.13148879 0.26467347 0.57136279 10695456
-0.11759119 0.24726075 0.53377312 10563611
-0.11088516 0.24404956 0.52684098 10433055
-0.10570628 0.24404956 0.52684098 10629151
-0.10185014 0.24726075 0.53377312 10761246
-0.096603133 0.24726075 0.53377312 10760735
-0.091356121 0.24726075 0.53377312 10760736
-0.08843638 0.25394347 0.54819942 10695197
-0.083047554 0.25394347 0.54819942 10695710
-0.078722544 0.25742215 0.555709 10629661
-0.076399609 0.26845452 0.57952511 10761246
-0.070702858 0.26845452 0.57952511 10695199
-0.0650061 0.26845452 0.57952511 10629663
0 0 0 10761505
0 0 0 10827041
0 0 0 10826782
0 0 0 10630176
0 0 0 10958369
0 0 0 11024162
0 0 0 11351585
0 0 0 11351583
0 0 0 10958880
0 0 0 11024160
0 0 0 11416865
0 0 0 11089183
0 0 0 11285790
0 0 0 11416865
0.031112367 0.40851775 0.88188601 11351585
0 0 0 11089183
0 0 0 11023904
0 0 0 11220256
0 0 0 11089954
0 0 0 11024162
0.13185541 0.64799368 1.3988537 10761760
0.12795697 0.56944895 1.2292956 10827294
0.14004101 0.56944895 1.2292956 10827296
0.14343219 0.53690904 1.1590502 10827296
0.15937939 0.55270052 1.1931399 10893603
0 0 0 10892319
0 0 0 11220769
0 0 0 11155746
0 0 0 11220769
0 0 0 11220511
0.37197798 0.89484841 1.9317503 11155234
0.37319595 0.85417348 1.8439435 11221283
0.43045419 0.93959087 2.028338 11155746
0.45039287 0.93959087 2.028338 11156259
0.47033152 0.93959087 2.028338 11155746
0.49027017 0.93959087 2.028338 11286562
0.48591313 0.89484841 1.9317503 11286563
0.5049023 0.89484841 1.9317503 11352355
0.55008614 0.93959087 2.028338 11483170
0.57002479 0.93959087 2.028338 11089953
0.47197074 0.75167269 1.6226703 11155746
0.46915543 0.72276223 1.5602599 11221539
0.4498862 0.67113632 1.4488127 11024162
0.44812369 0.64799368 1.3988537 11417892
0.46187449 0.64799368 1.3988537 11418405
0.47562528 0.64799368 1.3988537 11286563
0.50685376 0.67113632 1.4488127 11482656
0.52109569 0.67113632 1.4488127 11483171
0.53533757 0.67113632 1.4488127 11286303
0.56993431 0.69599324 1.5024725 11155746
0.63147992 0.75167269 1.6226703 10958369
0.64743084 0.75167269 1.6226703 11090211
0.66338181 0.75167269 1.6226703 11024162
0.67933273 0.75167269 1.6226703 11154978
0.69528365 0.75167269 1.6226703 10433570
0.71123457 0.75167269 1.6226703 9580575
0.72718549 0.75167269 1.6226703 10237475
0.74313641 0.75167269 1.6226703 10564897
0.75908732 0.75167269 1.6226703 10761504
0.77503824 0.75167269 1.6226703 10761249
0.79098916 0.75167269 1.6226703 10433570
0.84056258 0.78299236 1.6902815 10827810
0.822891 0.75167269 1.6226703 10827812
0.83884192 0.75167269 1.6226703 10827812
0.82191622 0.72276223 1.5602599 10893348
0.87074375 0.75167269 1.6226703 10696740
0.88669467 0.75167269 1.6226703 10893090
0.90264559 0.75167269 1.6226703 10827809
0.91859657 0.75167269 1.6226703 10892833
0.9734869 0.78299236 1.6902815 10958369
0.99010247 0.78299236 1.6902815 10892835
1.006718 0.78299236 1.6902815 10695968
0.98240024 0.75167269 1.6226703 10564640
0.89138496 0.67113632 1.4488127 10761251
1.014302 0.75167269 1.6226703 10761761
1.0731802 0.78299236 1.6902815 10893089
1.1371782 0.8170355 1.763772 10565155
1.1545161 0.8170355 1.763772 10433056
1.1230268 0.78299236 1.6902815 10761504
0.91171384 0.62639385 1.3522252 10499361
0.86719346 0.58724427 1.2677112 10499616
0.9382987 0.62639385 1.3522252 10303009
0.98440468 0.64799368 1.3988537 10434083
0.99815547 0.64799368 1.3988537 10433569
1.0119063 0.64799368 1.3988537 10236961
1.0256571 0.64799368 1.3988537 10433568
1.0394078 0.64799368 1.3988537 10433574
1.0180533 0.62639385 1.3522252 10302497
1.0669094 0.64799368 1.3988537 10236961
1.1192552 0.67113632 1.4488127 9843231
1.094411 0.64799368 1.3988537 9778723
1.1081618 0.64799368 1.3988537 10237476
1.0845155 0.62639385 1.3522252 10171681
1.1762228 0.67113632 1.4488127 10172196
1.2820389 0.72276223 1.5602599 9975076
1.2973764 0.72276223 1.5602599 9778468
1.3127139 0.72276223 1.5602599 9975587
1.3811733 0.75167269 1.6226703 9909794
1.3971242 0.75167269 1.6226703 9844259
1.4719532 0.78299236 1.6902815 9778468
1.4885688 0.78299236 1.6902815 9844517
1.4449769 0.75167269 1.6226703 9646882
1.4047384 0.72276223 1.5602599 9712675
1.4768788 0.75167269 1.6226703 9712677
1.6963974 0.85417348 1.8439435 9844263
2.2187951 1.105401 2.3862798 9777953
0 0 0 9910051
2.962851 1.4455245 3.1205199 9779751
2.993526 1.4455245 3.1205199 9845031
3.2762172 1.5659847 3.380563 9778725
6.618897 3.1319695 6.761126 9975333
0 0 0 9844776
0 0 0 9713191
2.045485 0.93959087 2.028338 9778722
1.8776579 0.85417348 1.8439435 9975847
1.8133585 0.8170355 1.763772 9648678
2.0050485 0.89484841 1.9317503 9845032
2.0240376 0.89484841 1.9317503 9779494
2.0430269 0.89484841 1.9317503 9779494
1.9682881 0.85417348 1.8439435 10041383
1.5607539 0.67113632 1.4488127 9910055
1.2249968 0.52199495 1.1268544 9976616
1.2026664 0.50788695 1.0963988 9910821
1.1815114 0.4945215 1.0675462 10172966
1.1614412 0.48184147 1.0401733 9976360
1.1423745 0.46979544 1.014169 10435624
1.1523438 0.46979544 1.014169 10173739
1.1623131 0.46979544 1.014169 10043177
1.202341 0.48184147 1.0401733 10108716
1.2444755 0.4945215 1.0675462 10239790
0 0 0 10043435
0 0 0 9912620
0 0 0 10371886
0 0 0 10437679
0 0 0 10240301
0 0 0 10239532
0 0 0 10436652
0 0 0 10173480
0 0 0 9256233
0 0 0 7550505
0 0 0 6106147
0 0 0 5515298
0 0 0 5975588
0 0 0 8925984
0 0 0 8991777
0 0 0 8860448
0 0 0 9056800
-0.75583994 0.30461255 0.64391679 9122336
-0.76159906 0.30952564 0.65430254 9122082
-0.86704391 0.35538131 0.75123626 9187872
-0.82895708 0.3426891 0.72440636 9318431
-0.82183611 0.3426891 0.72440636 9188129
-0.81471515 0.3426891 0.72440636 8794657
-0.80759424 0.3426891 0.72440636 8990494
-0.78642994 0.33667701 0.71169752 8924958
-0.76599532 0.33087224 0.69942683 9450275
-0.77243787 0.33667701 0.71169752 9450018
-0.77911043 0.3426891 0.72440636 9450017
-0.77198946 0.3426891 0.72440636 9450016
-0.76486856 0.3426891 0.72440636 9581089
-0.75774759 0.3426891 0.72440636 9646626
-0.75062662 0.3426891 0.72440636 9515297
-0.74350572 0.3426891 0.72440636 9515296
-0.8415826 0.39164469 0.82789302 9515296
-0.83344436 0.39164469 0.82789302 9909537
-0.82530618 0.39164469 0.82789302 10106146
-0.81716794 0.39164469 0.82789302 10303268
-0.74797082 0.36208659 0.76541048 10171939
-0.78487366 0.3838118 0.81133515 9777954
-0.77689815 0.3838118 0.81133515 10367777
-0.78461504 0.39164469 0.82789302 10433570
-0.76094723 0.3838118 0.81133515 10368034
-0.72401136 0.36904982 0.78012997 10236704
-0.74499631 0.3838118 0.81133515 10236704
-0.73702085 0.3838118 0.81133515 10040352
-0.72904539 0.3838118 0.81133515 9908512
-0.68025464 0.36208659 0.76541048 9908512
-0.67273062 0.36208659 0.76541048 10105888
-0.66520661 0.36208659 0.76541048 10105888
-0.67033035 0.36904982 0.78012997 10039582
-0.67565501 0.37628609 0.79542661 10105888
-0.66783589 0.37628609 0.79542661 9974816
-0.67321718 0.3838118 0.81133515 9975075
-0.63965553 0.36904982 0.78012997 9974563
-0.64437866 0.37628609 0.79542661 10302499
-0.63655961 0.37628609 0.79542661 10236705
-0.65440339 0.39164469 0.82789302 10039839
-0.67376578 0.40831041 0.86312246 9974561
-0.65142125 0.39980394 0.84514076 9974817
-0.62998873 0.39164469 0.82789302 10367777
-0.63480568 0.39980394 0.84514076 10105631
-0.65373695 0.41718674 0.88188601 10171683
-0.64506799 0.41718674 0.88188601 10301984
-0.60988241 0.39980394 0.84514076 10236961
-0.6015746 0.39980394 0.84514076 10105888
-0.60588956 0.40831041 0.86312246 10302241
-0.59740502 0.40831041 0.86312246 10433570
-0.58892047 0.40831041 0.86312246 10367777
-0.56834352 0.39980394 0.84514076 10301982
-0.56003577 0.39980394 0.84514076 10301983
-0.55172801 0.39980394 0.84514076 9974558
-0.5434202 0.39980394 0.84514076 10170911
-0.53511244 0.39980394 0.84514076 10367263
-0.5497092 0.41718674 0.88188601 10236705
0 0 0 10368034
0 0 0 10236191
0 0 0 10236189
-0.69680977 0.5644291 1.1931399 10236704
-0.66550744 0.54830259 1.1590502 10498335
-0.67335254 0.5644291 1.1931399 10564897
-0.62486708 0.53307199 1.1268544 10301984
-0.491032 0.42645755 0.90148348 10104605
-0.48217037 0.42645755 0.90148348 10170913
-0.47330877 0.42645755 0.90148348 10301985
-0.4354192 0.39980394 0.84514076 10367775
-0.26975459 0.25250778 0.53377312 10630432
-0.2610724 0.24922843 0.52684098 10367263
-0.24629754 0.23988238 0.50708449 10236447
-0.24131288 0.23988238 0.50708449 10367518
-0.22507447 0.2284594 0.48293757 10563870
-0.2177351 0.22577165 0.47725597 10235934
-0.20578079 0.21807489 0.46098587 10170398
-0.19677708 0.21322878 0.45074174 9973534
-0.19450746 0.2156246 0.45580626 10432286
-0.1989693 0.22577165 0.47725597 9973019
-0.19427787 0.22577165 0.47725597 10170398
-0.18958642 0.22577165 0.47725597 10236191
-0.18489496 0.22577165 0.47725597 10170398
-0.18020351 0.22577165 0.47725597 10235675
-0.17551208 0.22577165 0.47725597 10433055
-0.18149692 0.23988238 0.50708449 10564127
-0.18338934 0.24922843 0.52684098 10498592
-0.18055536 0.25250778 0.53377312 10367263
-0.18251279 0.2628848 0.555709 10563870
-0.17705014 0.2628848 0.555709 10235677
-0.16926876 0.2593323 0.54819942 10235933
-0.16387993 0.2593323 0.54819942 10498334
-0.1584911 0.2593323 0.54819942 10236191
-0.14907327 0.25250778 0.53377312 9907739
-0.14382626 0.25250778 0.53377312 10433054
-0.13857925 0.25250778 0.53377312 10432798
-0.13881163 0.2628848 0.555709 10301983
-0.13334899 0.2628848 0.555709 10433308
-0.1228382 0.25250778 0.53377312 10169883
-0.11606403 0.24922843 0.52684098 10432796
-0.11088516 0.24922843 0.52684098 10695455
-0.10570628 0.24922843 0.52684098 10760990
-0.10052741 0.24922843 0.52684098 10629663
-0.095348544 0.24922843 0.52684098 10563870
-0.090169676 0.24922843 0.52684098 10629150
-0.084990799 0.24922843 0.52684098 10891806
-0.08086209 0.25250778 0.53377312 10891806
-0.077658728 0.2593323 0.54819942 10826783
-0.073259905 0.2628848 0.555709 10564640
-0.070702858 0.2741513 0.57952511 10630433
0 0 0 10564641
0 0 0 10760992
0 0 0 10761247
0 0 0 10629919
0 0 0 10761503
0 0 0 10761504
0 0 0 10695454
0 0 0 10827042
0 0 0 10957597
0 0 0 11219999
0 0 0 11220769
0 0 0 11286562
0 0 0 11089185
0 0 0 10826783
0 0 0 11417122
0 0 0 11154974
0 0 0 10958110
0 0 0 10958110
0 0 0 10826782
0 0 0 10892320
0 0 0 11023649
0.11587294 0.58153301 1.2292956 10564639
0.1172939 0.53307199 1.1268544 10827038
0.13592215 0.5644291 1.1931399 11221027
0.13944796 0.53307199 1.1268544 11090466
0.18685859 0.66174448 1.3988537 10958882
0 0 0 11024162
0 0 0 11024675
0 0 0 11024675
0 0 0 11220769
0 0 0 10892576
0.41113356 1.0100311 2.1350925 11221026
0.39096716 0.91383761 1.9317503 11220769
0.45310968 1.0100311 2.1350925 11221539
0.47409773 1.0100311 2.1350925 11155745
0.49508578 1.0100311 2.1350925 11090469
0.51607382 1.0100311 2.1350925 11286819
0.51020885 0.95952952 2.028338 11352353
0.53014749 0.95952952 2.028338 11352098
0.52389151 0.91383761 1.9317503 11417891
0.54288071 0.91383761 1.9317503 11548964
0.49163616 0.79960787 1.6902815 11156261
0.46915543 0.73809963 1.5602599 11156259
0.4343729 0.66174448 1.3988537 11287077
0.44812369 0.66174448 1.3988537 11418405
0.43207613 0.61905128 1.3086051 11025445
0.47562528 0.66174448 1.3988537 11089955
0.48937607 0.66174448 1.3988537 11221539
0.48635596 0.63968629 1.3522252 10958110
0.49964839 0.63968629 1.3522252 11221542
0.56993431 0.71076262 1.5024725 10958882
0.63147992 0.7676236 1.6226703 11024162
0.64743084 0.7676236 1.6226703 11024675
0.66338181 0.7676236 1.6226703 10958369
0.7076382 0.79960787 1.6902815 11286564
0.72425377 0.79960787 1.6902815 10893091
0.71123457 0.7676236 1.6226703 10105376
0.72718549 0.7676236 1.6226703 10499363
0.74313641 0.7676236 1.6226703 11089955
0.79071593 0.79960787 1.6902815 10827552
0.8073315 0.79960787 1.6902815 11089699
0.82394701 0.79960787 1.6902815 10761503
0.84056258 0.79960787 1.6902815 10629663
0.822891 0.7676236 1.6226703 10696480
0.83884192 0.7676236 1.6226703 10630177
0.85479283 0.7676236 1.6226703 10630947
0.90702474 0.79960787 1.6902815 10827042
0.88669467 0.7676236 1.6226703 10565154
0.90264559 0.7676236 1.6226703 10892835
0.91859657 0.7676236 1.6226703 10827812
0.9734869 0.79960787 1.6902815 10827553
1.0801117 0.87229955 1.8439435 10564127
1.0982379 0.87229955 1.8439435 10827296
0.98240024 0.7676236 1.6226703 10827812
0.99835116 0.7676236 1.6226703 10564897
1.0565646 0.79960787 1.6902815 10827042
1.1198401 0.83437347 1.763772 10892576
1.1371782 0.83437347 1.763772 11089955
1.1064112 0.79960787 1.6902815 10827296
1.0781058 0.7676236 1.6226703 10630944
1.0940567 0.7676236 1.6226703 10827554
1.067315 0.73809963 1.5602599 10761249
1.0826524 0.73809963 1.5602599 10630433
1.0979899 0.73809963 1.5602599 10630433
1.1133273 0.73809963 1.5602599 10367777
1.1286647 0.73809963 1.5602599 10368290
1.0256571 0.66174448 1.3988537 10105888
1.0394078 0.66174448 1.3988537 10302496
1.0531586 0.66174448 1.3988537 10302497
1.1050134 0.68537819 1.4488127 10367775
1.1607091 0.71076262 1.5024725 10040608
1.2206893 0.73809963 1.5602599 9910051
1.2360268 0.73809963 1.5602599 10041123
1.2513641 0.73809963 1.5602599 10105888
1.3173696 0.7676236 1.6226703 9975587
1.3333205 0.7676236 1.6226703 10171940
1.2973764 0.73809963 1.5602599 10106406
1.3652223 0.7676236 1.6226703 9975587
