# .PCD v0.7 - Point Cloud Data file format
VERSION 0.7
FIELDS x y z rgb
SIZE 4 4 4 4
TYPE F F F U
COUNT 1 1 1 1
WIDTH 1342
HEIGHT 1
VIEWPOINT 0 0 0 1 0 0 0
POINTS 1342
DATA ascii
1.5872862 0.4201186 1.9317503 10963508
1.6062754 0.4201186 1.9317503 11028786
1.6252646 0.4201186 1.9317503 10897714
1.6442538 0.4201186 1.9317503 10897714
1.6632431 0.4201186 1.9317503 11028271
1.9626044 0.49013841 2.2537088 10961965
1.9847585 0.49013841 2.2537088 10832179
2.0069125 0.49013841 2.2537088 10635573
2.1484234 0.51897001 2.3862798 10437165
2.1718805 0.51897001 2.3862798 10436908
2.1953378 0.51897001 2.3862798 10043436
2.2187951 0.51897001 2.3862798 9846827
2.2422523 0.51897001 2.3862798 10108716
2.2657096 0.51897001 2.3862798 10108717
2.4322398 0.55140567 2.5354223 10437424
2.4571631 0.55140567 2.5354223 10371888
3.0548756 0.67865318 3.1205199 10503475
3.3426795 0.73520756 3.380563 10372145
3.6828115 0.80204457 3.687887 10634544
4.09097 0.88224912 4.0566759 10438448
4.1308475 0.88224912 4.0566759 10503987
4.1707249 0.88224912 4.0566759 10502958
4.2106023 0.88224912 4.0566759 10307375
4.722755 0.98027682 4.5074177 9718580
4.7670631 0.98027682 4.5074177 8931375
6.186048 1.2603558 5.7952509 9456435
0 0 0 9521460
0 0 0 8011308
0 0 0 7619120
2.6410253 0.51897001 2.3862798 7881780
2.0589182 0.40102229 1.8439435 9193781
2.0770445 0.40102229 1.8439435 10046004
2.0951705 0.40102229 1.8439435 10308404
2.1132965 0.40102229 1.8439435 10373940
2.2329187 0.4201186 1.9317503 10701620
2.488951 0.46434161 2.1350925 10635827
2.5099392 0.46434161 2.1350925 10570034
2.5309272 0.46434161 2.1350925 10241585
2.4243195 0.44112456 2.028338 10504757
2.4442582 0.44112456 2.028338 10570293
3.2855954 0.588166 2.7044504 10439221
0 0 0 10110515
0 0 0 9979187
0 0 0 9847856
0 0 0 9847599
0 0 0 10109229
0 0 0 9847599
0 0 0 9782575
0 0 0 9914418
0 0 0 5451547
0 0 0 2625288
-4.0346217 0.76843864 3.380563 1115401
-4.3651533 0.83829671 3.687887 984075
-4.3289013 0.83829671 3.687887 1772303
-3.9349284 0.76843864 3.380563 3020823
-3.9016974 0.76843864 3.380563 3217173
-4.2201452 0.83829671 3.687887 3282709
-4.6022825 0.92212641 4.0566759 3151638
-4.5624051 0.92212641 4.0566759 3020309
-5.0250311 1.0245849 4.5074177 3151638
-4.9807229 1.0245849 4.5074177 3217172
-4.9364147 1.0245849 4.5074177 3283476
-4.8921065 1.0245849 4.5074177 2954257
-4.8477983 1.0245849 4.5074177 3020309
-4.8034906 1.0245849 4.5074177 2757135
-4.7591825 1.0245849 4.5074177 2822930
-4.7148743 1.0245849 4.5074177 2691345
-4.6705661 1.0245849 4.5074177 2362638
-4.1636324 0.92212641 4.0566759 2297104
-4.123755 0.92212641 4.0566759 2035217
-3.7126157 0.83829671 3.687887 983305
-3.6763637 0.83829671 3.687887 655882
-3.6401114 0.83829671 3.687887 1706254
-3.6038594 0.83829671 3.687887 1312267
-3.5676074 0.83829671 3.687887 853001
-3.5313554 0.83829671 3.687887 984072
-3.4951031 0.83829671 3.687887 1378317
-3.4588511 0.83829671 3.687887 1312267
-3.4225991 0.83829671 3.687887 984329
-3.3863468 0.83829671 3.687887 1049609
-3.3500948 0.83829671 3.687887 918793
-3.3138428 0.83829671 3.687887 1050379
-3.60535 0.92212641 4.0566759 1115659
-3.5654726 0.92212641 4.0566759 1378317
-3.5255952 0.92212641 4.0566759 1838610
-3.485718 0.92212641 4.0566759 2429714
-3.4458406 0.92212641 4.0566759 2035990
-3.4059634 0.92212641 4.0566759 2167574
-3.366086 0.92212641 4.0566759 2429975
-3.3262088 0.92212641 4.0566759 2758424
-3.2863314 0.92212641 4.0566759 3086874
-3.2464542 0.92212641 4.0566759 3415579
-3.2065768 0.92212641 4.0566759 3480858
-3.1666996 0.92212641 4.0566759 3350044
-3.1268222 0.92212641 4.0566759 3679009
-3.0869448 0.92212641 4.0566759 3744029
-3.3856306 1.0245849 4.5074177 4204577
-3.3413227 1.0245849 4.5074177 4664611
-3.2970145 1.0245849 4.5074177 5518889
-3.2527063 1.0245849 4.5074177 6241578
-3.2083981 1.0245849 4.5074177 6307370
-3.5596011 1.152658 5.0708447 6438699
-3.5097547 1.152658 5.0708447 6701101
-3.459908 1.152658 5.0708447 6963503
-3.4100614 1.152658 5.0708447 6964273
-3.3602147 1.152658 5.0708447 7095600
-3.3103681 1.152658 5.0708447 7161135
-3.2605214 1.152658 5.0708447 7424305
-3.2106748 1.152658 5.0708447 7489327
-3.1608281 1.152658 5.0708447 7095341
-2.765317 1.0245849 4.5074177 7552554
-2.721009 1.0245849 4.5074177 6369569
-2.6767008 1.0245849 4.5074177 4858389
-2.9614415 1.152658 5.0708447 4331795
-2.9115949 1.152658 5.0708447 3610132
-4.5787973 1.8442528 8.1133518 4135707
-1.7304012 0.709328 3.1205199 4070684
-0.491032 0.20491697 0.90148348 3349017
-0.25526667 0.10848546 0.47725597 2625812
-0.24203289 0.10478709 0.46098587 2166289
-0.23483282 0.1036097 0.45580626 2167575
-0.23035222 0.1036097 0.45580626 2034961
-0.22336194 0.10245848 0.45074174 2166035
-0.21417177 0.10023113 0.440943 4728872
-0.20983727 0.10023113 0.440943 5385255
-0.20550278 0.10023113 0.440943 5451047
-0.1990052 0.099153377 0.43620169 5385254
-0.19061801 0.097065933 0.42701849 5122082
-0.1864204 0.097065933 0.42701849 4990496
-0.18416132 0.098098546 0.43156123 4858910
-0.17991905 0.098098546 0.43156123 4661018
-0.17756578 0.099153377 0.43620169 4661018
-0.1732779 0.099153377 0.43620169 4463896
-0.16899002 0.099153377 0.43620169 4398362
-0.16470215 0.099153377 0.43620169 4398360
-0.15870772 0.098098546 0.43156123 4398359
-0.15446545 0.098098546 0.43156123 4464154
-0.1518385 0.099153377 0.43620169 4332566
-0.15079348 0.10133257 0.44578853 4200726
-0.14803815 0.10245848 0.45074174 3741204
-0.15205483 0.10848546 0.47725597 3478548
0 0 0 2888211
0 0 0 1969425
0 0 0 918282
0 0 0 983305
-0.13836449 0.11672486 0.51350325 1640721
-0.13331674 0.11672486 0.51350325 3610648
-0.12666562 0.1152658 0.50708449 6367267
0 0 0 8925478
0 0 0 10433570
0 0 0 10827040
0 0 0 10629404
-0.10048622 0.11384276 0.50082415 11351585
-0.095563099 0.11384276 0.50082415 11351585
-0.085370213 0.107224 0.47170648 11417377
-0.080733314 0.107224 0.47170648 11351839
-0.076096416 0.107224 0.47170648 11613983
-0.074945353 0.11245444 0.49471655 11548705
-0.07008227 0.11245444 0.49471655 11614243
-0.066024356 0.11384276 0.50082415 11482915
-0.061101232 0.11384276 0.50082415 11286305
-0.056178108 0.11384276 0.50082415 11680035
-0.051895674 0.1152658 0.50708449 11810849
0 0 0 11811105
0 0 0 11745313
0 0 0 11745568
0 0 0 11876900
0 0 0 11548449
0 0 0 11548964
0 0 0 11352355
0 0 0 11811361
-0.040192589 0.65866166 2.8976254 11812134
-0.003725528 0.20957418 0.92197174 11811621
0.0053374954 0.20957418 0.92197174 11221796
0.014080508 0.20491697 0.90148348 11287332
0.019479167 0.17398611 0.76541048 10959652
0.027003186 0.17398611 0.76541048 10762787
0.035191193 0.177332 0.78012997 10959652
0 0 0 11155748
0 0 0 11156261
0 0 0 11025445
0 0 0 11681318
0 0 0 11616295
0.098199539 0.21444799 0.94341296 12205604
0.10503075 0.20957418 0.92197174 12271397
0.11155836 0.20491697 0.90148348 12206117
0.14645673 0.24922334 1.0963988 12271910
0 0 0 12139813
0 0 0 12402985
0 0 0 12469030
0 0 0 12141353
0 0 0 12271912
0 0 0 12534569
0 0 0 12337957
0.47828245 0.51229244 2.2537088 12402983
0.50043648 0.51229244 2.2537088 12535081
0.55333114 0.5424273 2.3862798 12534312
0.57678843 0.5424273 2.3862798 12469030
0.60024565 0.5424273 2.3862798 12271653
0.62370288 0.5424273 2.3862798 12469288
0.61120683 0.51229244 2.2537088 12600620
0.54288071 0.43910778 1.9317503 12206376
0.53633034 0.41914836 1.8439435 12338219
0.55445641 0.41914836 1.8439435 12403496
0.54768759 0.4009245 1.763772 12272424
0.4061121 0.2881645 1.2677112 12404010
0.41857377 0.2881645 1.2677112 12469291
0.43103543 0.2881645 1.2677112 12141353
0.45780343 0.29746011 1.3086051 12468776
0.69479424 0.43910778 1.9317503 12403753
0 0 0 12206631
0.73277265 0.43910778 1.9317503 12337705
0.75176179 0.43910778 1.9317503 12140841
0.770751 0.43910778 1.9317503 12206374
0.7897402 0.43910778 1.9317503 12141354
0.67933273 0.36885056 1.6226703 12535084
0.5993824 0.3179746 1.3988537 12075560
0.61313319 0.3179746 1.3988537 11682088
0.62688398 0.3179746 1.3988537 12075560
0.64063483 0.3179746 1.3988537 12140324
0.65438563 0.3179746 1.3988537 11812906
0.66813642 0.3179746 1.3988537 11878440
0.65915763 0.30737546 1.3522252 11878696
0.67245007 0.30737546 1.3522252 11812134
0.70938879 0.3179746 1.3988537 11682088
0.72313958 0.3179746 1.3988537 11682089
0.73689038 0.3179746 1.3988537 11616295
0.75064117 0.3179746 1.3988537 11747113
1.0555888 0.43910778 1.9317503 11682090
1.074578 0.43910778 1.9317503 11484968
1.0935673 0.43910778 1.9317503 11419175
1.1125565 0.43910778 1.9317503 11746598
1.1315457 0.43910778 1.9317503 11353895
1.1505349 0.43910778 1.9317503 11353638
1.1695241 0.43910778 1.9317503 11353639
1.247939 0.46106321 2.028338 11549734
1.2678777 0.46106321 2.028338 11485224
1.2264916 0.43910778 1.9317503 11419433
1.2454808 0.43910778 1.9317503 11418661
1.26447 0.43910778 1.9317503 11221798
1.2834592 0.43910778 1.9317503 11222310
1.3024484 0.43910778 1.9317503 11287847
1.1562579 0.38421932 1.6902815 11222311
1.1259586 0.36885056 1.6226703 11287847
1.1419095 0.36885056 1.6226703 11156261
1.1578604 0.36885056 1.6226703 11025445
1.1738113 0.36885056 1.6226703 10828325
1.2393357 0.38421932 1.6902815 10828324
1.2057132 0.36885056 1.6226703 10762533
1.2216641 0.36885056 1.6226703 11091238
1.237615 0.36885056 1.6226703 10697254
1.3057978 0.38421932 1.6902815 10762533
1.3799095 0.4009245 1.763772 11290927
1.3972476 0.4009245 1.763772 11094575
1.4145855 0.4009245 1.763772 11159857
1.4970108 0.41914836 1.8439435 10700078
1.515137 0.41914836 1.8439435 10897201
1.6062754 0.43910778 1.9317503 10896688
1.6252646 0.43910778 1.9317503 10765356
1.6442538 0.43910778 1.9317503 10830894
1.6632431 0.43910778 1.9317503 10633772
1.6822323 0.43910778 1.9317503 10371115
1.9847585 0.51229244 2.2537088 10240043
2.1249661 0.5424273 2.3862798 10240043
2.1484234 0.5424273 2.3862798 10436910
2.1718805 0.5424273 2.3862798 10766130
2.1953378 0.5424273 2.3862798 10700335
2.2187951 0.5424273 2.3862798 10635055
2.2422523 0.5424273 2.3862798 10765617
2.4073164 0.57632899 2.5354223 10502959
2.4322398 0.57632899 2.5354223 10175277
2.6209738 0.61475092 2.7044504 10109229
3.6103072 0.83829671 3.687887 10634032
3.6465595 0.83829671 3.687887 10437167
3.6828115 0.83829671 3.687887 10568494
3.7190635 0.83829671 3.687887 10371628
4.1308475 0.92212641 4.0566759 10438191
4.1707249 0.92212641 4.0566759 10634544
4.2106023 0.92212641 4.0566759 10176305
4.722755 1.0245849 4.5074177 9847599
4.7670631 1.0245849 4.5074177 9192495
0 0 0 8801331
0 0 0 9460289
0 0 0 9263939
0 0 0 8605758
2.0407922 0.41914836 1.8439435 7750709
1.9694002 0.4009245 1.763772 7947572
1.9867381 0.4009245 1.763772 9063479
2.0951705 0.41914836 1.8439435 10112052
2.1132965 0.41914836 1.8439435 10571574
2.1314225 0.41914836 1.8439435 10701875
2.1495485 0.41914836 1.8439435 10570033
2.2708972 0.43910778 1.9317503 10438705
2.2898865 0.43910778 1.9317503 10503729
2.3088756 0.43910778 1.9317503 9781804
2.3278649 0.43910778 1.9317503 9519403
0 0 0 9191212
0 0 0 9126191
0 0 0 8995118
0 0 0 9388077
0 0 0 9650734
0 0 0 9387561
0 0 0 9584426
0 0 0 9781804
0 0 0 9847597
0 0 0 5188893
0 0 0 2755847
-4.0346217 0.80166972 3.380563 1180680
-4.0013905 0.80166972 3.380563 918284
-3.9681594 0.80166972 3.380563 1444109
-3.9349284 0.80166972 3.380563 2626321
-3.9016974 0.80166972 3.380563 2954516
-4.2201452 0.87454879 3.687887 2954515
-4.6022825 0.96200371 4.0566759 2888723
-4.5624051 0.96200371 4.0566759 2822930
-5.0250311 1.0688931 4.5074177 2822930
-4.9807229 1.0688931 4.5074177 2822928
-4.9364147 1.0688931 4.5074177 2757392
-4.8921065 1.0688931 4.5074177 2494738
-4.8477983 1.0688931 4.5074177 2100752
-4.8034906 1.0688931 4.5074177 1640973
-4.7591825 1.0688931 4.5074177 1180937
-4.7148743 1.0688931 4.5074177 1049352
-4.6705661 1.0688931 4.5074177 983559
-4.1636324 0.96200371 4.0566759 918282
-4.123755 0.96200371 4.0566759 786696
-4.0838776 0.96200371 4.0566759 786696
-3.6763637 0.87454879 3.687887 852489
-3.6401114 0.87454879 3.687887 1772047
-3.6038594 0.87454879 3.687887 1640459
-3.5676074 0.87454879 3.687887 1050122
-3.5313554 0.87454879 3.687887 1246731
-3.4951031 0.87454879 3.687887 1180680
-3.4588511 0.87454879 3.687887 1181195
-3.4225991 0.87454879 3.687887 1312780
-3.7249818 0.96200371 4.0566759 1575181
-3.6851046 0.96200371 4.0566759 1246731
-3.3138428 0.87454879 3.687887 1247247
-3.2775905 0.87454879 3.687887 1443856
-3.5654726 0.96200371 4.0566759 1970196
-3.5255952 0.96200371 4.0566759 2035471
-3.485718 0.96200371 4.0566759 1772041
-3.1325822 0.87454879 3.687887 3350300
-2.8383026 0.80166972 3.380563 4466974
-2.8050716 0.80166972 3.380563 5452070
-3.0238259 0.87454879 3.687887 6307118
-2.9875739 0.87454879 3.687887 7096120
-3.2464542 0.96200371 4.0566759 6767156
-3.2065768 0.96200371 4.0566759 5716010
-3.1666996 0.96200371 4.0566759 5189414
-3.1268222 0.96200371 4.0566759 4993061
-3.0869448 0.96200371 4.0566759 5518117
-3.3856306 1.0688931 4.5074177 5781287
-3.3413227 1.0688931 4.5074177 6373165
-3.2970145 1.0688931 4.5074177 6897966
-3.2527063 1.0688931 4.5074177 7423794
-2.6250529 0.87454879 3.687887 7292976
-2.5888009 0.87454879 3.687887 7095856
-3.119782 1.0688931 4.5074177 7096624
-3.459908 1.2025046 5.0708447 7424820
-3.4100614 1.2025046 5.0708447 7687478
-3.3602147 1.2025046 5.0708447 7884085
-3.3103681 1.2025046 5.0708447 7751986
-3.2605214 1.2025046 5.0708447 7486504
-3.2106748 1.2025046 5.0708447 6959907
-1.4048126 0.53444654 2.2537088 6106658
-1.2443926 0.48100185 2.028338 4530202
-1.0203782 0.40083486 1.6902815 3677464
-0.89223355 0.35629767 1.5024725 3283224
-0.78971773 0.32066789 1.3522252 2691862
-0.72789872 0.30062616 1.2677112 2691864
-0.71543711 0.30062616 1.2677112 2757909
-0.68167311 0.29151624 1.2292956 2034705
-0.26946878 0.11731752 0.49471655 2495767
-0.25229847 0.11186089 0.47170648 2822678
-0.24203289 0.1093186 0.46098587 2100498
-0.23483282 0.1080903 0.45580626 1903633
-0.23035222 0.1080903 0.45580626 2361872
-0.22336194 0.10688929 0.45074174 2033164
-0.21417177 0.10456561 0.440943 3678242
-0.20983727 0.10456561 0.440943 5253928
-0.20550278 0.10456561 0.440943 5385512
-0.1990052 0.10344125 0.43620169 5385254
-0.19264585 0.10234082 0.43156123 5121825
-0.1864204 0.10126355 0.42701849 4595741
-0.18416132 0.10234082 0.43156123 4661793
-0.17991905 0.10234082 0.43156123 4463898
-0.17756578 0.10344125 0.43620169 4332312
-0.1732779 0.10344125 0.43620169 4464154
-0.16899002 0.10344125 0.43620169 4529691
-0.16470215 0.10344125 0.43620169 4267031
-0.15870772 0.10234082 0.43156123 4266775
-0.15446545 0.10234082 0.43156123 4594711
-0.1518385 0.10344125 0.43620169 4594710
-0.15246896 0.10688929 0.45074174 4398359
-0.14970151 0.1080903 0.45580626 4004115
0 0 0 4069915
0 0 0 4201755
0 0 0 4005920
0 0 0 5384747
-0.14525089 0.12333381 0.52008665 8009264
-0.13836449 0.12177262 0.51350325 9974820
-0.13002497 0.11876588 0.50082415 10695713
-0.12510183 0.11876588 0.50082415 11088926
-0.12017871 0.11876588 0.50082415 10957857
-0.1098318 0.1131769 0.47725597 11220256
-0.10514036 0.1131769 0.47725597 11089185
-0.099280901 0.11186089 0.47170648 11285020
-0.094644003 0.11186089 0.47170648 11613728
-0.090007104 0.11186089 0.47170648 11219484
-0.085370213 0.11186089 0.47170648 11416608
-0.080733314 0.11186089 0.47170648 11417376
-0.076096416 0.11186089 0.47170648 11811104
-0.074945353 0.11731752 0.49471655 11613984
-0.07008227 0.11731752 0.49471655 11811105
-0.066024356 0.11876588 0.50082415 11679521
-0.061101232 0.11876588 0.50082415 11548451
-0.055493008 0.11731752 0.49471655 11483684
-0.051254984 0.11876588 0.50082415 11548706
-0.044151537 0.1131769 0.47725597 11417634
-0.041408736 0.11876588 0.50082415 11614497
0 0 0 11482913
0 0 0 11614496
0 0 0 11942691
0 0 0 12008740
0 0 0 11877668
0 0 0 12074533
0 0 0 11811361
0 0 0 11418146
0.0055916621 0.22904849 0.96587515 11483941
0.014400519 0.2186372 0.92197174 11220767
0.021965869 0.20468163 0.86312246 10893857
0.032526568 0.2186372 0.92197174 10958882
0 0 0 11221539
0 0 0 11287334
0 0 0 11222054
0 0 0 11287332
0 0 0 11812136
0 0 0 11943461
0 0 0 12074533
0.12490144 0.260001 1.0963988 11943974
0.1356791 0.260001 1.0963988 12468006
0 0 0 12206117
0 0 0 12075047
0 0 0 12206119
0 0 0 12206119
0 0 0 12206117
0 0 0 12862248
0 0 0 12075560
0.48295945 0.56588453 2.3862798 12402470
0.47828245 0.53444654 2.2537088 12337445
0.50043648 0.53444654 2.2537088 12534569
0.52259058 0.53444654 2.2537088 12534823
0.57678843 0.56588453 2.3862798 12534825
0.60024565 0.56588453 2.3862798 12468774
0.62370288 0.56588453 2.3862798 12666665
0.64716011 0.56588453 2.3862798 12403239
0.67061734 0.56588453 2.3862798 12666155
0.56186992 0.45809698 1.9317503 12469033
0.53034961 0.41826245 1.763772 12796971
0.54768759 0.41826245 1.763772 12468776
0.4061121 0.30062616 1.2677112 12535336
0.41857377 0.30062616 1.2677112 12404010
0.43103543 0.30062616 1.2677112 12666155
0.48937607 0.33172539 1.3988537 12404011
0.69479424 0.45809698 1.9317503 12338218
0.71378344 0.45809698 1.9317503 12141866
0.73277265 0.45809698 1.9317503 12141096
0.75176179 0.45809698 1.9317503 12272426
0.770751 0.45809698 1.9317503 12271910
0.7897402 0.45809698 1.9317503 12469291
0.77196896 0.4372744 1.8439435 12338217
0.64378113 0.35629767 1.5024725 12337705
0.61313319 0.33172539 1.3988537 11943462
0.62688398 0.33172539 1.3988537 12272424
0.64063483 0.33172539 1.3988537 12075047
0.65438563 0.33172539 1.3988537 12009257
0.66813642 0.33172539 1.3988537 12009255
0.68188721 0.33172539 1.3988537 11877927
0.67245007 0.32066789 1.3522252 11419429
0.70938879 0.33172539 1.3988537 11616553
0.72313958 0.33172539 1.3988537 11943722
0.76320785 0.34357274 1.4488127 11354408
0.87074375 0.38480148 1.6226703 11222822
1.0555888 0.45809698 1.9317503 11419945
1.074578 0.45809698 1.9317503 11616040
1.0935673 0.45809698 1.9317503 11616297
1.1125565 0.45809698 1.9317503 11615527
1.1315457 0.45809698 1.9317503 11353382
1.0982379 0.4372744 1.8439435 11550502
1.2280003 0.48100185 2.028338 11681577
1.3865988 0.53444654 2.2537088 11615525
1.4087529 0.53444654 2.2537088 11287590
1.2264916 0.45809698 1.9317503 11090981
1.2454808 0.45809698 1.9317503 11287846
1.26447 0.45809698 1.9317503 10959398
1.2834592 0.45809698 1.9317503 11156519
1.2432462 0.4372744 1.8439435 10959652
1.1100076 0.38480148 1.6226703 11222054
1.1259586 0.38480148 1.6226703 11025448
1.0979899 0.37000144 1.5602599 11157033
1.1578604 0.38480148 1.6226703 11222312
1.22272 0.40083486 1.6902815 11287847
1.3520025 0.4372744 1.8439435 11222054
1.3701285 0.4372744 1.8439435 10959395
1.2725667 0.40083486 1.6902815 10959652
1.2891822 0.40083486 1.6902815 11025705
1.3625716 0.41826245 1.763772 10632228
1.3224133 0.40083486 1.6902815 11094061
1.3390288 0.40083486 1.6902815 10634283
1.4145855 0.41826245 1.763772 10634285
1.4319234 0.41826245 1.763772 10765101
1.4492614 0.41826245 1.763772 10896687
1.4665993 0.41826245 1.763772 10962994
1.6252646 0.45809698 1.9317503 10896687
1.6442538 0.45809698 1.9317503 10699563
1.5876411 0.4372744 1.8439435 10962480
1.6057671 0.4372744 1.8439435 10897201
1.8802974 0.50631773 2.1350925 10765615
2.2577765 0.60125232 2.5354223 10700597
2.2826998 0.60125232 2.5354223 10503476
2.3076231 0.60125232 2.5354223 10503729
2.1953378 0.56588453 2.3862798 10240043
2.3574698 0.60125232 2.5354223 10108716
2.3823931 0.60125232 2.5354223 10173993
2.4073164 0.60125232 2.5354223 10437933
2.594389 0.64133579 2.7044504 10175276
2.6209738 0.64133579 2.7044504 10240556
3.6103072 0.87454879 3.687887 10437164
3.6465595 0.87454879 3.687887 10371628
3.6828115 0.87454879 3.687887 10307120
3.4091415 0.80166972 3.380563 10307378
3.7553158 0.87454879 3.687887 10372656
3.7915678 0.87454879 3.687887 10766129
3.8278198 0.87454879 3.687887 10635058
4.722755 1.0688931 4.5074177 10372656
4.7670631 1.0688931 4.5074177 10438191
0 0 0 9520687
0 0 0 9261369
0 0 0 9395009
0 0 0 8870209
0 0 0 8213054
1.6776372 0.35629767 1.5024725 6765614
1.5756888 0.33172539 1.3988537 6897971
1.5894396 0.33172539 1.3988537 8801336
2.7348542 0.56588453 2.3862798 10177847
2.1314225 0.4372744 1.8439435 10242866
1.8188488 0.37000144 1.5602599 10636595
1.8341863 0.37000144 1.5602599 10636595
1.8495237 0.37000144 1.5602599 10504241
1.9394555 0.38480148 1.6226703 10504500
2.3278649 0.45809698 1.9317503 10438708
2.346854 0.45809698 1.9317503 10372916
0 0 0 10176564
0 0 0 10110771
0 0 0 10176562
0 0 0 10307378
0 0 0 10307378
0 0 0 10175793
0 0 0 10044722
0 0 0 9848113
0 0 0 5517857
0 0 0 4071957
-4.0346217 0.8349008 3.380563 1639685
-4.0013905 0.8349008 3.380563 853261
-3.9681594 0.8349008 3.380563 1247247
-3.9349284 0.8349008 3.380563 2495253
-4.2563972 0.91080087 3.687887 2493967
-4.6421599 1.001881 4.0566759 2428174
-4.6022825 1.001881 4.0566759 1902344
-4.5624051 1.001881 4.0566759 1508359
-5.0250311 1.1132011 4.5074177 1180681
-4.9807229 1.1132011 4.5074177 918025
-4.9364147 1.1132011 4.5074177 852491
-4.8921065 1.1132011 4.5074177 786698
-4.8477983 1.1132011 4.5074177 721675
-4.8034906 1.1132011 4.5074177 852491
-4.7591825 1.1132011 4.5074177 786696
-4.7148743 1.1132011 4.5074177 786696
-4.2035093 1.001881 4.0566759 655881
-4.1636324 1.001881 4.0566759 786698
-4.123755 1.001881 4.0566759 786698
-4.0838776 1.001881 4.0566759 852491
-3.6763637 0.91080087 3.687887 1180684
-3.6401114 0.91080087 3.687887 1706254
-3.6038594 0.91080087 3.687887 1640973
-3.5676074 0.91080087 3.687887 1838096
-3.5313554 0.91080087 3.687887 2232594
-3.4951031 0.91080087 3.687887 4072230
-3.4588511 0.91080087 3.687887 6041133
-4.183177 1.1132011 4.5074177 6696746
-4.1388688 1.1132011 4.5074177 6894382
-3.6851046 1.001881 4.0566759 6632751
-2.8040209 0.77067769 3.1205199 7091758
-3.004458 0.8349008 3.380563 7879470
-2.9712269 0.8349008 3.380563 7813420
-2.9379959 0.8349008 3.380563 7747627
-2.9047649 0.8349008 3.380563 7812906
-2.8715336 0.8349008 3.380563 7682090
-2.6199718 0.77067769 3.1205199 8011051
-2.5892968 0.77067769 3.1205199 7945259
-2.7718403 0.8349008 3.380563 7881005
-2.7386093 0.8349008 3.380563 8341042
-2.7053783 0.8349008 3.380563 7947054
-2.9150696 0.91080087 3.687887 7291950
-3.1666996 1.001881 4.0566759 6635825
-3.1268222 1.001881 4.0566759 6503982
-3.0869448 1.001881 4.0566759 6964015
-3.0470676 1.001881 4.0566759 7160880
-3.3413227 1.1132011 4.5074177 7358258
-2.4727607 0.8349008 3.380563 7685937
-2.4395297 0.8349008 3.380563 7884855
-2.4062984 0.8349008 3.380563 7818292
-2.1905239 0.77067769 3.1205199 7621428
-2.5525486 0.91080087 3.687887 7884086
-3.0754738 1.1132011 4.5074177 7883316
0 0 0 7946285
0 0 0 7157028
-3.7832778 1.4312586 5.7952509 3610639
-2.8982413 1.1132011 4.5074177 3150866
-0.80266869 0.31308782 1.2677112 3150865
-0.79020703 0.31308782 1.2677112 2888726
-0.85820174 0.34547618 1.3988537 2100496
-0.87460995 0.35781464 1.4488127 1838610
-0.86036807 0.35781464 1.4488127 1969426
-0.78971773 0.33396032 1.3522252 2100497
-0.72789872 0.31308782 1.2677112 2691605
-0.71543711 0.31308782 1.2677112 2165518
-0.68167311 0.30360028 1.2292956 2363671
-0.48035741 0.21780021 0.88188601 2232339
-0.25229847 0.11649779 0.47170648 2888213
-0.23931342 0.1125709 0.45580626 2362642
-0.23483282 0.1125709 0.45580626 2099727
-0.23035222 0.1125709 0.45580626 1312013
-0.22336194 0.11132011 0.45074174 1903890
-0.21417177 0.10890011 0.440943 3087907
-0.20983727 0.10890011 0.440943 5254184
-0.20550278 0.10890011 0.440943 5254183
-0.1990052 0.10772914 0.43620169 5318949
-0.19471732 0.10772914 0.43620169 4924449
-0.18840358 0.10658308 0.43156123 4661792
-0.18416132 0.10658308 0.43156123 4464412
-0.17991905 0.10658308 0.43156123 4595484
-0.17756578 0.10772914 0.43620169 4332826
-0.1732779 0.10772914 0.43620169 4464153
-0.16899002 0.10772914 0.43620169 4595738
-0.16470215 0.10772914 0.43620169 4529944
-0.15870772 0.10658308 0.43156123 4661016
-0.15612638 0.10772914 0.43620169 4922646
-0.15689978 0.11132011 0.45074174 6103833
-0.15418209 0.1125709 0.45580626 7875360
0 0 0 10039843
0 0 0 10235677
-0.16481431 0.13182645 0.53377312 10498849
-0.15350778 0.12682037 0.51350325 10695967
-0.14846002 0.12682037 0.51350325 10760991
-0.13987121 0.12368901 0.50082415 10695712
-0.13494809 0.12368901 0.50082415 10760992
-0.13002497 0.12368901 0.50082415 11088415
-0.12357622 0.12218061 0.49471655 11023647
-0.11452325 0.11786835 0.47725597 11220001
-0.10855469 0.11649779 0.47170648 11351330
-0.10272334 0.11515874 0.46628457 11417378
-0.098139741 0.11515874 0.46628457 11613728
-0.094644003 0.11649779 0.47170648 11351842
-0.090007104 0.11649779 0.47170648 11285792
-0.085370213 0.11649779 0.47170648 11351585
-0.085716851 0.12368901 0.50082415 11285790
-0.079808436 0.12218061 0.49471655 11548708
-0.074945353 0.12218061 0.49471655 11679776
-0.07008227 0.12218061 0.49471655 11811361
-0.065219179 0.12218061 0.49471655 11614500
-0.060356095 0.12218061 0.49471655 11614242
-0.051709395 0.11385011 0.46098587 11614242
-0.046647795 0.1125709 0.45580626 11811107
-0.041698672 0.11132011 0.45074174 11614243
-0.037686601 0.1125709 0.45580626 11942435
-0.034364354 0.11649779 0.47170648 11811107
0 0 0 11942948
0 0 0 11549216
0 0 0 11876641
0 0 0 12139813
0 0 0 11680289
0 0 0 11745568
0 0 0 11548962
0 0 0 11353123
0 0 0 11090468
0.021965869 0.21316616 0.86312246 11024675
0 0 0 11156261
0 0 0 11156261
0 0 0 11025445
0 0 0 11418148
0 0 0 11614757
0 0 0 11418146
0 0 0 11418146
0 0 0 12074531
0 0 0 12139811
0 0 0 12140326
0 0 0 12337192
0 0 0 12140326
0 0 0 12206117
0 0 0 12009252
0 0 0 12140840
0 0 0 12337190
0.45950222 0.58934176 2.3862798 12337703
0.45612839 0.55660057 2.2537088 12141094
0.47828245 0.55660057 2.2537088 12140838
0.47409773 0.52730578 2.1350925 12600102
0.49508578 0.52730578 2.1350925 12600362
0.54474461 0.55660057 2.2537088 12468774
0.60024565 0.58934176 2.3862798 12534569
0.62370288 0.58934176 2.3862798 12599592
0.64716011 0.58934176 2.3862798 12599849
0.67061734 0.58934176 2.3862798 12665642
0.65551496 0.55660057 2.2537088 12272424
0.58085907 0.47708619 1.9317503 12272426
0.54768759 0.43560043 1.763772 12338219
0.56502551 0.43560043 1.763772 12338217
0.53577441 0.4007524 1.6226703 12207146
0.55172533 0.4007524 1.6226703 12272682
0.56767625 0.4007524 1.6226703 12272422
0.66321272 0.45540044 1.8439435 12469288
0.71378344 0.47708619 1.9317503 12271911
0.73277265 0.47708619 1.9317503 12075560
0.75176179 0.47708619 1.9317503 12534569
0.770751 0.47708619 1.9317503 12468776
0.7897402 0.47708619 1.9317503 12600362
0.80872941 0.47708619 1.9317503 12272426
0.79009503 0.45540044 1.8439435 12076076
0.6585505 0.37106705 1.5024725 11943464
0.64927274 0.35781464 1.4488127 11943974
0.66351461 0.35781464 1.4488127 11944231
0.72989166 0.38533884 1.5602599 11878697
0.88072526 0.45540044 1.8439435 12075305
0.89885128 0.45540044 1.8439435 11878181
0.91697735 0.45540044 1.8439435 11943720
0.7347241 0.35781464 1.4488127 11943721
0.74896598 0.35781464 1.4488127 11812904
0.85479283 0.4007524 1.6226703 11550504
1.0365998 0.47708619 1.9317503 11681320
1.0555888 0.47708619 1.9317503 11616038
1.074578 0.47708619 1.9317503 11615782
1.0935673 0.47708619 1.9317503 11550504
1.1125565 0.47708619 1.9317503 11221541
1.1315457 0.47708619 1.9317503 11353381
1.1505349 0.47708619 1.9317503 11746341
1.4447062 0.58934176 2.3862798 11419175
1.4681635 0.58934176 2.3862798 11484711
1.4916207 0.58934176 2.3862798 11222052
1.5150779 0.58934176 2.3862798 11156259
1.5385351 0.58934176 2.3862798 11222054
1.3276936 0.5009405 2.028338 11222052
1.2834592 0.47708619 1.9317503 11287332
1.3024484 0.47708619 1.9317503 11222310
1.2613722 0.45540044 1.8439435 11090727
1.1259586 0.4007524 1.6226703 11090725
1.1419095 0.4007524 1.6226703 11025190
1.2061045 0.4174504 1.6902815 11221543
1.22272 0.4174504 1.6902815 11156261
1.3520025 0.45540044 1.8439435 10828580
1.4353727 0.47708619 1.9317503 10697253
1.4543619 0.47708619 1.9317503 11025188
1.4063807 0.45540044 1.8439435 10762533
1.3625716 0.43560043 1.763772 10500901
1.3224133 0.4174504 1.6902815 11093035
1.3390288 0.4174504 1.6902815 11159087
1.3556443 0.4174504 1.6902815 11224880
1.4319234 0.43560043 1.763772 11290415
1.4492614 0.43560043 1.763772 11093551
1.4665993 0.43560043 1.763772 10962223
1.4839373 0.43560043 1.763772 11027247
1.5695151 0.45540044 1.8439435 10502702
1.5876411 0.45540044 1.8439435 10633772
1.6057671 0.45540044 1.8439435 10305325
1.7012215 0.47708619 1.9317503 10371118
1.9012855 0.52730578 2.1350925 10633774
2.0290666 0.55660057 2.2537088 10305579
2.1718805 0.58934176 2.3862798 10437677
2.1953378 0.58934176 2.3862798 10437163
2.3574698 0.62617564 2.5354223 10437165
2.5412192 0.66792065 2.7044504 10568751
2.5678041 0.66792065 2.7044504 10699824
2.594389 0.66792065 2.7044504 10437679
2.6209738 0.66792065 2.7044504 10437935
4.4125981 1.1132011 4.5074177 10568749
4.4569063 1.1132011 4.5074177 10436650
3.3759105 0.8349008 3.380563 10371118
3.4091415 0.8349008 3.380563 10568751
3.4423728 0.8349008 3.380563 10634801
3.4756038 0.8349008 3.380563 10766129
2.8070679 0.66792065 2.7044504 10634801
3.2695994 0.77067769 3.1205199 10832180
3.5752971 0.8349008 3.380563 10503986
4.8113713 1.1132011 4.5074177 10176049
0 0 0 9914932
0 0 0 8998454
0 0 0 9001281
0 0 0 8936000
1.4611679 0.32318741 1.3086051 8409402
1.4740316 0.32318741 1.3086051 5846828
1.5894396 0.34547618 1.3988537 6963505
0 0 0 8472629
0 0 0 10308405
0 0 0 10701109
1.8341863 0.38533884 1.5602599 10504757
1.8495237 0.38533884 1.5602599 10570292
2.3088756 0.47708619 1.9317503 10504241
0 0 0 10503985
0 0 0 10767159
0 0 0 10700337
0 0 0 10175792
0 0 0 10109229
0 0 0 9977643
0 0 0 10109228
0 0 0 10043690
0 0 0 9846829
0 0 0 9781552
0 0 0 6372131
0 0 0 4597526
-3.7242663 0.80135256 3.1205199 1704961
-4.0013905 0.86813188 3.380563 721673
-4.3289013 0.94705296 3.687887 852491
-4.2926493 0.94705296 3.687887 852488
-4.6820374 1.0417583 4.0566759 852231
-4.6421599 1.0417583 4.0566759 852489
-4.6022825 1.0417583 4.0566759 918282
-4.5624051 1.0417583 4.0566759 655625
-5.0250311 1.1575093 4.5074177 786954
-4.9807229 1.1575093 4.5074177 786696
-4.4427733 1.0417583 4.0566759 786952
-4.4028959 1.0417583 4.0566759 786694
-4.3630185 1.0417583 4.0566759 852743
-4.3231416 1.0417583 4.0566759 918536
-4.2832642 1.0417583 4.0566759 1181707
-4.2433867 1.0417583 4.0566759 1444879
-4.2035093 1.0417583 4.0566759 1971223
-4.1636324 1.0417583 4.0566759 2036502
-4.123755 1.0417583 4.0566759 2561559
-4.0838776 1.0417583 4.0566759 2824217
-3.6763637 0.94705296 3.687887 3217688
-3.6401114 0.94705296 3.687887 3480860
-3.6038594 0.94705296 3.687887 3679007
-3.5676074 0.94705296 3.687887 4138785
-3.5313554 0.94705296 3.687887 4925990
-3.4951031 0.94705296 3.687887 4463384
-3.4588511 0.94705296 3.687887 3937815
-3.4225991 0.94705296 3.687887 4201500
-3.3863468 0.94705296 3.687887 4529433
-2.8346958 0.80135256 3.1205199 4923420
-2.8040209 0.80135256 3.1205199 5448477
-2.7733459 0.80135256 3.1205199 5579804
-2.7426713 0.80135256 3.1205199 5382940
-2.3503966 0.69450551 2.7044504 5120284
-2.3238118 0.69450551 2.7044504 5251614
-2.4613147 0.74411303 2.8976254 5579290
-2.6199718 0.80135256 3.1205199 6369058
-2.5892968 0.80135256 3.1205199 6893860
-2.5586221 0.80135256 3.1205199 7616809
-2.7386093 0.86813188 3.380563 7551015
-2.7053783 0.86813188 3.380563 8405297
-2.6721473 0.86813188 3.380563 8208684
-2.8788176 0.94705296 3.687887 7881264
-2.8425655 0.94705296 3.687887 7292208
-3.0869448 1.0417583 4.0566759 6569258
-2.3438981 0.80135256 3.1205199 6569516
-1.7689353 0.61279899 2.3862798 6569772
-1.7454782 0.61279899 2.3862798 6832687
-1.7220209 0.61279899 2.3862798 7424052
-1.6985637 0.61279899 2.3862798 7949108
-1.6751064 0.61279899 2.3862798 7817267
-2.1598489 0.80135256 3.1205199 7092260
-2.5162966 0.94705296 3.687887 6236703
0 0 0 5317662
0 0 0 3543312
-1.5578202 0.61279899 2.3862798 3808285
-0.70497757 0.28155628 1.0963988 2493967
-0.55837822 0.22646919 0.88188601 3018769
-0.5497092 0.22646919 0.88188601 3215633
-0.55306339 0.23150183 0.90148348 3019798
-0.55656999 0.23676324 0.92197174 2887442
-0.80301017 0.34725276 1.3522252 2165520
-0.78971773 0.34725276 1.3522252 1772047
0 0 0 1640461
-0.69375712 0.31568432 1.2292956 1706255
0 0 0 2493458
-0.48035741 0.22646919 0.88188601 1705996
-0.47168842 0.22646919 0.88188601 1969168
-0.24481489 0.11974233 0.46628457 1509133
-0.23483282 0.11705149 0.45580626 1378060
-0.23035222 0.11705149 0.45580626 1837841
-0.22336194 0.11575092 0.45074174 1772048
-0.2165253 0.11447893 0.44578853 2429978
-0.20983727 0.11323459 0.440943 5253928
-0.20329309 0.11201702 0.43620169 5122597
-0.1990052 0.11201702 0.43620169 4991013
-0.19471732 0.11201702 0.43620169 4924704
-0.18840358 0.11082534 0.43156123 4727584
-0.1784656 0.10739776 0.41821399 4727070
-0.17802517 0.10965877 0.42701849 4858397
-0.17756578 0.11201702 0.43620169 4529945
-0.1732779 0.11201702 0.43620169 5056031
-0.16719225 0.11082534 0.43156123 6303526
-0.16294998 0.11082534 0.43156123 7943466
-0.16215789 0.11323459 0.440943 8991268
0 0 0 10039582
0 0 0 10564384
0 0 0 10760994
0 0 0 10891552
0 0 0 10826783
-0.15855554 0.13186814 0.51350325 10695710
-0.15350778 0.13186814 0.51350325 11351585
-0.14479433 0.12861213 0.50082415 11023133
-0.13816547 0.12704369 0.49471655 11154720
-0.13494809 0.12861213 0.50082415 11088671
-0.13002497 0.12861213 0.50082415 11220000
-0.12510183 0.12861213 0.50082415 11023138
-0.11588662 0.12401884 0.48293757 11088672
-0.10855469 0.12113468 0.47170648 11154208
-0.10272334 0.11974233 0.46628457 11154463
-0.099280901 0.12113468 0.47170648 11089183
-0.10048622 0.12861213 0.50082415 11155233
-0.094397694 0.12704369 0.49471655 11483171
-0.090639971 0.12861213 0.50082415 11483169
-0.086788319 0.13021979 0.50708449 11679521
-0.08180365 0.13021979 0.50708449 11548451
-0.075870603 0.12861213 0.50082415 11286562
-0.07008227 0.12704369 0.49471655 11089955
-0.065219179 0.12704369 0.49471655 11220771
-0.061101232 0.12861213 0.50082415 11352355
-0.053534433 0.1225598 0.47725597 11613987
-0.047177881 0.11838162 0.46098587 11417376
-0.041698672 0.11575092 0.45074174 11613985
-0.037686601 0.11705149 0.45580626 11679521
-0.034364354 0.12113468 0.47170648 11679521
0 0 0 11614496
0 0 0 11679521
0 0 0 12008484
-0.080014259 0.61279899 2.3862798 12139813
-0.073959179 0.80135256 3.1205199 11811107
0 0 0 11680035
0 0 0 11417378
0 0 0 11352355
0 0 0 11286564
0.021965869 0.22165069 0.86312246 11089955
0.032526568 0.23676324 0.92197174 11286560
0 0 0 11222054
0 0 0 11287332
0 0 0 11484709
0 0 0 11811621
0 0 0 11614755
0 0 0 11418916
0 0 0 11287332
0 0 0 12205606
0 0 0 12008740
0 0 0 11942947
0 0 0 12402983
0 0 0 12271397
0 0 0 12140324
0.38966623 0.57875466 2.2537088 12337444
0.37063825 0.52087915 2.028338 12140583
0.3905769 0.52087915 2.028338 12402983
0.41051555 0.52087915 2.028338 12534310
0.45310968 0.54829383 2.1350925 12403240
0.47409773 0.54829383 2.1350925 12337445
0.49508578 0.54829383 2.1350925 12075558
0.54474461 0.57875466 2.2537088 12337703
0.60024565 0.61279899 2.3862798 12205862
0.62370288 0.61279899 2.3862798 12075563
0.64716011 0.61279899 2.3862798 12140840
0.67061734 0.61279899 2.3862798 12534569
0.65551496 0.57875466 2.2537088 12271910
0.58085907 0.49607536 1.9317503 12666409
0.54768759 0.45293838 1.763772 12271399
0.56502551 0.45293838 1.763772 12402983
0.55809832 0.43406594 1.6902815 12271910
0.55172533 0.41670331 1.6226703 12337448
0.56767625 0.41670331 1.6226703 12337961
0.66321272 0.47352648 1.8439435 12141351
0.71378344 0.49607536 1.9317503 12337190
0.76941133 0.52087915 2.028338 12009767
0.75176179 0.49607536 1.9317503 11943720
0.770751 0.49607536 1.9317503 12206889
0.7897402 0.49607536 1.9317503 12665385
0.80872941 0.49607536 1.9317503 12271910
0.82771862 0.49607536 1.9317503 12271912
0.74086928 0.43406594 1.6902815 11943463
0.72718549 0.41670331 1.6226703 11877670
0.74313641 0.41670331 1.6226703 11943204
0.86259919 0.47352648 1.8439435 11811877
0.92266452 0.49607536 1.9317503 11812135
0.94165373 0.49607536 1.9317503 11681318
0.72048217 0.37205651 1.4488127 11681575
0.7347241 0.37205651 1.4488127 11681575
0.7767055 0.38583642 1.5024725 11878184
1.0176105 0.49607536 1.9317503 11287590
1.0365998 0.49607536 1.9317503 11353125
1.0555888 0.49607536 1.9317503 11287845
1.074578 0.49607536 1.9317503 11418147
1.0935673 0.49607536 1.9317503 11353638
1.1681844 0.52087915 2.028338 11615527
1.3201367 0.57875466 2.2537088 11484713
1.1505349 0.49607536 1.9317503 11352867
1.3644449 0.57875466 2.2537088 11221540
1.3865988 0.57875466 2.2537088 11091238
1.4916207 0.61279899 2.3862798 11156261
1.5150779 0.61279899 2.3862798 11155748
1.5385351 0.61279899 2.3862798 11419432
1.5619924 0.61279899 2.3862798 11025445
1.2834592 0.49607536 1.9317503 11157032
1.3024484 0.49607536 1.9317503 11024420
1.3214376 0.49607536 1.9317503 11091238
1.3404268 0.49607536 1.9317503 10828325
1.189489 0.43406594 1.6902815 10828326
1.2061045 0.43406594 1.6902815 11025191
1.22272 0.43406594 1.6902815 11090468
1.3520025 0.47352648 1.8439435 11156261
1.4353727 0.49607536 1.9317503 11025191
1.4543619 0.49607536 1.9317503 10893607
1.4733511 0.49607536 1.9317503 10762533
1.3625716 0.45293838 1.763772 10565668
1.3799095 0.45293838 1.763772 11093035
1.2854677 0.41670331 1.6226703 10765358
1.4145855 0.45293838 1.763772 10830638
1.4319234 0.45293838 1.763772 10961709
1.515137 0.47352648 1.8439435 10567979
1.4665993 0.45293838 1.763772 10502956
1.4839373 0.45293838 1.763772 10503728
1.5012753 0.45293838 1.763772 10830381
1.5876411 0.47352648 1.8439435 10502957
1.6057671 0.47352648 1.8439435 10830895
1.7012215 0.49607536 1.9317503 10568751
1.8062212 0.52087915 2.028338 10634031
1.82616 0.52087915 2.028338 10502958
2.0512207 0.57875466 2.2537088 10568494
2.1953378 0.61279899 2.3862798 10502957
2.3574698 0.65109891 2.5354223 10502701
2.5412192 0.69450551 2.7044504 10174252
2.7512186 0.74411303 2.8976254 9977130
2.7797024 0.74411303 2.8976254 10108716
2.8081863 0.74411303 2.8976254 10304812
2.8366699 0.74411303 2.8976254 10108200
2.5070097 0.65109891 2.5354223 10240042
2.8936377 0.74411303 2.8976254 10240558
3.4091415 0.86813188 3.380563 10372143
2.9506052 0.74411303 2.8976254 10568749
2.3170693 0.57875466 2.2537088 10766385
2.3392234 0.57875466 2.2537088 10766900
2.5002818 0.61279899 2.3862798 10832693
3.3002744 0.80135256 3.1205199 10701363
3.3309493 0.80135256 3.1205199 10437935
3.361624 0.80135256 3.1205199 10372401
2.2049944 0.52087915 2.028338 9324081
2.1189837 0.49607536 1.9317503 8670262
1.496581 0.34725276 1.3522252 8672574
1.4611679 0.33605108 1.3086051 9001280
1.4740316 0.33605108 1.3086051 7357747
0 0 0 5781807
0 0 0 7224879
0 0 0 8601900
0 0 0 10176047
0 0 0 10373683
0 0 0 10439735
0 0 0 10571321
0 0 0 10701878
0 0 0 11028788
0 0 0 10897712
0 0 0 10701618
0 0 0 10570034
0 0 0 10701363
0 0 0 10701363
0 0 0 10438962
0 0 0 10373172
0 0 0 10043954
0 0 0 6634536
0 0 0 3347980
-4.0346217 0.90136296 3.380563 1508612
-4.0013905 0.90136296 3.380563 983816
-4.3289013 0.9833051 3.687887 786696
-4.2926493 0.9833051 3.687887 852489
-4.2563972 0.9833051 3.687887 852489
-4.6421599 1.0816356 4.0566759 918282
-4.6022825 1.0816356 4.0566759 1181196
-4.5624051 1.0816356 4.0566759 1707281
-5.0250311 1.2018174 4.5074177 2232338
-4.9807229 1.2018174 4.5074177 2955288
-4.4427733 1.0816356 4.0566759 3021082
-4.0026326 0.9833051 3.687887 3152411
-3.9663804 0.9833051 3.687887 3349787
-3.9301283 0.9833051 3.687887 3349273
-4.2832642 1.0816356 4.0566759 3349273
-4.2433867 1.0816356 4.0566759 3481113
-3.5029244 0.90136296 3.380563 3415314
-3.4696932 0.90136296 3.380563 4139292
-3.4364622 0.90136296 3.380563 5257773
-3.7126157 0.9833051 3.687887 5914419
-3.6763637 0.9833051 3.687887 6767413
-3.6401114 0.9833051 3.687887 7424052
-3.3035378 0.90136296 3.380563 7422766
-3.2703068 0.90136296 3.380563 5186070
-4.3161011 1.2018174 4.5074177 3149327
-3.4951031 0.9833051 3.687887 2164492
-3.1706135 0.90136296 3.380563 2033164
-2.8960454 0.83202744 3.1205199 2230799
-2.8653705 0.83202744 3.1205199 2427664
-2.8346958 0.83202744 3.1205199 2690836
-2.8040209 0.83202744 3.1205199 3216409
-2.5752497 0.77259684 2.8976254 3675929
-1.7827363 0.5408178 2.028338 4200730
-1.9586641 0.6009087 2.2537088 4332313
-1.93651 0.6009087 2.2537088 4464154
-1.9143559 0.6009087 2.2537088 4857885
-2.4328308 0.77259684 2.8976254 5383197
-2.4043469 0.77259684 2.8976254 5908255
-2.5586221 0.83202744 3.1205199 6368547
-2.5279472 0.83202744 3.1205199 6630175
-2.4972725 0.83202744 3.1205199 6893090
-2.4665976 0.83202744 3.1205199 7354152
-2.4359226 0.83202744 3.1205199 7945261
-2.4052479 0.83202744 3.1205199 7879467
-1.7149694 0.6009087 2.2537088 8207660
-1.3850306 0.49165255 1.8439435 8338730
-1.2529958 0.45068148 1.6902815 7026468
-1.2363803 0.45068148 1.6902815 3545361
-1.2197648 0.45068148 1.6902815 5253157
-1.3125265 0.49165255 1.8439435 6369061
-1.0952619 0.41601372 1.5602599 5580063
-1.4777914 0.56928188 2.1350925 4857883
-0.61509472 0.24036346 0.90148348 4398105
-0.60623312 0.24036346 0.90148348 3807255
-0.59737146 0.24036346 0.90148348 2690577
-0.56346691 0.23013523 0.86312246 2560534
-0.55498236 0.23013523 0.86312246 2297363
-0.54649782 0.23013523 0.86312246 1903633
-0.5497092 0.23513816 0.88188601 1640461
-0.54104024 0.23513816 0.88188601 2231311
-0.53237128 0.23513816 0.88188601 2558990
-0.54750693 0.24582627 0.92197174 2296335
0 0 0 1771277
0 0 0 1114891
-0.63594413 0.30045435 1.1268544 1509134
-0.54866374 0.26381356 0.98943311 1836555
-0.48035741 0.23513816 0.88188601 1378316
-0.47168842 0.23513816 0.88188601 1443853
-0.48406577 0.24582627 0.92197174 1115145
-0.47500277 0.24582627 0.92197174 1640719
-0.23035222 0.12153209 0.45580626 1706253
-0.22587164 0.12153209 0.45580626 1837840
-0.21893114 0.12018173 0.45074174 1969940
-0.21214318 0.11886105 0.44578853 5254182
-0.20550278 0.11756908 0.440943 5122853
-0.1990052 0.1163049 0.43620169 4990756
-0.19471732 0.1163049 0.43620169 5383713
-0.18257667 0.11150882 0.41821399 5514783
-0.1784656 0.11150882 0.41821399 6892578
-0.17435455 0.11150882 0.41821399 8728354
-0.17382756 0.11385638 0.42701849 10302499
-0.1732779 0.1163049 0.43620169 10433311
0 0 0 10629918
0 0 0 10892576
0 0 0 10695456
0 0 0 10958882
0 0 0 11089440
0 0 0 10891549
-0.16654293 0.13520445 0.50708449 10629662
-0.16155827 0.13520445 0.50708449 10826270
-0.15657361 0.13520445 0.50708449 10695710
-0.15350778 0.13691589 0.51350325 10826783
-0.14479433 0.13353525 0.50082415 11154976
-0.13987121 0.13353525 0.50082415 11219999
-0.13494809 0.13353525 0.50082415 11089184
-0.13002497 0.13353525 0.50082415 11088927
-0.12510183 0.13353525 0.50082415 11220769
-0.12017871 0.13353525 0.50082415 11285792
-0.11525559 0.13353525 0.50082415 11220769
-0.11171164 0.13520445 0.50708449 11286048
-0.10672697 0.13520445 0.50708449 10958369
-0.1017423 0.13520445 0.50708449 10892062
-0.10052741 0.14047214 0.52684098 10695710
0 0 0 10762015
0 0 0 11482656
-0.08180365 0.13520445 0.50708449 11416863
-0.076818988 0.13520445 0.50708449 11679775
-0.07008227 0.13190678 0.49471655 11482658
-0.066024356 0.13353525 0.50082415 11286307
-0.060356095 0.13190678 0.49471655 11220769
-0.056178108 0.13353525 0.50082415 11417376
-0.047177881 0.12291314 0.46098587 11483171
-0.042646371 0.12291314 0.46098587 11483169
-0.037686601 0.12153209 0.45580626 11417378
-0.041046314 0.15022717 0.56342721 11483171
-0.054394923 0.23013523 0.86312246 11614242
-0.10788943 0.5408178 2.028338 11286303
-0.087950774 0.5408178 2.028338 11876639
-0.068012118 0.5408178 2.028338 11876900
-0.048073467 0.5408178 2.028338 11548962
-0.043284331 0.83202744 3.1205199 11745568
0 0 0 11548962
0 0 0 11221539
0 0 0 11287332
0 0 0 11090466
0 0 0 11221541
0 0 0 11221539
0 0 0 11287332
0 0 0 11483939
0 0 0 11287332
0 0 0 11746595
0 0 0 11878181
0 0 0 12139811
0 0 0 12008227
0 0 0 12008740
0 0 0 12139811
0 0 0 12205352
0 0 0 11943461
0.3150104 0.51506454 1.9317503 11943720
0.3339996 0.51506454 1.9317503 12140324
0.35298878 0.51506454 1.9317503 11943974
0.37197798 0.51506454 1.9317503 12271139
0.39096716 0.51506454 1.9317503 12205859
0.40995637 0.51506454 1.9317503 12206118
0.45039287 0.5408178 2.028338 12205861
0.52259058 0.6009087 2.2537088 12271910
0.57678843 0.63625622 2.3862798 12402470
0.60024565 0.63625622 2.3862798 12599333
0.62370288 0.63625622 2.3862798 12338218
0.64716011 0.63625622 2.3862798 12141352
0.67061734 0.63625622 2.3862798 12337703
0.56186992 0.51506454 1.9317503 12402983
0.58085907 0.51506454 1.9317503 12403496
0.52486724 0.45068148 1.6902815 12468006
0.54148281 0.45068148 1.6902815 12141096
0.55809832 0.45068148 1.6902815 12206118
0.55172533 0.43265423 1.6226703 12337447
0.56767625 0.43265423 1.6226703 12271910
0.58362716 0.43265423 1.6226703 12469289
0.68133873 0.49165255 1.8439435 12271397
0.6994648 0.49165255 1.8439435 12271397
0.71759081 0.49165255 1.8439435 12337704
0.67440712 0.45068148 1.6902815 12337192
0.75384295 0.49165255 1.8439435 12271397
0.7076382 0.45068148 1.6902815 12075047
0.72425377 0.45068148 1.6902815 12206633
0.6585505 0.4006058 1.5024725 12074791
0.67331988 0.4006058 1.5024725 12074792
0.74313641 0.43265423 1.6226703 12074279
0.86259919 0.49165255 1.8439435 11877670
0.92266452 0.51506454 1.9317503 11943720
0.7062403 0.38629842 1.4488127 11485224
0.72048217 0.38629842 1.4488127 11616295
0.76193613 0.4006058 1.5024725 11812648
0.80657881 0.41601372 1.5602599 11746343
0.9713555 0.49165255 1.8439435 11418919
1.0365998 0.51506454 1.9317503 11483941
1.0555888 0.51506454 1.9317503 11746341
1.074578 0.51506454 1.9317503 11746598
1.1482457 0.5408178 2.028338 11352355
1.1681844 0.5408178 2.028338 11287076
1.3201367 0.6009087 2.2537088 11156262
1.2080617 0.5408178 2.028338 11090211
1.2926319 0.56928188 2.1350925 10893859
1.31362 0.56928188 2.1350925 11025186
1.4916207 0.63625622 2.3862798 11287332
1.5150779 0.63625622 2.3862798 11352357
1.5385351 0.63625622 2.3862798 11221797
1.5619924 0.63625622 2.3862798 11221540
1.4973692 0.6009087 2.2537088 11090725
1.4395483 0.56928188 2.1350925 11024933
1.3875096 0.5408178 2.028338 10959398
1.4074482 0.5408178 2.028338 11222055
1.359416 0.51506454 1.9317503 10828839
1.1133273 0.41601372 1.5602599 10828839
1.1738113 0.43265423 1.6226703 11024677
1.3520025 0.49165255 1.8439435 11025191
1.4353727 0.51506454 1.9317503 11089701
1.4543619 0.51506454 1.9317503 10696742
1.4063807 0.49165255 1.8439435 11156261
1.4245067 0.49165255 1.8439435 10696996
1.5113295 0.51506454 1.9317503 11092781
1.2854677 0.43265423 1.6226703 10896686
1.3556443 0.45068148 1.6902815 10831408
1.4319234 0.47027633 1.763772 10700337
1.515137 0.49165255 1.8439435 10700336
1.533263 0.49165255 1.8439435 10633515
1.4839373 0.47027633 1.763772 10962222
1.5012753 0.47027633 1.763772 10699823
1.5876411 0.49165255 1.8439435 10568236
1.6822323 0.51506454 1.9317503 10502444
1.7012215 0.51506454 1.9317503 10371372
1.7202107 0.51506454 1.9317503 10371372
1.82616 0.5408178 2.028338 10633772
2.0512207 0.6009087 2.2537088 10437163
2.1953378 0.63625622 2.3862798 10634284
2.3574698 0.67602223 2.5354223 10502957
2.5412192 0.72109038 2.7044504 10568751
2.5678041 0.72109038 2.7044504 10436911
2.7797024 0.77259684 2.8976254 10568751
2.8081863 0.77259684 2.8976254 10371629
2.8366699 0.77259684 2.8976254 10239789
2.5070097 0.67602223 2.5354223 10042923
2.3829956 0.63625622 2.3862798 10239532
2.4064529 0.63625622 2.3862798 10042925
2.4299102 0.63625622 2.3862798 10109229
2.4533675 0.63625622 2.3862798 10634801
2.4768248 0.63625622 2.3862798 10700848
2.5002818 0.63625622 2.3862798 10569777
3.3002744 0.83202744 3.1205199 10307632
3.3309493 0.83202744 3.1205199 10307632
2.0810053 0.51506454 1.9317503 10504241
1.6333292 0.4006058 1.5024725 10308148
1.4832885 0.36054519 1.3522252 9784117
1.4483042 0.34891471 1.3086051 8013619
1.4611679 0.34891471 1.3086051 8343351
0 0 0 8475709
0 0 0 6701364
0 0 0 6700079
0 0 0 6765357
0 0 0 7880237
0 0 0 9783861
0 0 0 10439218
0 0 0 10570032
0 0 0 10832691
0 0 0 11028271
0 0 0 10962994
0 0 0 10766128
0 0 0 10700848
0 0 0 10701105
0 0 0 10831921
0 0 0 10306608
0 0 0 10044978
0 0 0 10110771
0 0 0 6306088
0 0 0 2889234
-4.0346217 0.93459404 3.380563 2298128
-4.0013905 0.93459404 3.380563 2232594
-3.9681594 0.93459404 3.380563 2561561
-3.6322417 0.86270225 3.1205199 2824474
-4.2563972 1.0195571 3.687887 3021595
-4.6421599 1.121513 4.0566759 3086873
-4.6022825 1.121513 4.0566759 3218458
-4.5624051 1.121513 4.0566759 3612444
-4.5225282 1.121513 4.0566759 3744030
-3.7355418 0.93459404 3.380563 3809823
-3.7023108 0.93459404 3.380563 4073764
