# .PCD v0.7 - Point Cloud Data file format
VERSION 0.7
FIELDS x y z rgb
SIZE 4 4 4 4
TYPE F F F U
COUNT 1 1 1 1
WIDTH 1346
HEIGHT 1
VIEWPOINT 0 0 0 1 0 0 0
POINTS 1346
DATA ascii
-1.7152759 0.55449843 5.0708447 7950137
-1.6654292 0.55449843 5.0708447 7557174
-1.6155826 0.55449843 5.0708447 7029812
-1.7894125 0.63371247 5.7952509 7753531
-1.7324449 0.63371247 5.7952509 7818552
-1.9547236 0.73933119 6.761126 7751734
-2.2659137 0.88719749 8.1133518 9988939
0 0 0 10053444
0 0 0 10315595
0 0 0 2034436
0 0 0 852489
-0.20295006 0.096434504 0.88188601 852491
-0.19428109 0.096434504 0.88188601 655880
-0.17787828 0.092416398 0.84514076 918282
-0.16957051 0.092416398 0.84514076 918282
-0.16126272 0.092416398 0.84514076 655880
-0.15295495 0.092416398 0.84514076 786696
-0.14464718 0.092416398 0.84514076 918284
-0.13355698 0.090530351 0.82789302 721927
-0.12050037 0.086980142 0.79542661 786696
-0.11268129 0.086980142 0.79542661 787466
-0.10486221 0.086980142 0.79542661 918282
-0.097043134 0.086980142 0.79542661 655880
-0.089224055 0.086980142 0.79542661 786696
-0.079839498 0.085307449 0.78012997 655882
-0.072170787 0.085307449 0.78012997 1116431
-0.063285045 0.08369787 0.76541048 2234140
-0.055761028 0.08369787 0.76541048 2496284
-0.048237007 0.08369787 0.76541048 2890014
-0.039959047 0.082147911 0.75123626 2627870
-0.032574359 0.082147911 0.75123626 2562331
-0.025189674 0.082147911 0.75123626 2429976
-0.017804988 0.082147911 0.75123626 1115145
-0.010821083 0.085307449 0.78012997 984329
-0.0032141812 0.086980142 0.79542661 852743
0.0045163427 0.085307449 0.78012997 852489
0.012185055 0.085307449 0.78012997 1049098
0.020647919 0.088719748 0.81133515 918536
0.02920753 0.090530351 0.82789302 1049352
0.037345756 0.090530351 0.82789302 1049868
0.046431564 0.092416398 0.84514076 1114891
0.057119306 0.096434504 0.88188601 1114888
0 0 0 983559
0 0 0 1312267
0 0 0 524807
0 0 0 983305
0 0 0 721673
0 0 0 852489
0.30104998 0.24644375 2.2537088 918282
0.32320404 0.24644375 2.2537088 1049095
0.3453581 0.24644375 2.2537088 852489
0.34816939 0.23347302 2.1350925 983561
0.3506996 0.22179937 2.028338 852489
0.35298878 0.21123749 1.9317503 852232
0.37197798 0.21123749 1.9317503 917512
0.39096716 0.21123749 1.9317503 458756
0.40995637 0.21123749 1.9317503 655367
0.64341831 0.31685624 2.8976254 655880
0.39194289 0.1848328 1.6902815 524292
0.81711692 0.36966559 3.380563 721675
2.0408354 0.88719749 8.1133518 655366
3.5343163 1.4786624 13.522252 786696
0 0 0 786696
0 0 0 852489
0 0 0 786439
0 0 0 852231
0 0 0 2493188
0 0 0 8933944
0 0 0 8868920
0 0 0 8934201
0.94612706 0.29573247 2.7044504 8803131
0.81059337 0.24644375 2.2537088 8672317
0.49964839 0.14786623 1.3522252 8211253
0.48088205 0.13862461 1.2677112 8932657
0.49334371 0.13862461 1.2677112 8604981
0.50580537 0.13862461 1.2677112 2558470
0.51826704 0.13862461 1.2677112 984329
0.58563161 0.15296507 1.3988537 721157
0.5993824 0.15296507 1.3988537 720903
0.59269542 0.14786623 1.3522252 852232
0.60598785 0.14786623 1.3522252 721673
0.61928028 0.14786623 1.3522252 787720
0.63257271 0.14786623 1.3522252 852743
0.66813642 0.15296507 1.3988537 852743
0.79098916 0.1774395 1.6226703 918025
0.84056258 0.1848328 1.6902815 984072
0.93510342 0.20163578 1.8439435 1049608
0.99862134 0.21123749 1.9317503 1049865
1.0176105 0.21123749 1.9317503 918282
1.0365998 0.21123749 1.9317503 918025
1.1083684 0.22179937 2.028338 852746
1.1876916 0.23347302 2.1350925 721157
1.2086797 0.23347302 2.1350925 786438
1.2296677 0.23347302 2.1350925 786696
1.2506558 0.23347302 2.1350925 1049094
1.0504884 0.19286901 1.763772 786950
0.98240024 0.1774395 1.6226703 524550
0.95995307 0.1706149 1.5602599 655366
0.97529048 0.1706149 1.5602599 918536
0.99062788 0.1706149 1.5602599 3088157
1.046204 0.1774395 1.6226703 3350046
1.1064112 0.1848328 1.6902815 3153183
1.1230268 0.1848328 1.6902815 2890779
1.2432462 0.20163578 1.8439435 2365211
1.2613722 0.20163578 1.8439435 1443600
1.2794983 0.20163578 1.8439435 852233
1.2412059 0.19286901 1.763772 852746
1.2585438 0.19286901 1.763772 918025
1.2758818 0.19286901 1.763772 786696
1.3520025 0.20163578 1.8439435 1838091
1.3701285 0.20163578 1.8439435 7422771
1.4543619 0.21123749 1.9317503 6636598
1.4733511 0.21123749 1.9317503 6505017
1.4923403 0.21123749 1.9317503 7359556
1.5113295 0.21123749 1.9317503 7491140
1.5303187 0.21123749 1.9317503 7491398
1.4788848 0.20163578 1.8439435 7162688
1.4970108 0.20163578 1.8439435 6637116
1.515137 0.20163578 1.8439435 6571324
1.405491 0.1848328 1.6902815 4202528
1.4221066 0.1848328 1.6902815 2889493
1.5012753 0.19286901 1.763772 2297361
1.5876411 0.20163578 1.8439435 851975
1.5359511 0.19286901 1.763772 458758
1.5532892 0.19286901 1.763772 721161
1.5706271 0.19286901 1.763772 524293
1.5217998 0.1848328 1.6902815 524807
1.4768788 0.1774395 1.6226703 524294
1.4928297 0.1774395 1.6226703 721159
1.5087806 0.1774395 1.6226703 786696
1.5247315 0.1774395 1.6226703 590087
1.5406824 0.1774395 1.6226703 655623
1.5566334 0.1774395 1.6226703 1246473
1.5725844 0.1774395 1.6226703 3677719
1.5885353 0.1774395 1.6226703 6636340
1.6713398 0.1848328 1.6902815 6833205
1.6879553 0.1848328 1.6902815 7227706
1.7045708 0.1848328 1.6902815 7490107
1.7211864 0.1848328 1.6902815 7752766
1.7378019 0.1848328 1.6902815 7554874
1.8306965 0.19286901 1.763772 6637116
1.8480344 0.19286901 1.763772 3350567
1.9501621 0.20163578 1.8439435 787466
1.9682881 0.20163578 1.8439435 852489
2.0810053 0.21123749 1.9317503 852489
2.594111 0.26094043 2.3862798 917766
2.617568 0.26094043 2.3862798 721927
2.4943018 0.24644375 2.2537088 656134
2.6644826 0.26094043 2.3862798 918281
2.8559361 0.27724922 2.5354223 786439
3.8411458 0.36966559 3.380563 852490
3.3208945 0.31685624 2.8976254 721418
2.930706 0.27724922 2.5354223 786697
1.751484 0.16429582 1.5024725 590344
1.7662535 0.16429582 1.5024725 590344
1.7810228 0.16429582 1.5024725 786696
3.2324257 0.29573247 2.7044504 590087
0 0 0 918282
0 0 0 1049610
0 0 0 1115401
0 0 0 852743
0 0 0 655880
0 0 0 590343
0 0 0 852489
0 0 0 852231
0 0 0 1115145
0 0 0 1509903
0 0 0 1970196
0 0 0 1576466
-4.8415465 0.48347604 4.0566759 1576466
-4.8016691 0.48347604 4.0566759 2299167
-5.2908797 0.53719562 4.5074177 5191219
-9.4438286 0.96695209 8.1133518 9924445
-9.3640747 0.96695209 8.1133518 10842710
-9.2843199 0.96695209 8.1133518 10907986
-9.204565 0.96695209 8.1133518 11039828
-9.1248102 0.96695209 8.1133518 11039829
-7.5375462 0.80579334 6.761126 11039827
-5.603313 0.60434502 5.0708447 10974548
-4.0388846 0.43952367 3.687887 11302232
-3.386843 0.37190464 3.1205199 11368023
-2.7268865 0.30217251 2.5354223 11368023
-2.4017453 0.26859781 2.2537088 11236950
-2.519567 0.28439766 2.3862798 11236950
-2.4961097 0.28439766 2.3862798 11499095
-2.4726524 0.28439766 2.3862798 11237463
-2.6022699 0.30217251 2.5354223 11105613
-2.945539 0.34534001 2.8976254 8147249
-3.4032311 0.40289667 3.380563 5978146
-4.0440001 0.48347604 4.0566759 2823694
-4.0041227 0.48347604 4.0566759 1246729
-3.9642456 0.48347604 4.0566759 1115915
-3.9243684 0.48347604 4.0566759 2757138
-3.5313554 0.43952367 3.687887 3282963
-3.4951031 0.43952367 3.687887 3348245
-3.8047364 0.48347604 4.0566759 3413525
-3.7648592 0.48347604 4.0566759 3217431
-3.7249818 0.48347604 4.0566759 3414038
-3.6851046 0.48347604 4.0566759 3480085
-3.6452272 0.48347604 4.0566759 3348499
-3.60535 0.48347604 4.0566759 3151633
-3.5654726 0.48347604 4.0566759 3413525
-3.5255952 0.48347604 4.0566759 3151890
-3.8730199 0.53719562 4.5074177 3086100
-3.8287117 0.53719562 4.5074177 3348245
-3.7844038 0.53719562 4.5074177 2954512
-3.366086 0.48347604 4.0566759 1114886
-3.3262088 0.48347604 4.0566759 721416
-3.2863314 0.48347604 4.0566759 984845
-3.2464542 0.48347604 4.0566759 918282
-3.2065768 0.48347604 4.0566759 918282
-3.1666996 0.48347604 4.0566759 984329
-3.474247 0.53719562 4.5074177 786950
-3.4299388 0.53719562 4.5074177 590602
-3.3856306 0.53719562 4.5074177 721160
-3.3413227 0.53719562 4.5074177 786696
-3.2970145 0.53719562 4.5074177 786696
-3.2527063 0.53719562 4.5074177 852744
-3.2083981 0.53719562 4.5074177 984072
-3.1640902 0.53719562 4.5074177 1181451
-3.119782 0.53719562 4.5074177 1246474
-3.0754738 0.53719562 4.5074177 1246731
-3.4100614 0.60434502 5.0708447 1181194
-2.9868577 0.53719562 4.5074177 1050122
-2.9425495 0.53719562 4.5074177 1049867
-2.8982413 0.53719562 4.5074177 1115145
-2.8539333 0.53719562 4.5074177 1378059
-2.8096251 0.53719562 4.5074177 1444110
-3.1109815 0.60434502 5.0708447 1115144
-3.0611348 0.60434502 5.0708447 1378059
-3.0112882 0.60434502 5.0708447 1313294
-2.9614415 0.60434502 5.0708447 1180680
-2.9115949 0.60434502 5.0708447 852230
-2.8617485 0.60434502 5.0708447 1246988
-2.8119018 0.60434502 5.0708447 1641230
-2.7620552 0.60434502 5.0708447 1444109
-2.7122085 0.60434502 5.0708447 1444107
-3.0426991 0.69068003 5.7952509 1575438
-2.9857316 0.69068003 5.7952509 1707022
-2.5626686 0.60434502 5.0708447 1509645
-2.8717964 0.69068003 5.7952509 1312267
-2.8148289 0.69068003 5.7952509 983559
-2.7578614 0.69068003 5.7952509 2758163
-2.363282 0.60434502 5.0708447 3808535
-2.6439261 0.69068003 5.7952509 3741452
-2.5869586 0.69068003 5.7952509 3610637
-2.5299909 0.69068003 5.7952509 3676432
-2.4730234 0.69068003 5.7952509 3610640
-2.4160559 0.69068003 5.7952509 3216400
-2.3590882 0.69068003 5.7952509 2953487
-2.3021207 0.69068003 5.7952509 3281422
-2.2451532 0.69068003 5.7952509 4332559
-2.1881855 0.69068003 5.7952509 6831656
-2.131218 0.69068003 5.7952509 8607290
-2.0742505 0.69068003 5.7952509 8344637
-2.0172827 0.69068003 5.7952509 7489842
-1.7152759 0.60434502 5.0708447 6044715
-1.6654292 0.60434502 5.0708447 6043938
-1.6155826 0.60434502 5.0708447 4926239
-1.7894125 0.69068003 5.7952509 2756363
-2.0211856 0.80579334 6.761126 1837835
-2.3456683 0.96695209 8.1133518 1706767
0 0 0 1444110
0 0 0 1639173
0 0 0 9134153
0 0 0 1246473
0 0 0 787208
-0.20295006 0.10510349 0.88188601 721675
-0.19014744 0.10286724 0.86312246 918282
-0.18166292 0.10286724 0.86312246 721675
-0.16957051 0.10072417 0.84514076 918536
-0.16126272 0.10072417 0.84514076 786696
-0.15295495 0.10072417 0.84514076 852743
-0.1416952 0.098668583 0.82789302 917512
-0.12831944 0.094799221 0.79542661 786696
-0.12050037 0.094799221 0.79542661 918536
-0.11268129 0.094799221 0.79542661 918536
-0.10486221 0.094799221 0.79542661 787468
-0.097043134 0.094799221 0.79542661 851975
-0.089224055 0.094799221 0.79542661 721673
-0.079839498 0.09297616 0.78012997 655880
-0.072170787 0.09297616 0.78012997 1642005
-0.064502068 0.09297616 0.78012997 2299164
-0.055761028 0.091221891 0.76541048 2562331
-0.048237007 0.091221891 0.76541048 2496538
-0.039959047 0.089532599 0.75123626 2431003
-0.032574359 0.089532599 0.75123626 2233626
-0.025189674 0.089532599 0.75123626 1707282
-0.017804988 0.089532599 0.75123626 1181196
-0.010616911 0.091221891 0.76541048 1049352
-0.0029804225 0.087904729 0.73757738 853261
0.0042699962 0.087904729 0.73757738 918282
0.011520416 0.087904729 0.73757738 786696
0.019479167 0.091221891 0.76541048 983558
0.028062137 0.094799221 0.79542661 1115145
0.037345756 0.098668583 0.82789302 1050122
0.04548398 0.098668583 0.82789302 1049098
0.054739334 0.10072417 0.84514076 983305
0.064388536 0.10286724 0.86312246 917766
0.074457265 0.10510349 0.88188601 786950
0 0 0 852489
0 0 0 720903
0 0 0 918282
0 0 0 1049098
0 0 0 918282
0 0 0 787464
0.62164456 0.48347604 4.0566759 918536
0.3891305 0.28439766 2.3862798 1049097
0.3506996 0.24173802 2.028338 918279
0.35298878 0.23022668 1.9317503 852489
0.37197798 0.23022668 1.9317503 983303
0.68419254 0.40289667 3.380563 589832
0.71742362 0.40289667 3.380563 655366
0.7506547 0.40289667 3.380563 720903
0.78388578 0.40289667 3.380563 983559
0.81711692 0.40289667 3.380563 590087
2.551044 1.20869 10.141689 590087
3.5343163 1.6115867 13.522252 655368
3.6672406 1.6115867 13.522252 720905
3.8001649 1.6115867 13.522252 786696
0.33712196 0.13813601 1.1590502 786953
0.24396083 0.096695207 0.81133515 786951
0.2738438 0.10510349 0.88188601 1312266
0.30941874 0.11511334 0.96587515 8407859
0.32669172 0.11792098 0.98943311 8802614
0.76628524 0.26859781 2.2537088 8867636
0.78843927 0.26859781 2.2537088 8998708
0.47066709 0.15596001 1.3086051 8933685
0.45422581 0.14650787 1.2292956 8801074
0.46630985 0.14650787 1.2292956 8408371
0.47839388 0.14650787 1.2292956 8473652
0.50580537 0.15108626 1.2677112 1245957
0.5349853 0.15596001 1.3086051 983305
0.56611055 0.16115867 1.3522252 786696
0.57940298 0.16115867 1.3522252 590087
0.59269542 0.16115867 1.3522252 590087
0.60598785 0.16115867 1.3522252 721418
0.61928028 0.16115867 1.3522252 918282
0.65438563 0.16671586 1.3988537 590087
0.69199842 0.17267001 1.4488127 721415
0.79098916 0.19339041 1.6226703 852487
0.84056258 0.20144834 1.6902815 918023
0.85717809 0.20144834 1.6902815 852231
0.95322943 0.21976183 1.8439435 655624
1.0176105 0.23022668 1.9317503 786950
1.0365998 0.23022668 1.9317503 786439
1.1083684 0.24173802 2.028338 655880
1.1283071 0.24173802 2.028338 720903
1.0935673 0.23022668 1.9317503 852232
1.0619857 0.21976183 1.8439435 786950
1.0331504 0.21020697 1.763772 852487
0.96644932 0.19339041 1.6226703 852743
0.9446156 0.18595232 1.5602599 589828
0.92439926 0.1790652 1.5024725 590089
0.97529048 0.18595232 1.5602599 1837835
0.99062788 0.18595232 1.5602599 4334363
1.046204 0.19339041 1.6226703 4071962
1.0621549 0.19339041 1.6226703 4137757
1.1230268 0.20144834 1.6902815 3875100
1.1891921 0.21020697 1.763772 2888209
1.20653 0.21020697 1.763772 2495000
1.2794983 0.21976183 1.8439435 1903633
1.2976243 0.21976183 1.8439435 2495765
1.2585438 0.21020697 1.763772 3086360
1.2758818 0.21020697 1.763772 3020311
1.2932198 0.21020697 1.763772 2691859
1.3105577 0.21020697 1.763772 4071970
1.3882545 0.21976183 1.8439435 4136480
1.4733511 0.23022668 1.9317503 4334110
1.4923403 0.23022668 1.9317503 4268317
1.5113295 0.23022668 1.9317503 4991265
1.5303187 0.23022668 1.9317503 5385766
1.4788848 0.21976183 1.8439435 5518122
1.4970108 0.21976183 1.8439435 5256750
1.4492614 0.21020697 1.763772 4929327
1.405491 0.20144834 1.6902815 3546140
1.551389 0.21976183 1.8439435 2954259
1.5695151 0.21976183 1.8439435 1903118
1.5876411 0.21976183 1.8439435 917768
1.6057671 0.21976183 1.8439435 786952
1.6238931 0.21976183 1.8439435 787208
1.5051843 0.20144834 1.6902815 787721
1.5217998 0.20144834 1.6902815 918536
1.4768788 0.19339041 1.6226703 786696
1.4928297 0.19339041 1.6226703 721416
1.5087806 0.19339041 1.6226703 786952
1.5247315 0.19339041 1.6226703 721161
1.6048776 0.20144834 1.6902815 721416
1.6214931 0.20144834 1.6902815 1246217
1.5725844 0.19339041 1.6226703 3875357
1.5885353 0.19339041 1.6226703 6373682
1.6044862 0.19339041 1.6226703 6768182
1.6879553 0.20144834 1.6902815 6439215
1.7045708 0.20144834 1.6902815 6964275
1.7211864 0.20144834 1.6902815 7228474
1.7378019 0.20144834 1.6902815 6372655
1.8306965 0.21020697 1.763772 5585198
1.7710329 0.20144834 1.6902815 3942699
1.7876486 0.20144834 1.6902815 919314
1.8042641 0.20144834 1.6902815 721674
2.0810053 0.23022668 1.9317503 787466
2.2049944 0.24173802 2.028338 721674
2.2249329 0.24173802 2.028338 656138
2.2448716 0.24173802 2.028338 655623
2.6644826 0.28439766 2.3862798 787207
0 0 0 852744
0 0 0 786696
4.226593 0.43952367 3.687887 786696
2.930706 0.30217251 2.5354223 786696
1.8188488 0.18595232 1.5602599 852489
1.7662535 0.1790652 1.5024725 918282
1.7810228 0.1790652 1.5024725 852489
5.3873768 0.53719562 4.5074177 721157
0 0 0 786952
0 0 0 655623
0 0 0 655880
0 0 0 655881
0 0 0 655880
0 0 0 721416
0 0 0 786696
0 0 0 786952
0 0 0 787466
0 0 0 1641488
0 0 0 2035730
0 0 0 2035474
-4.4014053 0.47577575 3.687887 1903890
-5.3351879 0.58150375 4.5074177 1640978
-7.9363189 0.87225556 6.761126 2298396
-9.4438286 1.0467067 8.1133518 8873048
0 0 0 10580313
0 0 0 10973782
-11.505706 1.3083833 10.141689 10842710
-9.1248102 1.0467067 8.1133518 10842710
-7.5375462 0.87225556 6.761126 10908757
-6.4037862 0.74764758 5.7952509 11105364
-3.7023108 0.43612778 3.380563 10908244
-3.1449256 0.37382379 2.8976254 10974035
-2.7268865 0.32709584 2.5354223 10778197
-2.4017453 0.29075187 2.2537088 10974554
-2.3795912 0.29075187 2.2537088 11171416
-2.4961097 0.30785489 2.3862798 11237720
-2.4726524 0.30785489 2.3862798 11302997
-2.6022699 0.32709584 2.5354223 11170124
-2.945539 0.37382379 2.8976254 8343601
-3.7126157 0.47577575 3.687887 5978663
-4.0440001 0.52335334 4.0566759 2888974
-4.0041227 0.52335334 4.0566759 1049351
-3.9642456 0.52335334 4.0566759 1115915
-3.9243684 0.52335334 4.0566759 2428690
-3.5313554 0.47577575 3.687887 3086101
-3.8446138 0.52335334 4.0566759 3479572
-3.8047364 0.52335334 4.0566759 3349270
-4.183177 0.58150375 4.5074177 3480344
-4.1388688 0.58150375 4.5074177 3612184
-4.0945606 0.58150375 4.5074177 3545877
-3.6452272 0.52335334 4.0566759 3545363
-3.60535 0.52335334 4.0566759 3545619
-3.5654726 0.52335334 4.0566759 3545624
-3.5255952 0.52335334 4.0566759 3480085
-3.8730199 0.58150375 4.5074177 3414292
-3.8287117 0.58150375 4.5074177 3479572
-3.7844038 0.58150375 4.5074177 2888720
-3.366086 0.52335334 4.0566759 984328
-3.3262088 0.52335334 4.0566759 721673
-3.2863314 0.52335334 4.0566759 852489
-2.9513218 0.47577575 3.687887 721417
-2.9150696 0.47577575 3.687887 786694
-3.1666996 0.52335334 4.0566759 983562
-3.1268222 0.52335334 4.0566759 786696
-3.4299388 0.58150375 4.5074177 983819
-3.3856306 0.58150375 4.5074177 787209
-3.3413227 0.58150375 4.5074177 918536
-3.2970145 0.58150375 4.5074177 1180938
-3.2527063 0.58150375 4.5074177 1114888
-3.2083981 0.58150375 4.5074177 1180938
-3.1640902 0.58150375 4.5074177 1180937
-3.119782 0.58150375 4.5074177 1378317
-3.0754738 0.58150375 4.5074177 1246731
-3.0311658 0.58150375 4.5074177 1115144
-2.9868577 0.58150375 4.5074177 1049867
-2.9425495 0.58150375 4.5074177 918539
-2.8982413 0.58150375 4.5074177 1115916
-2.8539333 0.58150375 4.5074177 1904400
-2.8096251 0.58150375 4.5074177 1969424
-2.765317 0.58150375 4.5074177 1509644
-2.721009 0.58150375 4.5074177 459014
-3.0112882 0.65419167 5.0708447 589831
-2.9614415 0.65419167 5.0708447 458759
-2.9115949 0.65419167 5.0708447 655367
-2.8617485 0.65419167 5.0708447 918284
-2.8119018 0.65419167 5.0708447 1247244
-2.7620552 0.65419167 5.0708447 1246474
-2.7122085 0.65419167 5.0708447 984330
-3.0426991 0.74764758 5.7952509 852488
-2.9857316 0.74764758 5.7952509 786695
-2.9287641 0.74764758 5.7952509 655879
-2.8717964 0.74764758 5.7952509 918023
-2.4629753 0.65419167 5.0708447 786696
-2.4131286 0.65419167 5.0708447 1246731
-2.363282 0.65419167 5.0708447 1574153
-2.6439261 0.74764758 5.7952509 1903118
-2.5869586 0.74764758 5.7952509 2954257
-2.5299909 0.74764758 5.7952509 3545877
-2.4730234 0.74764758 5.7952509 3348499
-2.114049 0.65419167 5.0708447 3348245
-2.3590882 0.74764758 5.7952509 2888718
-2.3021207 0.74764758 5.7952509 3282707
-2.2451532 0.74764758 5.7952509 3413777
-1.9146624 0.65419167 5.0708447 3873558
-2.4864209 0.87225556 6.761126 8081214
-1.8149691 0.65419167 5.0708447 7621173
-2.0172827 0.74764758 5.7952509 5188130
-1.7152759 0.65419167 5.0708447 4139302
-1.6654292 0.65419167 5.0708447 2427651
-1.84638 0.74764758 5.7952509 2888210
-2.0876479 0.87225556 6.761126 1180939
-2.0211856 0.87225556 6.761126 918536
-2.3456683 1.0467067 8.1133518 1115145
0 0 0 4726814
0 0 0 1705482
0 0 0 2494475
0 0 0 918282
0 0 0 721162
-0.19863197 0.11135177 0.86312246 786695
-0.18618605 0.10903195 0.84514076 853000
-0.17787828 0.10903195 0.84514076 786698
-0.16610989 0.10680681 0.82789302 590600
-0.15797167 0.10680681 0.82789302 787466
-0.14683676 0.10467067 0.81133515 786698
-0.1388613 0.10467067 0.81133515 524552
-0.12831944 0.1026183 0.79542661 590602
-0.12050037 0.1026183 0.79542661 853513
-0.11268129 0.1026183 0.79542661 983559
-0.10284563 0.10064487 0.78012997 852743
-0.09517692 0.10064487 0.78012997 458759
-0.089224055 0.1026183 0.79542661 721157
-0.081404977 0.1026183 0.79542661 524294
-0.072170787 0.10064487 0.78012997 2103840
-0.064502068 0.10064487 0.78012997 2169118
-0.055761028 0.098745905 0.76541048 2233369
-0.047343731 0.096917287 0.75123626 2430491
-0.039959047 0.096917287 0.75123626 2364441
-0.032574359 0.096917287 0.75123626 2759456
-0.025189674 0.096917287 0.75123626 2167835
-0.017804988 0.096917287 0.75123626 1049098
-0.010616911 0.098745905 0.76541048 918281
-0.0029804225 0.09515515 0.73757738 917512
0.0042699962 0.09515515 0.73757738 1049352
0.011520416 0.09515515 0.73757738 918536
0.018770834 0.09515515 0.73757738 918536
0.026021253 0.09515515 0.73757738 983305
0.034527205 0.098745905 0.76541048 590087
0.044574302 0.10467067 0.81133515 852489
0.054739334 0.10903195 0.84514076 917766
0.063047104 0.10903195 0.84514076 720903
0.074457265 0.11377246 0.88188601 851973
0 0 0 655366
0 0 0 720903
0 0 0 720905
0 0 0 918282
0 0 0 983305
0 0 0 852489
0 0 0 852489
0 0 0 852489
0 0 0 917766
0 0 0 852489
0 0 0 720903
0 0 0 524292
0 0 0 721157
0 0 0 524548
0 0 0 655366
0 0 0 852743
0 0 0 1115142
0 0 0 1246470
0 0 0 1377543
0.26512778 0.12171008 0.94341296 2625805
0.22690901 0.10064487 0.78012997 2821903
0.23917727 0.1026183 0.79542661 1902599
0.25193629 0.10467067 0.81133515 1968907
0.28879082 0.11630074 0.90148348 6107427
0.31891334 0.12460794 0.96587515 8539957
0.33641788 0.12764716 0.98943311 8736566
0.34614405 0.12764716 0.98943311 8671286
0.37412 0.13419317 1.0401733 8802359
0.38434494 0.13419317 1.0401733 8735535
0.4049533 0.13772456 1.0675462 8539955
0.45105711 0.14952953 1.1590502 5187869
0.50580537 0.16354792 1.2677112 1049355
0.57188082 0.18046667 1.3988537 786696
0.56611055 0.1744511 1.3522252 786949
0.5993824 0.18046667 1.3988537 852743
0.61313319 0.18046667 1.3988537 852488
0.62688398 0.18046667 1.3988537 786696
0.64063483 0.18046667 1.3988537 852743
0.65438563 0.18046667 1.3988537 918537
0.66813642 0.18046667 1.3988537 918024
0.76056653 0.20128974 1.5602599 786951
0.80694008 0.20934133 1.6226703 983816
0.85717809 0.21806389 1.6902815 787208
0.87379366 0.21806389 1.6902815 655625
0.9713555 0.23788787 1.8439435 655621
1.0365998 0.24921587 1.9317503 852487
1.0555888 0.24921587 1.9317503 720903
1.074578 0.24921587 1.9317503 851975
0.99847448 0.22754492 1.763772 1246477
0.9734869 0.21806389 1.6902815 1247501
0.9504984 0.20934133 1.6226703 1575181
0.89486051 0.19383457 1.5024725 1508875
0.9446156 0.20128974 1.5602599 786439
0.92439926 0.19383457 1.5024725 720903
0.97529048 0.20128974 1.5602599 3085586
0.99062788 0.20128974 1.5602599 4071448
1.046204 0.20934133 1.6226703 3874328
1.0621549 0.20934133 1.6226703 4005659
1.1230268 0.21806389 1.6902815 4004888
1.1891921 0.22754492 1.763772 3675927
1.20653 0.22754492 1.763772 2166802
1.2794983 0.23788787 1.8439435 2100497
1.2976243 0.23788787 1.8439435 2428179
1.2585438 0.22754492 1.763772 1707024
1.2758818 0.22754492 1.763772 2034704
1.2932198 0.22754492 1.763772 2100240
1.3105577 0.22754492 1.763772 2757655
1.4543619 0.24921587 1.9317503 3151639
1.4733511 0.24921587 1.9317503 3676949
1.4923403 0.24921587 1.9317503 3939608
1.5113295 0.24921587 1.9317503 3939609
1.4607588 0.23788787 1.8439435 4070424
1.4788848 0.23788787 1.8439435 4202010
1.4319234 0.22754492 1.763772 4201753
1.4492614 0.22754492 1.763772 4135960
1.4665993 0.22754492 1.763772 3216661
1.551389 0.23788787 1.8439435 2560016
1.5695151 0.23788787 1.8439435 1772043
1.5876411 0.23788787 1.8439435 1509643
1.6057671 0.23788787 1.8439435 1575438
1.5532892 0.22754492 1.763772 1904146
1.5051843 0.21806389 1.6902815 2232339
1.5217998 0.21806389 1.6902815 2495764
1.5384154 0.21806389 1.6902815 2430485
1.5550309 0.21806389 1.6902815 2561560
1.5716465 0.21806389 1.6902815 2627354
1.588262 0.21806389 1.6902815 2429975
1.6048776 0.21806389 1.6902815 2233110
1.6214931 0.21806389 1.6902815 2298389
1.6381086 0.21806389 1.6902815 3020564
1.6547242 0.21806389 1.6902815 5517350
1.6713398 0.21806389 1.6902815 6240045
1.6879553 0.21806389 1.6902815 5453099
1.7045708 0.21806389 1.6902815 6044978
1.7211864 0.21806389 1.6902815 5979443
1.7378019 0.21806389 1.6902815 6043437
1.7544174 0.21806389 1.6902815 5780526
1.7710329 0.21806389 1.6902815 3744549
1.7876486 0.21806389 1.6902815 1049871
1.8042641 0.21806389 1.6902815 590346
1.9864142 0.23788787 1.8439435 590089
2.0999944 0.24921587 1.9317503 721674
1.7799463 0.20934133 1.6226703 984332
1.7958972 0.20934133 1.6226703 1180939
2.5164559 0.29075187 2.2537088 1246474
0 0 0 1114890
4.190341 0.47577575 3.687887 786697
4.226593 0.47577575 3.687887 655882
2.930706 0.32709584 2.5354223 786696
2.9556293 0.32709584 2.5354223 918279
2.9805527 0.32709584 2.5354223 852489
3.4348295 0.37382379 2.8976254 917768
0 0 0 786696
0 0 0 852489
0 0 0 721159
0 0 0 655880
0 0 0 786696
0 0 0 918282
0 0 0 852743
0 0 0 984329
0 0 0 918536
0 0 0 984329
0 0 0 1312523
0 0 0 1838609
0 0 0 1707281
-12.103866 1.4080766 10.141689 1904401
-12.004172 1.4080766 10.141689 1838614
-11.904479 1.4080766 10.141689 1903899
0 0 0 5125167
0 0 0 10121564
0 0 0 10777172
0 0 0 10908504
-11.406013 1.4080766 10.141689 10777689
-9.0450563 1.1264614 8.1133518 10907735
-4.4826508 0.56323069 4.0566759 10908503
-3.4175179 0.43325436 3.1205199 10908757
-2.9352639 0.37548709 2.7044504 10909273
-2.7268865 0.35201916 2.5354223 11105112
-2.4017453 0.31290594 2.2537088 10974296
-2.1416321 0.28161535 2.028338 11302745
-2.1216934 0.28161535 2.028338 10974550
-2.335283 0.31290594 2.2537088 11040342
-2.4491954 0.33131215 2.3862798 10974031
-2.945539 0.4023076 2.8976254 8541752
-3.4032311 0.46935886 3.380563 5912873
-4.0440001 0.56323069 4.0566759 3415063
-4.4490256 0.62581187 4.5074177 983559
-4.4047174 0.62581187 4.5074177 1246477
-4.3604093 0.62581187 4.5074177 2297874
-3.884491 0.56323069 4.0566759 3283222
-3.8446138 0.56323069 4.0566759 3545624
-4.2274847 0.62581187 4.5074177 3480085
-4.183177 0.62581187 4.5074177 3545876
-4.1388688 0.62581187 4.5074177 3283476
-4.0945606 0.62581187 4.5074177 3349014
-4.0502524 0.62581187 4.5074177 3414037
-4.0059443 0.62581187 4.5074177 3282965
-3.9616363 0.62581187 4.5074177 3283219
-3.9173281 0.62581187 4.5074177 3413779
-3.8730199 0.62581187 4.5074177 2954259
-3.8287117 0.62581187 4.5074177 3216659
-3.7844038 0.62581187 4.5074177 1574150
-3.366086 0.56323069 4.0566759 1049352
-3.3262088 0.56323069 4.0566759 852489
-3.2863314 0.56323069 4.0566759 984075
-2.9513218 0.51202786 3.687887 918282
-2.9150696 0.51202786 3.687887 983560
-2.8788176 0.51202786 3.687887 1049609
-2.8425655 0.51202786 3.687887 1114890
-3.0869448 0.56323069 4.0566759 1115146
-3.0470676 0.56323069 4.0566759 918025
-3.0071902 0.56323069 4.0566759 984329
-2.9673131 0.56323069 4.0566759 1115144
-2.9274356 0.56323069 4.0566759 918535
-3.2083981 0.62581187 4.5074177 984329
-3.1640902 0.62581187 4.5074177 1115145
-2.8078039 0.56323069 4.0566759 1114888
-2.7679265 0.56323069 4.0566759 918536
-2.7280493 0.56323069 4.0566759 1115144
-2.9868577 0.62581187 4.5074177 590087
-2.9425495 0.62581187 4.5074177 721160
-2.8982413 0.62581187 4.5074177 1378832
-2.8539333 0.62581187 4.5074177 2035728
-2.8096251 0.62581187 4.5074177 2101010
-2.765317 0.62581187 4.5074177 1969679
-2.721009 0.62581187 4.5074177 1115144
-3.0112882 0.70403832 5.0708447 786950
-2.9614415 0.70403832 5.0708447 720905
-2.9115949 0.70403832 5.0708447 786439
-3.2705696 0.8046152 5.7952509 655368
-3.2136018 0.8046152 5.7952509 918282
-2.7620552 0.70403832 5.0708447 917512
-2.7122085 0.70403832 5.0708447 720903
-2.6623619 0.70403832 5.0708447 786953
-2.9857316 0.8046152 5.7952509 786952
-2.9287641 0.8046152 5.7952509 655623
-2.8717964 0.8046152 5.7952509 852744
-2.8148289 0.8046152 5.7952509 1115402
-2.4131286 0.70403832 5.0708447 1707023
-2.363282 0.70403832 5.0708447 1180681
-2.3134353 0.70403832 5.0708447 1706252
-2.5869586 0.8046152 5.7952509 2362127
-2.5299909 0.8046152 5.7952509 3413524
-2.4730234 0.8046152 5.7952509 3478289
-2.4160559 0.8046152 5.7952509 2691344
-2.3590882 0.8046152 5.7952509 2363151
-2.3021207 0.8046152 5.7952509 2889236
-2.2451532 0.8046152 5.7952509 3085586
-1.9146624 0.70403832 5.0708447 3479318
-2.4864209 0.93871772 6.761126 8606531
-1.8149691 0.70403832 5.0708447 7294260
-2.0172827 0.8046152 5.7952509 4467233
-1.7152759 0.70403832 5.0708447 4139042
-1.6654292 0.70403832 5.0708447 1901570
-1.6155826 0.70403832 5.0708447 1377030
-2.0876479 0.93871772 6.761126 4929336
-2.0211856 0.93871772 6.761126 5257003
0 0 0 5582628
0 0 0 918284
0 0 0 1312270
0 0 0 1312524
0 0 0 852489
-0.21161905 0.12244144 0.88188601 786440
-0.19863197 0.1198363 0.86312246 590087
-0.18618605 0.11733972 0.84514076 786439
-0.17424811 0.11494503 0.82789302 590089
-0.16610989 0.11494503 0.82789302 721675
-0.15481222 0.11264613 0.81133515 655880
-0.14683676 0.11264613 0.81133515 721160
-0.13613853 0.11043738 0.79542661 721675
-0.12831944 0.11043738 0.79542661 1707798
-0.12050037 0.11043738 0.79542661 1905177
-0.11268129 0.11043738 0.79542661 786696
-0.10284563 0.10831359 0.78012997 721160
-0.09517692 0.10831359 0.78012997 459016
-0.089224055 0.11043738 0.79542661 721673
-0.081404977 0.11043738 0.79542661 720904
-0.072170787 0.10831359 0.78012997 525325
-0.064502068 0.10831359 0.78012997 1641747
-0.055761028 0.10626993 0.76541048 2562333
-0.047343731 0.10430197 0.75123626 2299419
-0.039959047 0.10430197 0.75123626 2233370
-0.032574359 0.10430197 0.75123626 1970713
-0.025189674 0.10430197 0.75123626 1772050
-0.017804988 0.10430197 0.75123626 917769
-0.010230841 0.10240557 0.73757738 852489
-0.0029804225 0.10240557 0.73757738 918282
0.0041937465 0.1005769 0.72440636 983305
0.011314694 0.1005769 0.72440636 983307
0.01843564 0.1005769 0.72440636 852489
0.025556589 0.1005769 0.72440636 852489
0.032677535 0.1005769 0.72440636 786696
0.040522091 0.10240557 0.73757738 786698
0.053622205 0.11494503 0.82789302 656395
0.064388536 0.1198363 0.86312246 851975
0 0 0 655882
0 0 0 655368
0 0 0 655882
0 0 0 720903
0 0 0 917509
0 0 0 655880
0 0 0 917512
0 0 0 1049099
0 0 0 720904
0 0 0 590089
0 0 0 851977
0 0 0 786698
0 0 0 851975
0 0 0 1049612
0 0 0 2888471
0 0 0 8862510
0 0 0 11157029
0 0 0 11946284
0 0 0 12207916
0 0 0 12601903
0.26512778 0.13098387 0.94341296 12470319
0.2313582 0.11043738 0.79542661 12470576
0.24396083 0.11264613 0.81133515 12406319
0.27992919 0.12516236 0.90148348 12340276
0.28879082 0.12516236 0.90148348 12274996
0.32669172 0.13737333 0.98943311 12340275
0.32840794 0.13410252 0.96587515 12208688
0.34614405 0.13737333 0.98943311 11619631
0.34739712 0.13410252 0.96587515 11619892
0.36559641 0.13737333 0.98943311 11948342
0.37532258 0.13737333 0.98943311 11489076
0.39467499 0.14080767 1.014169 9848369
0.49047789 0.17067595 1.2292956 9717819
0 0 0 8665903
0 0 0 7418923
0 0 0 5646622
0 0 0 4201748
0.62688398 0.19421746 1.3988537 3413521
0.64063483 0.19421746 1.3988537 3282704
0.65438563 0.19421746 1.3988537 3086354
0.66813642 0.19421746 1.3988537 2429456
0.7062403 0.2011538 1.4488127 2363408
0.77590394 0.21662718 1.5602599 2167059
0.822891 0.22529225 1.6226703 2232854
0.87379366 0.23467943 1.6902815 2101012
0.89040917 0.23467943 1.6902815 1312523
0.9464606 0.24488288 1.763772 1706767
0.96379858 0.24488288 1.763772 2100497
0.94025582 0.23467943 1.6902815 852486
0.95687139 0.23467943 1.6902815 1837838
0.93454748 0.22529225 1.6226703 1772815
0.88009113 0.20860395 1.5024725 1509387
0.89486051 0.20860395 1.5024725 1048840
0.9446156 0.21662718 1.5602599 720902
0.95995307 0.21662718 1.5602599 852489
1.014302 0.22529225 1.6226703 3677975
1.0302529 0.22529225 1.6226703 4399639
1.046204 0.22529225 1.6226703 4661788
1.0621549 0.22529225 1.6226703 4595998
1.1230268 0.23467943 1.6902815 4400157
1.1891921 0.24488288 1.763772 4399902
1.20653 0.24488288 1.763772 4269088
1.2794983 0.25601393 1.8439435 4334879
1.2412059 0.24488288 1.763772 4005914
1.2061045 0.23467943 1.6902815 2232081
1.22272 0.23467943 1.6902815 1312008
1.2932198 0.24488288 1.763772 1049094
1.3701285 0.25601393 1.8439435 983557
1.3882545 0.25601393 1.8439435 2429714
1.4733511 0.26820505 1.9317503 3414289
1.4245067 0.25601393 1.8439435 4136985
1.4426327 0.25601393 1.8439435 4531742
1.4607588 0.25601393 1.8439435 4662558
1.4145855 0.24488288 1.763772 4334620
1.4319234 0.24488288 1.763772 4268316
1.4492614 0.24488288 1.763772 4136730
1.4665993 0.24488288 1.763772 3939610
1.551389 0.25601393 1.8439435 3282969
1.5695151 0.25601393 1.8439435 3020057
1.5876411 0.25601393 1.8439435 2429461
1.6057671 0.25601393 1.8439435 2362899
1.5532892 0.24488288 1.763772 2298131
1.5051843 0.23467943 1.6902815 2494482
1.5217998 0.23467943 1.6902815 2560530
1.5384154 0.23467943 1.6902815 2757909
1.5550309 0.23467943 1.6902815 2757139
1.5716465 0.23467943 1.6902815 2757137
1.588262 0.23467943 1.6902815 2954516
1.6048776 0.23467943 1.6902815 2692116
1.6214931 0.23467943 1.6902815 3086361
1.6381086 0.23467943 1.6902815 3282966
1.6547242 0.23467943 1.6902815 4137499
1.6713398 0.23467943 1.6902815 4136471
1.6879553 0.23467943 1.6902815 3677465
1.7045708 0.23467943 1.6902815 3743515
1.7211864 0.23467943 1.6902815 4005916
1.7378019 0.23467943 1.6902815 4136734
1.7544174 0.23467943 1.6902815 3414553
1.7710329 0.23467943 1.6902815 2887957
1.7876486 0.23467943 1.6902815 2559764
1.7320936 0.22529225 1.6226703 2757657
1.7480445 0.22529225 1.6226703 2429462
1.6961495 0.21662718 1.5602599 2298388
1.6480985 0.20860395 1.5024725 2167059
1.6628679 0.20860395 1.5024725 2232596
1.8118482 0.22529225 1.6226703 2232854
2.284749 0.28161535 2.028338 2167319
4.190341 0.51202786 3.687887 1904661
4.226593 0.51202786 3.687887 1838867
3.607023 0.43325436 3.1205199 1904660
3.377862 0.4023076 2.8976254 1904401
3.9740701 0.46935886 3.380563 1773074
9.6175232 1.1264614 8.1133518 1575695
0 0 0 1378316
0 0 0 1378573
0 0 0 1312781
12.420677 1.4080766 10.141689 1180938
16.693827 1.8774354 13.522252 1181195
25.240128 2.8161533 20.283379 1114890
0 0 0 1180681
0 0 0 918024
0 0 0 918282
0 0 0 918282
0 0 0 1312523
0 0 0 1180939
0 0 0 1049865
0 0 0 1443856
0 0 0 1510419
0 0 0 2036247
0 0 0 2562085
0 0 0 9069657
0 0 0 10645849
0 0 0 10973783
-22.812025 3.0155396 20.283379 10842710
-9.0450563 1.206216 8.1133518 10843223
-7.4710836 1.0051799 6.761126 11039831
-3.1734092 0.43079138 2.8976254 11039060
-2.9352639 0.40207195 2.7044504 11170391
-2.4238992 0.33505997 2.2537088 11170136
-2.2753375 0.31742522 2.1350925 11171159
-1.9469382 0.27413997 1.8439435 10909527
-1.928812 0.27413997 1.8439435 11236437
-2.0016711 0.28719425 1.9317503 11367255
-2.3131289 0.33505997 2.2537088 10908239
-2.945539 0.43079138 2.8976254 8738104
-3.7126157 0.54827994 3.687887 5846821
-4.4933338 0.67011994 4.5074177 3611158
-4.4490256 0.67011994 4.5074177 983558
-4.4047174 0.67011994 4.5074177 1115915
-3.9243684 0.60310799 4.0566759 1903888
-3.884491 0.60310799 4.0566759 3217173
-3.8446138 0.60310799 4.0566759 3151638
-4.2274847 0.67011994 4.5074177 3217431
-4.183177 0.67011994 4.5074177 3413782
-4.1388688 0.67011994 4.5074177 3348502
-4.0945606 0.67011994 4.5074177 3282453
-4.0502524 0.67011994 4.5074177 3217172
-4.0059443 0.67011994 4.5074177 2955286
-3.9616363 0.67011994 4.5074177 3086100
-3.9173281 0.67011994 4.5074177 2888722
-3.8730199 0.67011994 4.5074177 2888466
-3.4458406 0.60310799 4.0566759 2494478
-3.0963302 0.54827994 3.687887 1706251
-3.366086 0.60310799 4.0566759 1180680
-3.3262088 0.60310799 4.0566759 1246473
-3.2863314 0.60310799 4.0566759 1180680
-2.9513218 0.54827994 3.687887 1049608
-2.9150696 0.54827994 3.687887 1115145
-2.8788176 0.54827994 3.687887 983559
-3.1268222 0.60310799 4.0566759 1049352
-3.0869448 0.60310799 4.0566759 852232
-3.0470676 0.60310799 4.0566759 721159
-3.0071902 0.60310799 4.0566759 393220
-2.9673131 0.60310799 4.0566759 786952
-2.9274356 0.60310799 4.0566759 1049098
-3.2083981 0.67011994 4.5074177 1049095
-3.1640902 0.67011994 4.5074177 1050123
-2.8078039 0.60310799 4.0566759 918535
-2.7679265 0.60310799 4.0566759 918536
-3.0311658 0.67011994 4.5074177 919306
-2.9868577 0.67011994 4.5074177 984845
-2.9425495 0.67011994 4.5074177 655881
-2.8982413 0.67011994 4.5074177 1576979
-2.8539333 0.67011994 4.5074177 1970193
-2.8096251 0.67011994 4.5074177 2035731
-3.1109815 0.75388491 5.0708447 1970451
-3.0611348 0.75388491 5.0708447 2101523
-3.0112882 0.75388491 5.0708447 2560532
-2.9614415 0.75388491 5.0708447 2495507
-2.9115949 0.75388491 5.0708447 2101008
-3.2705696 0.86158276 5.7952509 2101010
-3.2136018 0.86158276 5.7952509 656393
-3.1566343 0.86158276 5.7952509 655625
-3.0996668 0.86158276 5.7952509 1773074
-2.6623619 0.75388491 5.0708447 2035987
-2.6125152 0.75388491 5.0708447 1641488
-2.9287641 0.86158276 5.7952509 1049609
-2.8717964 0.86158276 5.7952509 983816
-2.8148289 0.86158276 5.7952509 1378573
-2.7578614 0.86158276 5.7952509 2165776
-2.363282 0.75388491 5.0708447 1049095
-2.3134353 0.75388491 5.0708447 1509646
-2.2635887 0.75388491 5.0708447 2101010
-2.2137423 0.75388491 5.0708447 2954259
-2.1638956 0.75388491 5.0708447 3808023
-2.114049 0.75388491 5.0708447 4333593
-2.3590882 0.86158276 5.7952509 4793627
-2.3021207 0.86158276 5.7952509 5122333
-2.2451532 0.86158276 5.7952509 6172706
-1.9146624 0.75388491 5.0708447 6303776
-2.131218 0.86158276 5.7952509 3807247
-1.8149691 0.75388491 5.0708447 3743255
-2.0172827 0.86158276 5.7952509 5647392
-1.7152759 0.75388491 5.0708447 5385246
-1.9033476 0.86158276 5.7952509 1770756
-1.84638 0.86158276 5.7952509 984329
-1.7894125 0.86158276 5.7952509 5584430
-2.0211856 1.0051799 6.761126 5256492
0 0 0 3744796
0 0 0 787466
0 0 0 1444107
-0.26330057 0.150777 1.014169 1378060
-0.22518331 0.13402398 0.90148348 721417
-0.21161905 0.13111041 0.88188601 590089
-0.19863197 0.12832083 0.86312246 524552
-0.18618605 0.12564749 0.84514076 655369
-0.17076315 0.12062159 0.81133515 590087
-0.16278769 0.12062159 0.81133515 786696
-0.15177669 0.11825646 0.79542661 852490
-0.14395761 0.11825646 0.79542661 1707800
-0.13613853 0.11825646 0.79542661 3286055
-0.12831944 0.11825646 0.79542661 3088414
-0.12050037 0.11825646 0.79542661 2694946
-0.11268129 0.11825646 0.79542661 1707285
-0.10486221 0.11825646 0.79542661 590087
-0.097043134 0.11825646 0.79542661 655366
-0.089224055 0.11825646 0.79542661 524552
-0.079839498 0.1159823 0.78012997 786696
-0.072170787 0.1159823 0.78012997 1444624
-0.064502068 0.1159823 0.78012997 1248018
-0.055761028 0.11379395 0.76541048 2628125
-0.047343731 0.11168666 0.75123626 2562332
-0.039959047 0.11168666 0.75123626 2628125
-0.032574359 0.11168666 0.75123626 2101525
-0.025189674 0.11168666 0.75123626 2431003
-0.017804988 0.11168666 0.75123626 918025
-0.010230841 0.10965598 0.73757738 1049098
-0.0029804225 0.10965598 0.73757738 1247247
0.0042699962 0.10965598 0.73757738 1115661
0.011314694 0.10769784 0.72440636 983305
0.01843564 0.10769784 0.72440636 852489
0.026021253 0.10965598 0.73757738 786696
0.03327167 0.10965598 0.73757738 917512
0.041272502 0.11168666 0.75123626 655368
0.049575243 0.11379395 0.76541048 786698
0 0 0 720903
0 0 0 851975
0 0 0 720903
0 0 0 720903
0 0 0 917766
0 0 0 917766
0 0 0 851975
0 0 0 786696
0 0 0 852743
0 0 0 721159
0 0 0 1575185
0 0 0 3218718
0 0 0 7812910
0 0 0 11420462
0 0 0 11943974
0 0 0 12011307
0 0 0 12469803
0 0 0 12666409
0 0 0 12863786
0 0 0 12928039
0 0 0 13059882
0 0 0 12666920
0.25650582 0.13111041 0.88188601 12995633
0.27106759 0.13402398 0.90148348 12931121
0.29992414 0.14359713 0.96587515 13127472
0.30941874 0.14359713 0.96587515 12470828
0.32669172 0.14709949 0.98943311 12733229
0.33641788 0.14709949 0.98943311 12733229
0.34614405 0.14709949 0.98943311 12733740
0.36476701 0.150777 1.014169 12667695
0.37473634 0.150777 1.014169 11881518
0.3945699 0.15464307 1.0401733 11947310
0.41544732 0.15871261 1.0675462 12013362
0.49047789 0.18275997 1.2292956 11947824
0 0 0 11422511
0 0 0 11226164
0 0 0 11487537
0 0 0 11684401
0.60598785 0.20103598 1.3522252 11881519
0.61928028 0.20103598 1.3522252 11619120
0.63257271 0.20103598 1.3522252 11553072
0.66813642 0.20796825 1.3988537 11684915
0.68188721 0.20796825 1.3988537 11095350
0.72048217 0.21539569 1.4488127 10768187
0.822891 0.24124318 1.6226703 10178366
0.80657881 0.2319646 1.5602599 9127992
0.79147488 0.22337332 1.5024725 8077621
0.80624425 0.22337332 1.5024725 7158830
0.88669467 0.24124318 1.6226703 5253151
0.90264559 0.24124318 1.6226703 3808275
0.88326591 0.2319646 1.5602599 2821640
0.86532176 0.22337332 1.5024725 1967881
0.88009113 0.22337332 1.5024725 1377799
0.89486051 0.22337332 1.5024725 983557
0.98240024 0.24124318 1.6226703 852486
0.99835116 0.24124318 1.6226703 1181193
1.014302 0.24124318 1.6226703 4466722
1.0302529 0.24124318 1.6226703 4859420
1.046204 0.24124318 1.6226703 4596763
1.0621549 0.24124318 1.6226703 4662558
1.1230268 0.25129497 1.6902815 4597022
1.1396424 0.25129497 1.6902815 4399902
1.20653 0.26222083 1.763772 4137500
1.2238679 0.26222083 1.763772 4005915
1.189489 0.25129497 1.6902815 3940121
1.2061045 0.25129497 1.6902815 3939863
1.22272 0.25129497 1.6902815 4071191
1.3520025 0.27413997 1.8439435 4070934
1.3701285 0.27413997 1.8439435 4465179
1.3882545 0.27413997 1.8439435 4728349
1.4733511 0.28719425 1.9317503 4925725
1.4245067 0.27413997 1.8439435 5122591
1.3224133 0.25129497 1.6902815 5123109
1.3390288 0.25129497 1.6902815 5188387
1.3556443 0.25129497 1.6902815 4991267
1.4970108 0.27413997 1.8439435 4465694
1.515137 0.27413997 1.8439435 4137242
1.533263 0.27413997 1.8439435 3677466
1.551389 0.27413997 1.8439435 2627091
1.5012753 0.26222083 1.763772 1378058
1.5186132 0.26222083 1.763772 1114891
1.5359511 0.26222083 1.763772 1640459
1.5532892 0.26222083 1.763772 3349017
1.5051843 0.25129497 1.6902815 3151636
1.587965 0.26222083 1.763772 3480086
1.5384154 0.25129497 1.6902815 3348245
1.5550309 0.25129497 1.6902815 3413782
1.5716465 0.25129497 1.6902815 3282965
1.588262 0.25129497 1.6902815 3086100
1.6048776 0.25129497 1.6902815 3020052
1.6214931 0.25129497 1.6902815 3217429
1.6381086 0.25129497 1.6902815 3611417
1.6547242 0.25129497 1.6902815 4268315
1.6044862 0.24124318 1.6226703 4597280
1.6204371 0.24124318 1.6226703 4071965
1.6363881 0.24124318 1.6226703 4268575
1.7211864 0.25129497 1.6902815 4465439
1.7378019 0.25129497 1.6902815 4137243
1.7544174 0.25129497 1.6902815 4071966
1.7710329 0.25129497 1.6902815 3612188
1.7161427 0.24124318 1.6226703 3020311
1.7320936 0.24124318 1.6226703 2954262
1.7480445 0.24124318 1.6226703 3020568
1.6961495 0.2319646 1.5602599 2955031
1.6480985 0.22337332 1.5024725 3151896
1.7268243 0.2319646 1.5602599 3085845
1.7421618 0.2319646 1.5602599 3217431
1.9867381 0.26222083 1.763772 3217431
2.3046875 0.30155399 2.028338 3217686
2.7348542 0.35476938 2.3862798 3086359
3.907608 0.50258994 3.380563 3086616
5.2544522 0.67011994 4.5074177 3151638
0 0 0 3151641
0 0 0 2823704
0 0 0 2758425
0 0 0 2692631
12.320984 1.5077698 10.141689 2692884
12.420677 1.5077698 10.141689 2627093
12.52037 1.5077698 10.141689 2561300
16.826752 2.0103598 13.522252 2627093
25.439514 3.0155396 20.283379 2692886
0 0 0 2890522
0 0 0 2758938
0 0 0 2955804
0 0 0 2890779
0 0 0 1180941
0 0 0 1247247
0 0 0 1116431
0 0 0 1247501
0 0 0 1510419
0 0 0 1707032
0 0 0 4599341
0 0 0 10186844
0 0 0 10776918
0 0 0 10776918
-11.306319 1.6074631 10.141689 10908759
-8.9653015 1.2859706 8.1133518 10909527
-3.1734092 0.45927516 2.8976254 11235415
-2.5899386 0.37822661 2.3862798 11105882
-2.4238992 0.35721403 2.2537088 11105366
-1.9650642 0.29226601 1.8439435 11105366
-1.9469382 0.29226601 1.8439435 11040343
-1.928812 0.29226601 1.8439435 10974295
-1.910686 0.29226601 1.8439435 10712148
-2.1913853 0.3384133 2.1350925 10645580
-2.945539 0.45927516 2.8976254 8672311
-3.4032311 0.53582102 3.380563 5781026
-4.4933338 0.71442807 4.5074177 3676431
-4.0041227 0.64298528 4.0566759 1049351
-4.4047174 0.71442807 4.5074177 1115661
-3.9243684 0.64298528 4.0566759 1838608
-3.884491 0.64298528 4.0566759 2756880
-3.8446138 0.64298528 4.0566759 2955288
-4.2274847 0.71442807 4.5074177 3086101
-4.183177 0.71442807 4.5074177 3085073
-4.6562271 0.80373156 5.0708447 2954002
-4.6063805 0.80373156 5.0708447 3085847
-4.5565338 0.80373156 5.0708447 3217688
-4.0059443 0.71442807 4.5074177 3022364
-3.9616363 0.71442807 4.5074177 2691346
-3.9173281 0.71442807 4.5074177 2691344
-3.1688342 0.58453202 3.687887 2560528
-3.1325822 0.58453202 3.687887 2494223
-3.0963302 0.58453202 3.687887 2362896
-3.366086 0.64298528 4.0566759 1246730
-3.3262088 0.64298528 4.0566759 1181194
-3.2863314 0.64298528 4.0566759 1049611
-2.9513218 0.58453202 3.687887 984073
-2.9150696 0.58453202 3.687887 852743
-2.8788176 0.58453202 3.687887 918536
-2.8425655 0.58453202 3.687887 852487
-3.0869448 0.64298528 4.0566759 852232
-3.0470676 0.64298528 4.0566759 786696
-3.0071902 0.64298528 4.0566759 720903
-3.2970145 0.71442807 4.5074177 721160
-3.2527063 0.71442807 4.5074177 852488
-3.2083981 0.71442807 4.5074177 984074
-3.1640902 0.71442807 4.5074177 984072
-3.119782 0.71442807 4.5074177 852744
-3.0754738 0.71442807 4.5074177 1115401
-3.4100614 0.80373156 5.0708447 1904658
-3.3602147 0.80373156 5.0708447 1970196
-3.3103681 0.80373156 5.0708447 1773072
-3.2605214 0.80373156 5.0708447 1246730
-3.2106748 0.80373156 5.0708447 1904402
-3.1608281 0.80373156 5.0708447 1970194
-3.1109815 0.80373156 5.0708447 2101267
-3.0611348 0.80373156 5.0708447 2101267
-3.0112882 0.80373156 5.0708447 2627607
-2.9614415 0.80373156 5.0708447 2364947
-2.9115949 0.80373156 5.0708447 2232850
-2.8617485 0.80373156 5.0708447 2232594
-3.2136018 0.91855031 5.7952509 2035215
-3.1566343 0.91855031 5.7952509 2035473
-3.0996668 0.91855031 5.7952509 3414808
-3.0426991 0.91855031 5.7952509 1575438
-2.9857316 0.91855031 5.7952509 1311494
-2.9287641 0.91855031 5.7952509 1049098
-2.8717964 0.91855031 5.7952509 852489
-2.8148289 0.91855031 5.7952509 1115658
-2.7578614 0.91855031 5.7952509 2165262
-2.363282 0.80373156 5.0708447 1114888
-2.3134353 0.80373156 5.0708447 1509646
-2.2635887 0.80373156 5.0708447 2166288
-2.2137423 0.80373156 5.0708447 2888464
-2.4730234 0.91855031 5.7952509 3545623
-2.4160559 0.91855031 5.7952509 4267546
-2.3590882 0.91855031 5.7952509 4465179
-2.3021207 0.91855031 5.7952509 5056027
-2.2451532 0.91855031 5.7952509 5910562
-1.9146624 0.80373156 5.0708447 5712155
-1.8648157 0.80373156 5.0708447 2690569
-1.8149691 0.80373156 5.0708447 3283222
-1.7651225 0.80373156 5.0708447 5515807
-1.9603152 0.91855031 5.7952509 4202261
-1.6654292 0.80373156 5.0708447 1838355
-1.84638 0.91855031 5.7952509 4141358
-1.7894125 0.91855031 5.7952509 6176821
-2.0211856 1.071642 6.761126 7228992
-1.9547236 1.071642 6.761126 8213568
0 0 0 3286809
-0.27326989 0.16074632 1.014169 1115914
-0.23936415 0.14613301 0.92197174 918282
-0.22518331 0.14288561 0.90148348 787211
-0.21161905 0.1397794 0.88188601 655880
-0.19863197 0.13680537 0.86312246 589832
-0.18618605 0.13395526 0.84514076 655880
-0.17424811 0.13122149 0.82789302 655366
-0.16610989 0.13122149 0.82789302 786697
-0.15177669 0.12607554 0.79542661 852234
-0.14395761 0.12607554 0.79542661 1377805
-0.13613853 0.12607554 0.79542661 2036246
-0.12831944 0.12607554 0.79542661 2693143
-0.12291038 0.12859705 0.81133515 1311754
-0.11268129 0.12607554 0.79542661 786950
-0.10486221 0.12607554 0.79542661 721157
-0.097043134 0.12607554 0.79542661 524298
-0.089224055 0.12607554 0.79542661 655366
-0.079839498 0.12365101 0.78012997 1773334
-0.072170787 0.12365101 0.78012997 1510158
-0.064502068 0.12365101 0.78012997 983560
-0.055761028 0.12131797 0.76541048 1180426
-0.047343731 0.11907134 0.75123626 1641743
-0.039959047 0.11907134 0.75123626 2233882
-0.032574359 0.11907134 0.75123626 1575438
-0.024731679 0.1169064 0.73757738 983304
-0.01748126 0.1169064 0.73757738 1115146
-0.010230841 0.1169064 0.73757738 2891297
-0.0029804225 0.1169064 0.73757738 2627355
0.0042699962 0.1169064 0.73757738 2956319
0.011314694 0.11481879 0.72440636 852489
0.018770834 0.1169064 0.73757738 786953
0.026503129 0.11907134 0.75123626 721927
0.033887815 0.11907134 0.75123626 1180684
0.041272502 0.11907134 0.75123626 852490
0.053622205 0.13122149 0.82789302 589829
0 0 0 720903
0 0 0 852743
0 0 0 720903
0 0 0 1049095
0 0 0 1049868
0 0 0 1049095
0 0 0 1575439
0 0 0 3547941
0 0 0 7748658
0 0 0 11026220
0 0 0 12205865
0 0 0 12404011
0 0 0 12731178
0 0 0 12534569
0 0 0 12796971
0 0 0 12732200
0 0 0 12797223
0 0 0 12797991
0 0 0 12863018
0 0 0 12862761
0 0 0 12864303
0 0 0 12798508
0.28093496 0.15309173 0.96587515 12863788
0.29042953 0.15309173 0.96587515 12930607
