# .PCD v0.7 - Point Cloud Data file format
VERSION 0.7
FIELDS x y z rgb
SIZE 4 4 4 4
TYPE F F F U
COUNT 1 1 1 1
WIDTH 1313
HEIGHT 1
VIEWPOINT 0 0 0 1 0 0 0
POINTS 1313
DATA ascii
1.9480809 0.13528071 1.9317503 852489
1.9670701 0.13528071 1.9317503 852489
1.9860593 0.13528071 1.9317503 852489
1.9139099 0.12913159 1.8439435 918282
1.7710329 0.11837062 1.6902815 1049868
1.7876486 0.11837062 1.6902815 1772818
1.8042641 0.11837062 1.6902815 1576207
1.8208796 0.11837062 1.6902815 1377548
1.9173863 0.12351717 1.763772 3480854
2.0226662 0.12913159 1.8439435 7752243
2.0407922 0.12913159 1.8439435 8278331
2.2648103 0.14204475 2.028338 8410175
2.284749 0.14204475 2.028338 8869697
2.4259868 0.1495208 2.1350925 9133124
2.3246262 0.14204475 2.028338 9133123
2.3445649 0.14204475 2.028338 9790282
2.2519081 0.13528071 1.9317503 10249805
2.2708972 0.13528071 1.9317503 10053194
2.2898865 0.13528071 1.9317503 9988171
2.4243195 0.14204475 2.028338 9659210
2.4442582 0.14204475 2.028338 9593417
2.5938914 0.1495208 2.1350925 9593163
0 0 0 9461832
0 0 0 9658952
0 0 0 10118217
0 0 0 9987403
0 0 0 9790024
0 0 0 10118474
0 0 0 9658951
0 0 0 9462344
0 0 0 4530707
0 0 0 984328
-4.4014053 0.29451528 3.687887 1312270
-4.3651533 0.29451528 3.687887 1312524
-4.3289013 0.29451528 3.687887 2626839
-4.2926493 0.29451528 3.687887 3348245
-5.2022634 0.35996315 4.5074177 3545622
-5.1579552 0.35996315 4.5074177 3611156
-5.1136475 0.35996315 4.5074177 3545879
-5.0693393 0.35996315 4.5074177 3677464
-4.5225282 0.32396683 4.0566759 3545878
-4.4826508 0.32396683 4.0566759 3545622
-4.4427733 0.32396683 4.0566759 3546135
-4.0026326 0.29451528 3.687887 3677207
-3.9663804 0.29451528 3.687887 3808536
-3.9301283 0.29451528 3.687887 3808793
-4.2832642 0.32396683 4.0566759 3808793
-3.8576241 0.29451528 3.687887 3676695
-4.2035093 0.32396683 4.0566759 3676439
-3.78512 0.29451528 3.687887 3545623
-4.123755 0.32396683 4.0566759 2822927
-4.0838776 0.32396683 4.0566759 1509128
-4.0440001 0.32396683 4.0566759 1312268
-4.0041227 0.32396683 4.0566759 2166803
-4.4047174 0.35996315 4.5074177 1245445
-4.3604093 0.35996315 4.5074177 918024
-4.3161011 0.35996315 4.5074177 786951
-4.2717929 0.35996315 4.5074177 721157
-4.7559204 0.40495852 5.0708447 721157
-4.183177 0.35996315 4.5074177 590089
-4.6562271 0.40495852 5.0708447 721673
-4.6063805 0.40495852 5.0708447 721159
-4.5565338 0.40495852 5.0708447 721416
-4.5066872 0.40495852 5.0708447 918282
-4.4568405 0.40495852 5.0708447 852746
-3.9173281 0.35996315 4.5074177 853003
-3.8730199 0.35996315 4.5074177 787467
-3.8287117 0.35996315 4.5074177 590342
-4.2574539 0.40495852 5.0708447 655880
-4.2076073 0.40495852 5.0708447 655880
-4.1577606 0.40495852 5.0708447 720903
-4.107914 0.40495852 5.0708447 590087
-3.6071713 0.35996315 4.5074177 720903
-3.5628631 0.35996315 4.5074177 852489
-3.5185549 0.35996315 4.5074177 918281
-3.474247 0.35996315 4.5074177 852489
-3.858681 0.40495852 5.0708447 1049098
-3.8088343 0.40495852 5.0708447 1049096
-3.7589877 0.40495852 5.0708447 852489
-3.709141 0.40495852 5.0708447 852743
-3.6592944 0.40495852 5.0708447 852232
-3.6094477 0.40495852 5.0708447 918282
-3.5596011 0.40495852 5.0708447 852489
-3.5097547 0.40495852 5.0708447 786953
-3.459908 0.40495852 5.0708447 852489
-3.0311658 0.35996315 4.5074177 655880
-2.9868577 0.35996315 4.5074177 786952
-2.9425495 0.35996315 4.5074177 786953
-2.8982413 0.35996315 4.5074177 655624
-2.8539333 0.35996315 4.5074177 787209
-2.8096251 0.35996315 4.5074177 786696
-2.765317 0.35996315 4.5074177 655882
-3.0611348 0.40495852 5.0708447 2954779
-3.4414723 0.46280971 5.7952509 5058100
-3.3845046 0.46280971 5.7952509 9460544
-3.3275371 0.46280971 5.7952509 10314565
-2.8617485 0.40495852 5.0708447 10446146
-2.4994683 0.35996315 4.5074177 10315329
-0.21044229 0.030853981 0.38635007 10052417
-0.20664445 0.030853981 0.38635007 10315846
-0.20479707 0.031150656 0.39006498 10118210
-0.20693189 0.032075923 0.40165105 10577989
0 0 0 7553067
-0.20724304 0.033398639 0.41821399 6108973
-0.20313199 0.033398639 0.41821399 5516838
-0.19902092 0.033398639 0.41821399 4990243
-0.20113038 0.034464553 0.43156123 4727324
-0.1990052 0.034835141 0.43620169 4989983
-0.19471732 0.034835141 0.43620169 4333083
-0.19042943 0.034835141 0.43620169 4332312
-0.18816483 0.035213783 0.440943 4201241
-0.18383034 0.035213783 0.440943 4398104
-0.18146832 0.035600748 0.44578853 4332055
-0.1770862 0.035600748 0.44578853 4200725
-0.17462301 0.03599631 0.45074174 4069397
-0.17019221 0.03599631 0.45074174 3938326
-0.16952871 0.03681441 0.46098587 3478802
-0.16883433 0.03767056 0.47170648 2493455
-0.16612917 0.038113743 0.47725597 786953
0 0 0 655627
0 0 0 721161
-0.17232881 0.043195575 0.5408901 655880
-0.16481431 0.042627212 0.53377312 524296
-0.1595673 0.042627212 0.53377312 720905
-0.15432028 0.042627212 0.53377312 721675
-0.15106091 0.043195575 0.5408901 590345
-0.14973693 0.044379015 0.555709 590346
-0.14427428 0.044379015 0.555709 590089
-0.13881163 0.044379015 0.555709 721162
-0.13334899 0.044379015 0.555709 655882
-0.12615815 0.043779299 0.54819942 590089
-0.12412404 0.044995394 0.56342721 524294
-0.12025574 0.045629129 0.57136279 721161
-0.11463922 0.045629129 0.57136279 655880
-0.10902269 0.045629129 0.57136279 589829
-0.10196998 0.044995394 0.56342721 458757
-0.097789653 0.045629129 0.57136279 655366
-0.092173129 0.045629129 0.57136279 655368
-0.086556606 0.045629129 0.57136279 655368
-0.079815917 0.044995394 0.56342721 720905
-0.073259905 0.044379015 0.555709 590089
-0.067797258 0.044379015 0.555709 590089
-0.063200377 0.044995394 0.56342721 590089
-0.057661861 0.044995394 0.56342721 590089
-0.054389574 0.046951711 0.587924 720903
-0.049325112 0.047642179 0.59656996 590087
-0.043460801 0.047642179 0.59656996 589830
-0.039331716 0.04984105 0.62410396 720904
-0.038531937 0.057851214 0.72440636 721161
-0.1034715 0.19056872 2.3862798 786698
-0.080014259 0.19056872 2.3862798 721161
0 0 0 786439
0 0 0 721160
0 0 0 918023
0.0037879001 0.05225271 0.65430254 983559
0.010057506 0.051423304 0.64391679 1114891
0.017799929 0.055856347 0.69942683 1378059
0 0 0 1378059
0 0 0 1575439
0 0 0 1640461
0 0 0 1706252
0 0 0 1509645
0 0 0 1443852
0 0 0 1312524
0 0 0 1378060
0 0 0 1312523
0 0 0 3218971
0 0 0 5122332
0 0 0 5055772
0 0 0 4793114
0 0 0 4727834
0 0 0 4859164
0 0 0 4990494
0 0 0 4465178
0.63156235 0.24920525 3.1205199 4530713
0.53806776 0.20247926 2.5354223 12224880
0.64341831 0.23140486 2.8976254 13206359
0.72358692 0.24920525 3.1205199 11760974
0.75426179 0.24920525 3.1205199 11301455
0.850348 0.26997232 3.380563 11432273
0.81561148 0.24920525 3.1205199 10184774
0.84628636 0.24920525 3.1205199 9920319
0.87696117 0.24920525 3.1205199 8013101
1.0726607 0.29451528 3.687887 1115147
1.0165035 0.26997232 3.380563 1115403
1.399646 0.35996315 4.5074177 852745
0.51982349 0.12958673 1.6226703 852488
0.60883456 0.14725764 1.8439435 786953
0.62696058 0.14725764 1.8439435 786696
0.64508665 0.14725764 1.8439435 655623
0.60794497 0.13498616 1.6902815 787209
0.68133873 0.14725764 1.8439435 1115145
0.76941133 0.16198342 2.028338 983305
0.78934997 0.16198342 2.028338 983305
0.80928862 0.16198342 2.028338 1049610
0.8728708 0.17050885 2.1350925 853002
0.94351768 0.17998157 2.2537088 918282
0.96567178 0.17998157 2.2537088 918282
0.98782581 0.17998157 2.2537088 1312524
1.0099798 0.17998157 2.2537088 1312523
1.0321339 0.17998157 2.2537088 983559
1.054288 0.17998157 2.2537088 590089
1.076442 0.17998157 2.2537088 720903
1.0985961 0.17998157 2.2537088 655881
1.1866766 0.19056872 2.3862798 852489
1.2101338 0.19056872 2.3862798 786698
1.1650583 0.17998157 2.2537088 787210
1.1872123 0.17998157 2.2537088 984077
1.1457155 0.17050885 2.1350925 787468
1.3039628 0.19056872 2.3862798 984075
1.32742 0.19056872 2.3862798 852489
1.2086797 0.17050885 2.1350925 853003
1.2296677 0.17050885 2.1350925 787209
1.188123 0.16198342 2.028338 1574667
1.2080617 0.16198342 2.028338 5583401
1.2280003 0.16198342 2.028338 6372910
1.247939 0.16198342 2.028338 6766902
1.334608 0.17050885 2.1350925 7621953
1.2878163 0.16198342 2.028338 7360324
1.307755 0.16198342 2.028338 7033929
1.3276936 0.16198342 2.028338 7164743
1.3476323 0.16198342 2.028338 7427404
1.3024484 0.1542699 1.9317503 3610136
1.3214376 0.1542699 1.9317503 2888214
1.4074482 0.16198342 2.028338 721157
1.4273869 0.16198342 2.028338 655368
1.4473255 0.16198342 2.028338 720905
1.4672642 0.16198342 2.028338 786696
1.4163835 0.1542699 1.9317503 655625
1.4353727 0.1542699 1.9317503 852489
1.4543619 0.1542699 1.9317503 655880
1.4733511 0.1542699 1.9317503 721675
1.4923403 0.1542699 1.9317503 852491
1.5113295 0.1542699 1.9317503 786696
1.5303187 0.1542699 1.9317503 721417
1.5493079 0.1542699 1.9317503 852747
1.568297 0.1542699 1.9317503 786952
1.5872862 0.1542699 1.9317503 721417
1.6062754 0.1542699 1.9317503 852744
1.6252646 0.1542699 1.9317503 852489
1.6442538 0.1542699 1.9317503 721675
1.6632431 0.1542699 1.9317503 787468
1.6822323 0.1542699 1.9317503 721418
1.7012215 0.1542699 1.9317503 852747
1.389401 0.12460262 1.5602599 655882
1.4047384 0.12460262 1.5602599 852489
1.4768788 0.12958673 1.6226703 852489
1.7771782 0.1542699 1.9317503 852489
1.7961674 0.1542699 1.9317503 918282
1.8151566 0.1542699 1.9317503 918282
1.8341458 0.1542699 1.9317503 787210
1.853135 0.1542699 1.9317503 918282
1.8721242 0.1542699 1.9317503 787466
1.8911134 0.1542699 1.9317503 918282
1.9101025 0.1542699 1.9317503 918283
1.9290917 0.1542699 1.9317503 721673
1.9480809 0.1542699 1.9317503 917768
1.9670701 0.1542699 1.9317503 853001
1.9860593 0.1542699 1.9317503 1049609
1.9139099 0.14725764 1.8439435 984075
1.7710329 0.13498616 1.6902815 918282
1.7876486 0.13498616 1.6902815 1378059
1.8042641 0.13498616 1.6902815 1838610
1.8208796 0.13498616 1.6902815 1246731
1.9173863 0.14085513 1.763772 2035217
1.9347242 0.14085513 1.763772 6635821
2.0407922 0.14725764 1.8439435 7818294
2.0589182 0.14725764 1.8439435 8344125
2.1759512 0.1542699 1.9317503 8672575
2.3046875 0.16198342 2.028338 8738624
2.3246262 0.16198342 2.028338 8870465
2.3445649 0.16198342 2.028338 9330501
2.3645036 0.16198342 2.028338 9921610
2.2708972 0.1542699 1.9317503 10184782
2.4043808 0.16198342 2.028338 9855819
2.4243195 0.16198342 2.028338 9461833
2.5729032 0.17050885 2.1350925 9527624
2.7379966 0.17998157 2.2537088 9461834
4.1402254 0.26997232 3.380563 9264455
0 0 0 9396297
0 0 0 9659465
0 0 0 9527880
0 0 0 9592906
0 0 0 9527626
0 0 0 9462090
0 0 0 9462090
0 0 0 4661781
0 0 0 1115141
-4.4014053 0.33076736 3.687887 1246990
-4.3651533 0.33076736 3.687887 1247245
-4.3289013 0.33076736 3.687887 2561559
-4.7219143 0.36384413 4.0566759 3348759
-4.6820374 0.36384413 4.0566759 3480085
-4.6421599 0.36384413 4.0566759 3413779
-5.1136475 0.40427125 4.5074177 3610904
-5.0693393 0.40427125 4.5074177 3479831
-5.0250311 0.40427125 4.5074177 3545878
-4.4826508 0.36384413 4.0566759 3676951
-4.0388846 0.33076736 3.687887 3611156
-4.4028959 0.36384413 4.0566759 3676949
-4.3630185 0.36384413 4.0566759 3611157
-3.9301283 0.33076736 3.687887 3676438
-3.8938763 0.33076736 3.687887 3545365
-3.8576241 0.33076736 3.687887 3611157
-3.821372 0.33076736 3.687887 3545108
-3.78512 0.33076736 3.687887 3413781
-4.123755 0.36384413 4.0566759 2625551
-4.0838776 0.36384413 4.0566759 1245960
-4.4933338 0.40427125 4.5074177 1181194
-4.4490256 0.40427125 4.5074177 2298389
-4.4047174 0.40427125 4.5074177 1048839
-4.3604093 0.40427125 4.5074177 786696
-4.3161011 0.40427125 4.5074177 720903
-4.2717929 0.40427125 4.5074177 786698
-4.2274847 0.40427125 4.5074177 655882
-4.183177 0.40427125 4.5074177 655880
-4.6562271 0.45480514 5.0708447 984075
-4.6063805 0.45480514 5.0708447 1049098
-4.5565338 0.45480514 5.0708447 1049098
-4.5066872 0.45480514 5.0708447 787466
-4.4568405 0.45480514 5.0708447 918282
-3.9173281 0.40427125 4.5074177 984075
-3.8730199 0.40427125 4.5074177 918536
-3.8287117 0.40427125 4.5074177 852744
-3.7844038 0.40427125 4.5074177 786696
-3.7400956 0.40427125 4.5074177 721675
-4.1577606 0.45480514 5.0708447 721161
-4.107914 0.45480514 5.0708447 786696
-4.0580673 0.45480514 5.0708447 655880
-3.5628631 0.40427125 4.5074177 918025
-3.5185549 0.40427125 4.5074177 1246474
-3.474247 0.40427125 4.5074177 1115145
-3.858681 0.45480514 5.0708447 1049352
-3.8088343 0.45480514 5.0708447 1115144
-3.7589877 0.45480514 5.0708447 1115145
-3.709141 0.45480514 5.0708447 918282
-3.6592944 0.45480514 5.0708447 983305
-3.6094477 0.45480514 5.0708447 852489
-3.1640902 0.40427125 4.5074177 852489
-3.119782 0.40427125 4.5074177 852489
-3.0754738 0.40427125 4.5074177 918282
-3.0311658 0.40427125 4.5074177 786696
-2.9868577 0.40427125 4.5074177 852489
-2.9425495 0.40427125 4.5074177 786697
-2.8982413 0.40427125 4.5074177 721160
-3.2106748 0.45480514 5.0708447 918025
-3.1608281 0.45480514 5.0708447 852489
-3.1109815 0.45480514 5.0708447 722188
-3.0611348 0.45480514 5.0708447 2691861
-3.0112882 0.45480514 5.0708447 4463648
-3.3845046 0.5197773 5.7952509 8738623
-3.3275371 0.5197773 5.7952509 9658690
-2.8617485 0.45480514 5.0708447 9920061
-2.4994683 0.40427125 4.5074177 9986882
-2.4551601 0.40427125 4.5074177 9986370
-0.20664445 0.03465182 0.38635007 10249540
-0.20479707 0.034985013 0.39006498 9986624
0 0 0 9987137
0 0 0 7553323
-0.20724304 0.037509702 0.41821399 6043180
-0.20313199 0.037509702 0.41821399 5516838
-0.20109405 0.037900429 0.42257038 5121826
-0.19901322 0.038299382 0.42701849 4924190
-0.19688812 0.03870682 0.43156123 4858397
-0.19264585 0.03870682 0.43156123 4595741
-0.19042943 0.039123025 0.43620169 4332826
-0.18614155 0.039123025 0.43620169 4135960
-0.18383034 0.039548274 0.440943 4069912
-0.17949584 0.039548274 0.440943 4200983
-0.1770862 0.03998287 0.44578853 4135447
-0.17270409 0.03998287 0.44578853 4135701
-0.17019221 0.040427122 0.45074174 4069654
-0.1657614 0.040427122 0.45074174 3413267
-0.16883433 0.042307455 0.47170648 2690831
-0.16612917 0.042805191 0.47725597 1443596
-0.1653278 0.043836642 0.48875612 786953
0 0 0 655883
-0.17232881 0.048512548 0.5408901 852491
-0.16701184 0.048512548 0.5408901 786698
-0.15749499 0.04725248 0.52684098 852491
-0.15231612 0.04725248 0.52684098 721675
-0.14907327 0.047874227 0.53377312 721675
-0.14574394 0.048512548 0.5408901 589832
-0.14427428 0.049841661 0.555709 590089
-0.1369358 0.049168125 0.54819942 721160
-0.13154697 0.049168125 0.54819942 720903
-0.12615815 0.049168125 0.54819942 590087
-0.12412404 0.050533906 0.56342721 590089
-0.12025574 0.051245652 0.57136279 720905
-0.11463922 0.051245652 0.57136279 720903
-0.1075085 0.050533906 0.56342721 458757
-0.10196998 0.050533906 0.56342721 458759
-0.096431464 0.050533906 0.56342721 458759
-0.090892948 0.050533906 0.56342721 459016
-0.085354432 0.050533906 0.56342721 721161
-0.078722544 0.049841661 0.555709 589835
-0.074277401 0.050533906 0.56342721 721159
-0.068738893 0.050533906 0.56342721 655882
-0.063200377 0.050533906 0.56342721 655366
-0.057661861 0.050533906 0.56342721 458759
-0.054389574 0.05273103 0.587924 524296
-0.048610255 0.05273103 0.587924 786696
-0.043460801 0.053506486 0.59656996 720903
-0.038735777 0.055127893 0.61464781 590089
-0.033196747 0.055976018 0.62410396 786697
-0.027484616 0.056850642 0.63385558 786697
-0.021591149 0.057753034 0.64391679 786696
-0.015022959 0.056850642 0.63385558 786696
-0.0089316871 0.057753034 0.64391679 786696
-0.0025613005 0.056850642 0.63385558 852232
0.0036130741 0.055976018 0.62410396 786950
0.0099003566 0.056850642 0.63385558 1115145
0 0 0 1180681
0 0 0 1508875
0 0 0 1509645
0 0 0 1575438
0 0 0 1640459
0 0 0 1640461
0 0 0 1443853
0 0 0 1378059
0 0 0 1312267
0 0 0 1312267
0 0 0 1312266
0 0 0 5451295
0 0 0 5582368
0 0 0 5056026
0 0 0 4924956
0 0 0 5253151
0 0 0 5779747
0 0 0 7423025
0.48295945 0.21402594 2.3862798 8737854
0.53806776 0.22740257 2.5354223 9524539
0.56299102 0.22740257 2.5354223 9723975
0.67190212 0.25988865 2.8976254 9855817
0.75426179 0.27988011 3.1205199 10709324
0.78493661 0.27988011 3.1205199 10840647
0.70686322 0.24256274 2.7044504 7028524
0.73344809 0.24256274 2.7044504 9590841
0.87696117 0.27988011 3.1205199 8407860
0.98327231 0.30320343 3.380563 983819
0.93831086 0.27988011 3.1205199 787466
0.50387257 0.14553764 1.6226703 852489
0.48131806 0.13475709 1.5024725 917769
0.49608743 0.13475709 1.5024725 918281
0.51085681 0.13475709 1.5024725 1575696
0.56767625 0.14553764 1.6226703 1378317
0.58362716 0.14553764 1.6226703 1378317
0.62456053 0.15160172 1.6902815 1115658
0.6994648 0.16538368 1.8439435 1115660
0.78934997 0.18192206 2.028338 1115661
0.770751 0.17325909 1.9317503 983562
0.7897402 0.17325909 1.9317503 1180684
0.80872941 0.17325909 1.9317503 1049352
0.86910456 0.18192206 2.028338 1247501
0.93583494 0.19149691 2.1350925 3218456
1.0099798 0.20213562 2.2537088 1969937
1.0321339 0.20213562 2.2537088 1443853
0.90367538 0.17325909 1.9317503 1049098
0.8073315 0.15160172 1.6902815 720903
0.82394701 0.15160172 1.6902815 852232
0.96064293 0.17325909 1.9317503 852743
1.1429043 0.20213562 2.2537088 918282
1.0485525 0.18192206 2.028338 852491
1.0684911 0.18192206 2.028338 918283
1.0884298 0.18192206 2.028338 918282
1.1667036 0.19149691 2.1350925 918282
1.1876916 0.19149691 2.1350925 852489
1.2086797 0.19149691 2.1350925 852748
1.2296677 0.19149691 2.1350925 655880
1.188123 0.18192206 2.028338 1574408
1.2080617 0.18192206 2.028338 6570292
1.2280003 0.18192206 2.028338 6702131
1.31362 0.19149691 2.1350925 6964531
1.334608 0.19149691 2.1350925 8211771
1.2878163 0.18192206 2.028338 8082245
1.307755 0.18192206 2.028338 7229253
1.3276936 0.18192206 2.028338 7031359
1.3476323 0.18192206 2.028338 7688521
1.3024484 0.17325909 1.9317503 3873310
1.3214376 0.17325909 1.9317503 2954263
1.4074482 0.18192206 2.028338 786696
1.4273869 0.18192206 2.028338 524296
1.4473255 0.18192206 2.028338 721675
1.3973943 0.17325909 1.9317503 590089
1.4163835 0.17325909 1.9317503 524809
1.4353727 0.17325909 1.9317503 590345
1.4543619 0.17325909 1.9317503 721159
1.4733511 0.17325909 1.9317503 852745
1.5669575 0.18192206 2.028338 786953
1.5113295 0.17325909 1.9317503 2561821
1.5303187 0.17325909 1.9317503 5257009
1.5493079 0.17325909 1.9317503 6308667
1.568297 0.17325909 1.9317503 6507333
1.5872862 0.17325909 1.9317503 6441797
1.6062754 0.17325909 1.9317503 5916482
1.6252646 0.17325909 1.9317503 4338740
1.6442538 0.17325909 1.9317503 1772823
1.6632431 0.17325909 1.9317503 721675
1.6822323 0.17325909 1.9317503 852489
1.6238931 0.16538368 1.8439435 721673
1.389401 0.13994005 1.5602599 918282
1.4047384 0.13994005 1.5602599 852489
1.4768788 0.14553764 1.6226703 852489
1.5550309 0.15160172 1.6902815 852489
1.6399789 0.1581931 1.763772 787209
1.6573169 0.1581931 1.763772 852490
1.6746548 0.1581931 1.763772 852491
1.7689016 0.16538368 1.8439435 852489
1.8721242 0.17325909 1.9317503 721416
1.8911134 0.17325909 1.9317503 655880
1.9101025 0.17325909 1.9317503 721673
1.9290917 0.17325909 1.9317503 984075
1.9480809 0.17325909 1.9317503 918536
1.9670701 0.17325909 1.9317503 1050122
1.9860593 0.17325909 1.9317503 918282
1.9139099 0.16538368 1.8439435 918282
1.8480344 0.1581931 1.763772 984329
1.7876486 0.15160172 1.6902815 4465947
1.8042641 0.15160172 1.6902815 5716266
1.8208796 0.15160172 1.6902815 5519666
1.9173863 0.1581931 1.763772 1771794
1.9347242 0.1581931 1.763772 2691588
1.9520621 0.1581931 1.763772 7290662
1.9694002 0.1581931 1.763772 7950137
2.1759512 0.17325909 1.9317503 8344126
2.1949403 0.17325909 1.9317503 8540990
2.3246262 0.18192206 2.028338 8540989
2.3445649 0.18192206 2.028338 8541502
2.3645036 0.18192206 2.028338 9067587
2.3844423 0.18192206 2.028338 9461829
2.2898865 0.17325909 1.9317503 9593417
2.4243195 0.18192206 2.028338 8804674
2.5729032 0.19149691 2.1350925 8870982
2.899055 0.21402594 2.3862798 8805189
3.5487647 0.25988865 2.8976254 8936519
0 0 0 9067847
0 0 0 9658438
0 0 0 9396551
0 0 0 9462090
0 0 0 9592905
0 0 0 9593161
0 0 0 9462344
0 0 0 4596502
0 0 0 1378055
-4.4014053 0.36701947 3.687887 1312524
-4.3651533 0.36701947 3.687887 1247501
-4.3289013 0.36701947 3.687887 2495510
-4.2926493 0.36701947 3.687887 3020310
-4.6820374 0.40372145 4.0566759 3217431
-4.6421599 0.40372145 4.0566759 3414550
-4.6022825 0.40372145 4.0566759 3611159
-5.0693393 0.44857937 4.5074177 3546135
-5.0250311 0.44857937 4.5074177 3415063
-4.4826508 0.40372145 4.0566759 3546393
-4.4427733 0.40372145 4.0566759 4269088
-4.4028959 0.40372145 4.0566759 4400160
-4.3630185 0.40372145 4.0566759 4399134
-4.3231416 0.40372145 4.0566759 3742744
-3.8938763 0.36701947 3.687887 3414805
-3.8576241 0.36701947 3.687887 3611928
-3.821372 0.36701947 3.687887 3545621
-3.78512 0.36701947 3.687887 3348756
-4.123755 0.40372145 4.0566759 2626066
-4.0838776 0.40372145 4.0566759 1180424
-4.0440001 0.40372145 4.0566759 1115402
-4.4490256 0.44857937 4.5074177 2232339
-4.4047174 0.44857937 4.5074177 1049096
-4.3604093 0.44857937 4.5074177 918282
-4.3161011 0.44857937 4.5074177 853002
-3.8446138 0.40372145 4.0566759 984075
-4.2274847 0.44857937 4.5074177 1049355
-4.183177 0.44857937 4.5074177 918282
-4.1388688 0.44857937 4.5074177 983818
-4.0945606 0.44857937 4.5074177 1050122
-4.0502524 0.44857937 4.5074177 984329
-4.0059443 0.44857937 4.5074177 984075
-3.9616363 0.44857937 4.5074177 1115146
-3.9173281 0.44857937 4.5074177 1181708
-3.8730199 0.44857937 4.5074177 984075
-3.8287117 0.44857937 4.5074177 1180684
-3.7844038 0.44857937 4.5074177 1049098
-3.7400956 0.44857937 4.5074177 786696
-3.6957874 0.44857937 4.5074177 786698
-3.6514795 0.44857937 4.5074177 917512
-3.6071713 0.44857937 4.5074177 786696
-3.5628631 0.44857937 4.5074177 655623
-3.5185549 0.44857937 4.5074177 852231
-3.474247 0.44857937 4.5074177 918536
-3.4299388 0.44857937 4.5074177 918281
-3.3856306 0.44857937 4.5074177 918024
-3.3413227 0.44857937 4.5074177 918279
-3.2970145 0.44857937 4.5074177 1181454
-3.6592944 0.50465178 5.0708447 1050122
-3.2083981 0.44857937 4.5074177 786696
-3.1640902 0.44857937 4.5074177 786696
-3.119782 0.44857937 4.5074177 721674
-3.0754738 0.44857937 4.5074177 852743
-3.4100614 0.50465178 5.0708447 918282
-2.9868577 0.44857937 4.5074177 786696
-3.3103681 0.50465178 5.0708447 852489
-2.8982413 0.44857937 4.5074177 917512
-3.2106748 0.50465178 5.0708447 983305
-3.1608281 0.50465178 5.0708447 852489
-3.1109815 0.50465178 5.0708447 1049870
-3.0611348 0.50465178 5.0708447 2692372
-3.0112882 0.50465178 5.0708447 4794660
-3.3845046 0.57674485 5.7952509 8343609
-3.3275371 0.57674485 5.7952509 9263422
-2.8617485 0.50465178 5.0708447 9329468
-2.8119018 0.50465178 5.0708447 9723455
-2.4551601 0.44857937 4.5074177 9986367
-1.4465111 0.2691476 2.7044504 9657918
-0.21088015 0.039972417 0.40165105 9854784
-0.20693189 0.039972417 0.40165105 9527102
0 0 0 7356716
-0.21160606 0.04249699 0.42701849 6043180
-0.20740844 0.04249699 0.42701849 5517352
-0.20321083 0.04249699 0.42701849 5384228
-0.19901322 0.04249699 0.42701849 4924703
-0.19481561 0.04249699 0.42701849 4793117
-0.19264585 0.042949084 0.43156123 4661533
-0.19042943 0.043410905 0.43620169 4463900
-0.18614155 0.043410905 0.43620169 4201755
-0.18383034 0.043882761 0.440943 4266519
-0.17949584 0.043882761 0.440943 3938582
-0.17516136 0.043882761 0.440943 4266776
-0.17082687 0.043882761 0.440943 4134675
-0.16649237 0.043882761 0.440943 4134675
-0.1657614 0.044857934 0.45074174 3806484
-0.16314329 0.045361958 0.45580626 2953232
-0.16612917 0.047496639 0.47725597 2166291
-0.1633596 0.048062071 0.48293757 1247245
0 0 0 655628
0 0 0 655882
-0.16481431 0.053121239 0.53377312 655882
-0.15749499 0.052431352 0.52684098 852489
-0.15036336 0.051759157 0.52008665 786696
-0.14907327 0.053121239 0.53377312 590345
-0.1401384 0.051759157 0.52008665 524554
-0.14232463 0.054556947 0.54819942 589832
-0.13160063 0.052431352 0.52684098 655367
-0.13154697 0.054556947 0.54819942 524294
-0.12615815 0.054556947 0.54819942 590089
-0.1224237 0.055304304 0.555709 720903
-0.11858552 0.056072421 0.56342721 786698
-0.113047 0.056072421 0.56342721 458759
-0.1075085 0.056072421 0.56342721 393223
-0.10196998 0.056072421 0.56342721 393479
-0.095110483 0.055304304 0.555709 458757
-0.089647837 0.055304304 0.555709 589829
-0.08418519 0.055304304 0.555709 590089
-0.078722544 0.055304304 0.555709 720905
-0.073259905 0.055304304 0.555709 720905
-0.068738893 0.056072421 0.56342721 524296
-0.06409052 0.056862172 0.57136279 524294
-0.057661861 0.056072421 0.56342721 590089
-0.053612582 0.05767449 0.57952511 590089
-0.048610255 0.058510348 0.587924 655882
-0.042830933 0.058510348 0.587924 786697
-0.038735777 0.061169907 0.61464781 720903
-0.032693762 0.061169907 0.61464781 590088
-0.026651748 0.061169907 0.61464781 655623
-0.021253787 0.063081473 0.63385558 786696
-0.015022959 0.063081473 0.63385558 786952
-0.0087921293 0.063081473 0.63385558 786953
-0.0025613005 0.063081473 0.63385558 786696
0.0036695283 0.063081473 0.63385558 1049352
0.011116191 0.070828319 0.71169752 852489
0 0 0 1049098
0 0 0 1246473
0 0 0 1312267
0 0 0 1574668
0 0 0 1378059
0 0 0 1574668
0 0 0 1180681
0 0 0 1049352
0 0 0 1180938
0 0 0 984329
0 0 0 1180938
0 0 0 5583147
0 0 0 7356462
0 0 0 8013358
0 0 0 8406831
0 0 0 8669745
0 0 0 8605236
0.45950222 0.23748319 2.3862798 8999221
0.48295945 0.23748319 2.3862798 9130036
0.53806776 0.25232589 2.5354223 9393208
0.56299102 0.25232589 2.5354223 9196857
0.62710863 0.2691476 2.7044504 9065529
0.70038593 0.28837243 2.8976254 9130293
0.68027836 0.2691476 2.7044504 8736565
0.70686322 0.2691476 2.7044504 7817264
0.73344809 0.2691476 2.7044504 9196597
0.81432104 0.28837243 2.8976254 5909016
0.90763605 0.31055495 3.1205199 918282
0.93831086 0.31055495 3.1205199 852745
0.46654868 0.14952646 1.5024725 786696
0.46412811 0.14418621 1.4488127 983559
0.47837001 0.14418621 1.4488127 1246731
0.49261189 0.14418621 1.4488127 1509131
0.50685376 0.14418621 1.4488127 1377545
0.54039556 0.14952646 1.5024725 1378059
0.59957808 0.16148856 1.6226703 1508875
0.66905326 0.17553104 1.763772 1443082
0.71759081 0.18350974 1.8439435 1180680
0.770751 0.19224828 1.9317503 1180680
0.7897402 0.19224828 1.9317503 1115144
0.80872941 0.19224828 1.9317503 721673
0.82771862 0.19224828 1.9317503 983558
0.88904321 0.20186073 2.028338 852490
0.90898186 0.20186073 2.028338 918283
0.77410042 0.16821726 1.6902815 1115915
0.75908732 0.16148856 1.6226703 655880
0.8073315 0.16821726 1.6902815 590087
0.79098916 0.16148856 1.6226703 853001
0.84056258 0.16821726 1.6902815 3548445
0.85717809 0.16821726 1.6902815 3481116
0.95322943 0.18350974 1.8439435 3415836
1.0176105 0.19224828 1.9317503 3153438
1.0365998 0.19224828 1.9317503 2758427
1.1083684 0.20186073 2.028338 1574670
1.1283071 0.20186073 2.028338 983818
1.1482457 0.20186073 2.028338 984332
1.2296677 0.21248496 2.1350925 852488
1.188123 0.20186073 2.028338 1574924
1.2080617 0.20186073 2.028338 6767155
1.2280003 0.20186073 2.028338 5846830
1.247939 0.20186073 2.028338 6767155
1.2678777 0.20186073 2.028338 8279363
1.2878163 0.20186073 2.028338 8278593
1.307755 0.20186073 2.028338 8081732
1.3276936 0.20186073 2.028338 7491139
1.2834592 0.19224828 1.9317503 6701112
1.3024484 0.19224828 1.9317503 3675931
1.3214376 0.19224828 1.9317503 3085590
1.3404268 0.19224828 1.9317503 983305
1.4273869 0.20186073 2.028338 655625
1.4473255 0.20186073 2.028338 524553
1.3973943 0.19224828 1.9317503 655368
1.4163835 0.19224828 1.9317503 721415
1.4353727 0.19224828 1.9317503 655623
1.4543619 0.19224828 1.9317503 655623
1.5470188 0.20186073 2.028338 721161
1.6494288 0.21248496 2.1350925 1049100
1.5868961 0.20186073 2.028338 2561561
1.5303187 0.19224828 1.9317503 6963250
1.5493079 0.19224828 1.9317503 6898482
1.4970108 0.18350974 1.8439435 8213568
1.515137 0.18350974 1.8439435 8870980
1.533263 0.18350974 1.8439435 8410175
1.6252646 0.19224828 1.9317503 6371884
1.5695151 0.18350974 1.8439435 4925224
1.5876411 0.18350974 1.8439435 984077
1.6057671 0.18350974 1.8439435 917770
1.7012215 0.19224828 1.9317503 786952
1.4449769 0.16148856 1.6226703 787208
1.4609278 0.16148856 1.6226703 721416
1.4768788 0.16148856 1.6226703 852489
1.5550309 0.16821726 1.6902815 787209
1.6399789 0.17553104 1.763772 918282
1.588262 0.16821726 1.6902815 852489
1.6746548 0.17553104 1.763772 918283
1.6919928 0.17553104 1.763772 1049355
1.7093308 0.17553104 1.763772 1049098
1.8911134 0.19224828 1.9317503 1114891
1.8232797 0.18350974 1.8439435 852489
1.9290917 0.19224828 1.9317503 721675
1.9480809 0.19224828 1.9317503 852491
1.9670701 0.19224828 1.9317503 852489
2.0853624 0.20186073 2.028338 983305
1.9139099 0.18350974 1.8439435 918025
1.7710329 0.16821726 1.6902815 1049609
1.7876486 0.16821726 1.6902815 4925983
1.8827103 0.17553104 1.763772 7427135
1.9000483 0.17553104 1.763772 8084039
1.9173863 0.17553104 1.763772 2166546
1.9347242 0.17553104 1.763772 1969666
1.8707262 0.16821726 1.6902815 9395008
1.8873417 0.16821726 1.6902815 10053195
2.0770445 0.18350974 1.8439435 8870725
2.1949403 0.19224828 1.9317503 8082241
2.2139297 0.19224828 1.9317503 7490617
2.2329187 0.19224828 1.9317503 7556154
2.3645036 0.20186073 2.028338 7818812
2.2708972 0.19224828 1.9317503 8410431
2.4043808 0.20186073 2.028338 9002053
2.4243195 0.20186073 2.028338 8607810
2.7158425 0.22428969 2.2537088 8542791
2.899055 0.23748319 2.3862798 8542275
3.5487647 0.28837243 2.8976254 8739139
4.1734567 0.33643451 3.380563 9198918
0 0 0 9527111
0 0 0 9396808
0 0 0 9199432
0 0 0 9199432
0 0 0 9001796
0 0 0 9198405
0 0 0 4596754
0 0 0 1378309
-4.0346217 0.36966559 3.380563 1246731
-4.3651533 0.40327156 3.687887 1378317
-4.3289013 0.40327156 3.687887 2889498
-4.7219143 0.44359875 4.0566759 3480346
-4.6820374 0.44359875 4.0566759 3743000
-4.6421599 0.44359875 4.0566759 3873558
-4.6022825 0.44359875 4.0566759 3611671
-4.5624051 0.44359875 4.0566759 3611671
-4.5225282 0.44359875 4.0566759 3480855
-4.4826508 0.44359875 4.0566759 3349272
-4.4427733 0.44359875 4.0566759 3349015
-4.4028959 0.44359875 4.0566759 3480085
-4.3630185 0.44359875 4.0566759 3741717
-4.3231416 0.44359875 4.0566759 3610903
-3.8938763 0.40327156 3.687887 3413781
-3.8576241 0.40327156 3.687887 3347986
-3.821372 0.40327156 3.687887 3282451
-4.1636324 0.44359875 4.0566759 2954002
-4.123755 0.44359875 4.0566759 2494481
-4.0838776 0.44359875 4.0566759 1114632
-4.0440001 0.44359875 4.0566759 1049353
-4.0041227 0.44359875 4.0566759 1049611
-4.4047174 0.4928875 4.5074177 918282
-4.3604093 0.4928875 4.5074177 918537
-3.884491 0.44359875 4.0566759 852743
-3.8446138 0.44359875 4.0566759 918282
-3.8047364 0.44359875 4.0566759 1049098
-3.7648592 0.44359875 4.0566759 984075
-4.1388688 0.4928875 4.5074177 984075
-4.0945606 0.4928875 4.5074177 1115658
-4.0502524 0.4928875 4.5074177 1115658
-4.0059443 0.4928875 4.5074177 1049866
-3.9616363 0.4928875 4.5074177 983816
-3.9173281 0.4928875 4.5074177 983559
-3.8730199 0.4928875 4.5074177 852744
-3.4458406 0.44359875 4.0566759 918282
-3.4059634 0.44359875 4.0566759 984329
-3.366086 0.44359875 4.0566759 1049866
-3.6957874 0.4928875 4.5074177 852489
-3.6514795 0.4928875 4.5074177 655880
-3.6071713 0.4928875 4.5074177 721673
-3.5628631 0.4928875 4.5074177 786952
-3.5185549 0.4928875 4.5074177 1115145
-3.474247 0.4928875 4.5074177 984329
-3.4299388 0.4928875 4.5074177 852743
-3.3856306 0.4928875 4.5074177 655881
-3.3413227 0.4928875 4.5074177 853002
-3.2970145 0.4928875 4.5074177 918024
-3.6592944 0.55449843 5.0708447 984072
-3.2083981 0.4928875 4.5074177 852489
-3.1640902 0.4928875 4.5074177 1049352
-3.119782 0.4928875 4.5074177 984331
-3.459908 0.55449843 5.0708447 984075
-3.4100614 0.55449843 5.0708447 1115403
-3.3602147 0.55449843 5.0708447 1181708
-3.3103681 0.55449843 5.0708447 984330
-3.2605214 0.55449843 5.0708447 1050122
-3.2106748 0.55449843 5.0708447 1246731
-3.1608281 0.55449843 5.0708447 1181197
-3.1109815 0.55449843 5.0708447 984075
-3.0611348 0.55449843 5.0708447 2494734
-3.0112882 0.55449843 5.0708447 3939352
-3.3845046 0.63371247 5.7952509 8211768
-3.3275371 0.63371247 5.7952509 8278070
-3.2705696 0.63371247 5.7952509 8869947
-2.8119018 0.55449843 5.0708447 9263933
-2.7620552 0.55449843 5.0708447 9724739
-2.7122085 0.55449843 5.0708447 9133116
-1.4199263 0.29573247 2.7044504 7227696
-0.21546517 0.045731828 0.41821399 7884085
-0.21135411 0.045731828 0.41821399 6502954
-0.20724304 0.045731828 0.41821399 6174253
-0.20740844 0.046694603 0.42701849 5780010
-0.20321083 0.046694603 0.42701849 5122081
-0.19901322 0.046694603 0.42701849 4924449
-0.19481561 0.046694603 0.42701849 4793117
-0.19061801 0.046694603 0.42701849 4595998
-0.18840358 0.047191352 0.43156123 4463896
-0.18614155 0.047698788 0.43620169 4332826
-0.18185367 0.047698788 0.43620169 4070167
-0.17756578 0.047698788 0.43620169 4135451
-0.1732779 0.047698788 0.43620169 4200726
-0.17082687 0.048217252 0.440943 4003861
-0.16649237 0.048217252 0.440943 4004119
-0.16215789 0.048217252 0.440943 3872534
-0.16133058 0.049288746 0.45074174 3018769
-0.16612917 0.052188087 0.47725597 2231567
-0.1633596 0.052809373 0.48293757 1378829
0 0 0 983308
0 0 0 721674
-0.16267386 0.057610221 0.52684098 721675
-0.15547584 0.056871634 0.52008665 655882
-0.15231612 0.057610221 0.52684098 721673
-0.14525089 0.056871634 0.52008665 590348
-0.1401384 0.056871634 0.52008665 524297
-0.13502593 0.056871634 0.52008665 655367
-0.13510999 0.059146497 0.5408901 655882
-0.13154697 0.059945773 0.54819942 720903
-0.12615815 0.059945773 0.54819942 655623
-0.12076933 0.059945773 0.54819942 655882
-0.1153805 0.059945773 0.54819942 590089
-0.10999168 0.059945773 0.54819942 393222
-0.10603577 0.06076695 0.555709 459016
-0.10057312 0.06076695 0.555709 524294
-0.095110483 0.06076695 0.555709 589829
-0.089647837 0.06076695 0.555709 590089
-0.08418519 0.06076695 0.555709 589831
-0.078722544 0.06076695 0.555709 524809
-0.074277401 0.061610937 0.56342721 590089
-0.069707043 0.062478695 0.57136279 720905
-0.06409052 0.062478695 0.57136279 720905
-0.057661861 0.061610937 0.56342721 655882
-0.052123345 0.061610937 0.56342721 524296
-0.048610255 0.064289667 0.587924 721418
-0.045466688 0.068245955 0.62410396 590087
-0.039331716 0.068245955 0.62410396 720903
-0.032693762 0.067211926 0.61464781 786696
-0.026253961 0.066208765 0.605474 721416
-0.020302124 0.066208765 0.605474 786697
-0.014791836 0.068245955 0.62410396 918025
-0.0087921293 0.069312304 0.63385558 983561
-0.0025613005 0.069312304 0.63385558 917512
0.0036695283 0.069312304 0.63385558 1049095
0.010739371 0.07518623 0.68757218 1049098
0 0 0 1312267
0 0 0 1312267
0 0 0 1312267
0 0 0 1312524
0 0 0 1246474
0 0 0 1180938
0 0 0 1180681
0 0 0 852743
0 0 0 983305
0 0 0 983559
0 0 0 1049868
0 0 0 5322289
0 0 0 7684396
0 0 0 8209966
0 0 0 8341808
0 0 0 8539184
0 0 0 8604719
0.48822111 0.27724922 2.5354223 8539185
0.51314443 0.27724922 2.5354223 8670771
0.53806776 0.27724922 2.5354223 9129523
0.56299102 0.27724922 2.5354223 8934197
0.58791435 0.27724922 2.5354223 8999475
0.61283767 0.27724922 2.5354223 9459256
0.637761 0.27724922 2.5354223 9459256
0.70686322 0.29573247 2.7044504 9656378
0.73344809 0.29573247 2.7044504 9656634
0.81432104 0.31685624 2.8976254 2033160
0 0 0 1115146
0 0 0 918282
0.46654868 0.16429582 1.5024725 852489
0.46412811 0.15842812 1.4488127 917512
0.47837001 0.15842812 1.4488127 983817
0.49261189 0.15842812 1.4488127 1049353
0.48937607 0.15296507 1.3988537 918280
0.52109569 0.15842812 1.4488127 852490
0.5765174 0.1706149 1.5602599 1180938
0.64117604 0.1848328 1.6902815 983305
0.68639123 0.19286901 1.763772 918536
0.73571688 0.20163578 1.8439435 786951
0.7897402 0.21123749 1.9317503 852489
0.80872941 0.21123749 1.9317503 852489
0.82771862 0.21123749 1.9317503 852489
0.80822104 0.20163578 1.8439435 786955
0.72718549 0.1774395 1.6226703 918281
0.71455425 0.1706149 1.5602599 984075
0.72989166 0.1706149 1.5602599 786696
0.77503824 0.1774395 1.6226703 590087
0.79098916 0.1774395 1.6226703 1246477
0.80694008 0.1774395 1.6226703 4466206
0.822891 0.1774395 1.6226703 4531485
0.87379366 0.1848328 1.6902815 4334621
0.92912263 0.19286901 1.763772 3743256
0.98948157 0.20163578 1.8439435 2231822
1.0555888 0.21123749 1.9317503 2429974
1.1283071 0.22179937 2.028338 2888985
1.1482457 0.22179937 2.028338 3151894
1.1681844 0.22179937 2.028338 3348245
1.188123 0.22179937 2.028338 2560271
1.2080617 0.22179937 2.028338 4267287
1.2280003 0.22179937 2.028338 4399386
1.247939 0.22179937 2.028338 4399132
1.2678777 0.22179937 2.028338 4398871
1.2878163 0.22179937 2.028338 4530972
1.307755 0.22179937 2.028338 4399902
1.26447 0.21123749 1.9317503 4465695
1.2834592 0.21123749 1.9317503 4728607
1.3024484 0.21123749 1.9317503 3282966
1.3875096 0.22179937 2.028338 2954004
1.4074482 0.22179937 2.028338 2034704
1.4273869 0.22179937 2.028338 1838610
1.4473255 0.22179937 2.028338 2035989
1.3973943 0.21123749 1.9317503 2101782
1.4163835 0.21123749 1.9317503 1970710
1.4353727 0.21123749 1.9317503 1708052
1.5270802 0.22179937 2.028338 1970454
1.5470188 0.22179937 2.028338 1707282
1.6494288 0.23347302 2.1350925 1707025
1.5868961 0.22179937 2.028338 2364952
1.5303187 0.21123749 1.9317503 5715240
1.4788848 0.20163578 1.8439435 7425087
1.4970108 0.20163578 1.8439435 5848113
1.515137 0.20163578 1.8439435 6570550
1.533263 0.20163578 1.8439435 6635829
1.551389 0.20163578 1.8439435 6570291
1.5695151 0.20163578 1.8439435 5058351
1.5186132 0.19286901 1.763772 1180685
1.5359511 0.19286901 1.763772 786698
1.7012215 0.21123749 1.9317503 721674
1.7202107 0.21123749 1.9317503 655882
1.587965 0.19286901 1.763772 853259
1.758189 0.21123749 1.9317503 1049868
1.7771782 0.21123749 1.9317503 984075
1.7961674 0.21123749 1.9317503 984075
1.6573169 0.19286901 1.763772 787466
1.6746548 0.19286901 1.763772 655880
1.6919928 0.19286901 1.763772 721673
1.8721242 0.21123749 1.9317503 786953
1.8911134 0.21123749 1.9317503 721416
1.9101025 0.21123749 1.9317503 786954
1.9290917 0.21123749 1.9317503 787467
2.045485 0.22179937 2.028338 852747
2.0654237 0.22179937 2.028338 786696
1.9860593 0.21123749 1.9317503 918284
1.9139099 0.20163578 1.8439435 852489
1.8480344 0.19286901 1.763772 984075
1.8653724 0.19286901 1.763772 2298387
1.8827103 0.19286901 1.763772 3677716
1.9000483 0.19286901 1.763772 7031356
1.9173863 0.19286901 1.763772 4926767
1.8541107 0.1848328 1.6902815 4796206
1.8707262 0.1848328 1.6902815 7294266
1.9694002 0.19286901 1.763772 7292721
2.0770445 0.20163578 1.8439435 7423793
2.1949403 0.21123749 1.9317503 7752501
2.2139297 0.21123749 1.9317503 7950395
2.2329187 0.21123749 1.9317503 7359801
2.2519081 0.21123749 1.9317503 7161651
2.2708972 0.21123749 1.9317503 7425077
2.2898865 0.21123749 1.9317503 7687483
2.3088756 0.21123749 1.9317503 7753271
2.7158425 0.24644375 2.2537088 8410177
2.899055 0.26094043 2.3862798 8344896
3.8217468 0.3412298 3.1205199 8279615
5.5646091 0.4928875 4.5074177 8674371
0 0 0 9133125
0 0 0 9592647
0 0 0 9330503
0 0 0 9330248
0 0 0 9461577
0 0 0 9198662
0 0 0 5056789
0 0 0 1444100
-4.0346217 0.40289667 3.380563 1181708
-4.0013905 0.40289667 3.380563 1181708
-4.3289013 0.43952367 3.687887 2691859
-4.2926493 0.43952367 3.687887 3085331
-4.6820374 0.48347604 4.0566759 3216659
-4.6421599 0.48347604 4.0566759 3282707
-4.6022825 0.48347604 4.0566759 3216916
-4.5624051 0.48347604 4.0566759 3282964
-4.5225282 0.48347604 4.0566759 3479317
-4.9807229 0.53719562 4.5074177 3283222
-4.9364147 0.53719562 4.5074177 3545365
-4.4028959 0.48347604 4.0566759 3349015
-4.3630185 0.48347604 4.0566759 3283222
-4.3231416 0.48347604 4.0566759 3479831
-3.8938763 0.43952367 3.687887 3282966
-3.5361555 0.40289667 3.380563 3283222
-3.5029244 0.40289667 3.380563 3282452
-4.6262579 0.53719562 4.5074177 3151638
-4.5819497 0.53719562 4.5074177 2494482
-4.5376415 0.53719562 4.5074177 1049353
-4.0440001 0.48347604 4.0566759 852489
-4.0041227 0.48347604 4.0566759 918281
-3.9642456 0.48347604 4.0566759 918282
-3.9243684 0.48347604 4.0566759 1049609
-3.884491 0.48347604 4.0566759 984329
-3.8446138 0.48347604 4.0566759 1312267
-3.8047364 0.48347604 4.0566759 1115145
-3.7648592 0.48347604 4.0566759 984075
-3.7249818 0.48347604 4.0566759 984075
-4.0945606 0.53719562 4.5074177 787466
-4.0502524 0.53719562 4.5074177 721673
-3.60535 0.48347604 4.0566759 786953
-3.5654726 0.48347604 4.0566759 852489
-3.5255952 0.48347604 4.0566759 787209
-3.485718 0.48347604 4.0566759 1050381
-3.4458406 0.48347604 4.0566759 1115145
-3.4059634 0.48347604 4.0566759 1116172
-3.366086 0.48347604 4.0566759 1246987
-3.6957874 0.53719562 4.5074177 1115659
-3.6514795 0.53719562 4.5074177 1050122
-3.6071713 0.53719562 4.5074177 984329
-3.5628631 0.53719562 4.5074177 787208
-3.5185549 0.53719562 4.5074177 1312270
-3.474247 0.53719562 4.5074177 1246731
-3.4299388 0.53719562 4.5074177 1180939
-3.3856306 0.53719562 4.5074177 852489
-3.3413227 0.53719562 4.5074177 1246730
-3.2970145 0.53719562 4.5074177 1246731
-3.6592944 0.60434502 5.0708447 1246987
-3.6094477 0.60434502 5.0708447 1114891
-3.5596011 0.60434502 5.0708447 1378575
-3.5097547 0.60434502 5.0708447 1509902
-3.459908 0.60434502 5.0708447 1509902
-3.4100614 0.60434502 5.0708447 1575695
-3.3602147 0.60434502 5.0708447 1707024
-3.3103681 0.60434502 5.0708447 1641488
-3.2605214 0.60434502 5.0708447 1641232
-3.2106748 0.60434502 5.0708447 1509902
-3.1608281 0.60434502 5.0708447 1444880
-3.1109815 0.60434502 5.0708447 1180937
-3.0611348 0.60434502 5.0708447 1969426
-3.0112882 0.60434502 5.0708447 4075567
-2.9614415 0.60434502 5.0708447 6436391
-3.3275371 0.69068003 5.7952509 5778459
-3.2705696 0.69068003 5.7952509 5317910
-2.8119018 0.60434502 5.0708447 4857874
-2.7620552 0.60434502 5.0708447 4594961
-2.7122085 0.60434502 5.0708447 4004368
-2.6623619 0.60434502 5.0708447 3412749
-0.22473249 0.051986668 0.43620169 3610902
-0.21135411 0.04984289 0.41821399 4728869
-0.20940182 0.050362084 0.42257038 6240046
-0.20740844 0.050892211 0.42701849 6043182
-0.20321083 0.050892211 0.42701849 5384997
-0.19901322 0.050892211 0.42701849 4990496
-0.19481561 0.050892211 0.42701849 4924449
-0.19061801 0.050892211 0.42701849 4858910
-0.18840358 0.051433619 0.43156123 4595741
-0.18416132 0.051433619 0.43156123 4529691
-0.18185367 0.051986668 0.43620169 4135447
-0.17756578 0.051986668 0.43620169 4463898
-0.1732779 0.051986668 0.43620169 4069397
-0.17082687 0.052551743 0.440943 4069397
-0.16649237 0.052551743 0.440943 4135187
-0.16215789 0.052551743 0.440943 4003347
-0.16133058 0.053719558 0.45074174 3281426
-0.16419744 0.056218144 0.47170648 2494224
-0.1633596 0.05755667 0.48293757 2299159
0 0 0 721674
-0.16360331 0.061199497 0.51350325 918282
-0.16267386 0.06278909 0.52684098 852746
-0.15547584 0.061984107 0.52008665 721674
-0.15231612 0.06278909 0.52684098 655882
-0.14525089 0.061984107 0.52008665 720903
-0.1401384 0.061984107 0.52008665 655625
-0.14042696 0.064463474 0.5408901 720903
-0.13510999 0.064463474 0.5408901 720905
-0.13154697 0.065334596 0.54819942 721160
-0.11525559 0.059688397 0.50082415 786697
-0.11033247 0.059688397 0.50082415 786953
-0.10540935 0.059688397 0.50082415 524296
-0.10048622 0.059688397 0.50082415 458757
-0.095563099 0.059688397 0.50082415 327685
-0.10057312 0.066229597 0.555709 524296
-0.095110483 0.066229597 0.555709 590089
-0.089647837 0.066229597 0.555709 524296
-0.081940256 0.064463474 0.5408901 655368
-0.078722544 0.066229597 0.555709 786696
-0.073259905 0.066229597 0.555709 786698
-0.068738893 0.067149453 0.56342721 524296
-0.06409052 0.068095215 0.57136279 720905
-0.059309341 0.069068007 0.57952511 786696
-0.056861825 0.073253937 0.61464781 655368
0 0 0 655624
0 0 0 786697
0 0 0 720903
-0.032205798 0.072160602 0.605474 721417
-0.026253961 0.072160602 0.605474 852232
-0.020302124 0.072160602 0.605474 786697
-0.014350289 0.072160602 0.605474 983304
-0.0083984518 0.072160602 0.605474 983305
-0.002521896 0.074380927 0.62410396 918282
0.0036695283 0.075543128 0.63385558 1049098
0.010057506 0.076742224 0.64391679 852489
0 0 0 1049352
0 0 0 918282
0 0 0 1180938
0 0 0 1312270
0 0 0 1049352
0 0 0 1114888
0 0 0 1049352
0 0 0 852743
0 0 0 852489
0 0 0 1049098
0 0 0 1180684
0 0 0 2693145
0 0 0 5319194
0 0 0 6238497
0 0 0 6764072
0 0 0 7486249
0 0 0 7947568
0.48822111 0.30217251 2.5354223 8539189
0.51314443 0.30217251 2.5354223 8801844
0.53806776 0.30217251 2.5354223 9065270
0.56299102 0.30217251 2.5354223 9327415
0.58791435 0.30217251 2.5354223 9327156
0.61283767 0.30217251 2.5354223 9327413
0.637761 0.30217251 2.5354223 9196856
0.66268432 0.30217251 2.5354223 9393465
0.68760765 0.30217251 2.5354223 8867380
0.67061734 0.28439766 2.3862798 1311497
0.69407457 0.28439766 2.3862798 1049352
0.60990208 0.24173802 2.028338 852488
0.46654868 0.1790652 1.5024725 918282
0.46412811 0.17267001 1.4488127 983560
0.47837001 0.17267001 1.4488127 983560
0.49261189 0.17267001 1.4488127 1049352
0.48937607 0.16671586 1.3988537 918025
0.52109569 0.17267001 1.4488127 918282
0.55516493 0.1790652 1.5024725 1049352
0.64117604 0.20144834 1.6902815 984075
0.65779161 0.20144834 1.6902815 1049353
0.67440712 0.20144834 1.6902815 1114888
0.66338181 0.19339041 1.6226703 1049352
0.77196896 0.21976183 1.8439435 1115145
0.79009503 0.21976183 1.8439435 721673
0.71123457 0.19339041 1.6226703 1838610
0.69921684 0.18595232 1.5602599 2101011
0.71455425 0.18595232 1.5602599 1837325
0.72989166 0.18595232 1.5602599 655880
0.77503824 0.19339041 1.6226703 655367
0.79098916 0.19339041 1.6226703 2101783
0.80694008 0.19339041 1.6226703 4859934
0.822891 0.19339041 1.6226703 4793885
0.83884192 0.19339041 1.6226703 4596766
0.89040917 0.20144834 1.6902815 4400158
0.98948157 0.21976183 1.8439435 4005915
1.0555888 0.23022668 1.9317503 3283998
1.074578 0.23022668 1.9317503 1970194
1.1482457 0.24173802 2.028338 1575695
1.1681844 0.24173802 2.028338 1970196
1.188123 0.24173802 2.028338 1378059
1.2080617 0.24173802 2.028338 1509643
1.2280003 0.24173802 2.028338 3611673
1.247939 0.24173802 2.028338 4465179
1.2678777 0.24173802 2.028338 4334109
1.2878163 0.24173802 2.028338 4202266
1.2454808 0.23022668 1.9317503 4268316
1.26447 0.23022668 1.9317503 4070680
1.2834592 0.23022668 1.9317503 3939609
1.3675709 0.24173802 2.028338 3348245
1.3875096 0.24173802 2.028338 2888468
1.4074482 0.24173802 2.028338 2231826
1.4273869 0.24173802 2.028338 2232596
1.3784052 0.23022668 1.9317503 2363667
1.3973943 0.23022668 1.9317503 2428944
1.4163835 0.23022668 1.9317503 2495250
1.5071415 0.24173802 2.028338 3020309
1.5270802 0.24173802 2.028338 3151895
1.5470188 0.24173802 2.028338 3217431
1.5669575 0.24173802 2.028338 3348245
1.5113295 0.23022668 1.9317503 3414297
1.5303187 0.23022668 1.9317503 4071710
1.4788848 0.21976183 1.8439435 4333337
1.4970108 0.21976183 1.8439435 4072479
1.515137 0.21976183 1.8439435 5123108
1.533263 0.21976183 1.8439435 5253923
1.551389 0.21976183 1.8439435 4003865
1.5012753 0.21020697 1.763772 3085597
1.4553376 0.20144834 1.6902815 1838357
1.4719532 0.20144834 1.6902815 2101012
1.5532892 0.21020697 1.763772 2101781
1.5706271 0.21020697 1.763772 2233366
1.5217998 0.20144834 1.6902815 2167573
1.5384154 0.20144834 1.6902815 2561561
1.7771782 0.23022668 1.9317503 2298645
1.7961674 0.23022668 1.9317503 2233110
1.7326494 0.21976183 1.8439435 2101781
1.7507756 0.21976183 1.8439435 1970452
1.6919928 0.21020697 1.763772 1773074
1.7093308 0.21020697 1.763772 1641747
1.8051536 0.21976183 1.8439435 1576212
1.9101025 0.23022668 1.9317503 1313040
1.9290917 0.23022668 1.9317503 1444111
1.9480809 0.23022668 1.9317503 1509902
1.8776579 0.21976183 1.8439435 1181708
1.8957839 0.21976183 1.8439435 1050122
1.9139099 0.21976183 1.8439435 984329
1.932036 0.21976183 1.8439435 1048580
1.8653724 0.21020697 1.763772 3020566
1.8827103 0.21020697 1.763772 2822668
1.9000483 0.21020697 1.763772 5452840
1.9173863 0.21020697 1.763772 6307632
1.8541107 0.20144834 1.6902815 6438706
1.9520621 0.21020697 1.763772 6635571
1.9694002 0.21020697 1.763772 6700336
2.0770445 0.21976183 1.8439435 6567723
2.1949403 0.23022668 1.9317503 6502700
2.2139297 0.23022668 1.9317503 6502700
2.2329187 0.23022668 1.9317503 6371884
2.2519081 0.23022668 1.9317503 6175020
2.2708972 0.23022668 1.9317503 6503985
2.2898865 0.23022668 1.9317503 7030327
2.4243195 0.24173802 2.028338 7424056
2.5729032 0.25446108 2.1350925 7753020
3.080246 0.30217251 2.5354223 7687483
3.8217468 0.37190464 3.1205199 7819837
0 0 0 8213823
0 0 0 8739140
0 0 0 9264455
0 0 0 9198918
0 0 0 9133125
0 0 0 9330504
0 0 0 8936260
0 0 0 4990996
0 0 0 1837059
-4.0346217 0.43612778 3.380563 1181451
