# .PCD v0.7 - Point Cloud Data file format
VERSION 0.7
FIELDS x y z rgb
SIZE 4 4 4 4
TYPE F F F U
COUNT 1 1 1 1
WIDTH 1255
HEIGHT 1
VIEWPOINT 0 0 0 1 0 0 0
POINTS 1255
DATA ascii
-0.14713725 -0.22204879 0.52684098 3087132
-0.14382626 -0.22497049 0.53377312 9262908
-0.14232463 -0.23105077 0.54819942 9657918
0 0 0 9855299
0 0 0 9920577
0 0 0 9921090
-0.12767044 -0.24425368 0.57952511 9724483
-0.12556113 -0.2514376 0.59656996 9855551
-0.12717788 -0.26715246 0.63385558 9921346
0 0 0 10052163
0 0 0 9921090
0 0 0 9920833
0 0 0 10052417
0 0 0 10052674
0 0 0 9921347
-0.13369933 -0.42744395 1.014169 9986880
-0.15965161 -0.55154055 1.3086051 9986883
0 0 0 10052419
0 0 0 10249796
0 0 0 9986883
0 0 0 9790276
0 0 0 10052419
0 0 0 9987137
-0.10275183 -0.81417888 1.9317503 10118467
-0.076478928 -0.74338073 1.763772 9987137
-0.059140973 -0.74338073 1.763772 10052162
-0.041803014 -0.74338073 1.763772 9921089
-0.037513085 -1.1398504 2.7044504 10051907
-0.010928215 -1.1398504 2.7044504 9986369
0.018065371 -1.3152121 3.1205199 9855809
0.045258775 -1.2212683 2.8976254 9724225
0.079415068 -1.3152121 3.1205199 9396287
0.11008992 -1.3152121 3.1205199 9329982
0.14076477 -1.3152121 3.1205199 9330239
0.17143962 -1.3152121 3.1205199 9264445
0.20211448 -1.3152121 3.1205199 9329727
0.23278932 -1.3152121 3.1205199 9067069
0.2446453 -1.2212683 2.8976254 9132606
0.23898795 -1.0686098 2.5354223 9329471
0.30161285 -1.2212683 2.8976254 9462342
0.35548872 -1.3152121 3.1205199 9396549
0.38616356 -1.3152121 3.1205199 9593413
0.31875879 -1.0057504 2.3862798 9593413
0.34221601 -1.0057504 2.3862798 9987655
0.36567327 -1.0057504 2.3862798 9921608
0.41345116 -1.0686098 2.5354223 9855815
0.53953785 -1.3152121 3.1205199 9987137
0.57021266 -1.3152121 3.1205199 10119239
0.52076918 -1.1398504 2.7044504 10381642
0.4321216 -0.89988196 2.1350925 10512714
0.43045419 -0.8548879 2.028338 10382666
0.45039287 -0.8548879 2.028338 10513226
0.49508578 -0.89988196 2.1350925 10644555
0.51607382 -0.89988196 2.1350925 10776396
0.5668987 -0.94987547 2.2537088 11235662
0.62370288 -1.0057504 2.3862798 11366730
0.64716011 -1.0057504 2.3862798 11170126
0.67061734 -1.0057504 2.3862798 11367248
0.65551496 -0.94987547 2.2537088 11433041
0.67766899 -0.94987547 2.2537088 11367503
0.69982302 -0.94987547 2.2537088 11892047
0.76444632 -1.0057504 2.3862798 11827538
0.78790355 -1.0057504 2.3862798 12221268
0.81136078 -1.0057504 2.3862798 12352853
0.88699412 -1.0686098 2.5354223 12614740
0.91191745 -1.0686098 2.5354223 12353625
0.93684077 -1.0686098 2.5354223 12484952
0.90518975 -1.0057504 2.3862798 12747609
0.92864698 -1.0057504 2.3862798 12813657
0.95210421 -1.0057504 2.3862798 13075287
0.97556144 -1.0057504 2.3862798 13207134
0.99901867 -1.0057504 2.3862798 13206879
1.0863807 -1.0686098 2.5354223 13600860
1.111304 -1.0686098 2.5354223 13272152
1.2985455 -1.2212683 2.8976254 13339231
1.0928476 -1.0057504 2.3862798 13601885
1.1163049 -1.0057504 2.3862798 13404251
1.1397622 -1.0057504 2.3862798 13470046
1.5211331 -1.3152121 3.1205199 13667680
1.4409643 -1.2212683 2.8976254 13864543
1.4694482 -1.2212683 2.8976254 13535839
1.3106905 -1.0686098 2.5354223 13601630
1.5264157 -1.2212683 2.8976254 13864543
1.5548996 -1.2212683 2.8976254 13799011
1.5833833 -1.2212683 2.8976254 13536354
1.5044093 -1.1398504 2.7044504 13339229
1.7665318 -1.3152121 3.1205199 13404256
1.7972068 -1.3152121 3.1205199 13536096
1.8278816 -1.3152121 3.1205199 13142367
2.0134361 -1.424813 3.380563 13339230
1.5350003 -1.0686098 2.5354223 13207646
1.5599236 -1.0686098 2.5354223 13404770
1.4916207 -1.0057504 2.3862798 13338715
1.5150779 -1.0057504 2.3862798 13075289
1.307755 -0.8548879 2.028338 13010521
1.3975722 -0.89988196 2.1350925 13141853
1.4973692 -0.94987547 2.2537088 12812891
1.5195233 -0.94987547 2.2537088 12944990
2.3125157 -1.424813 3.380563 12550491
2.1653049 -1.3152121 3.1205199 12550490
1.6792786 -1.0057504 2.3862798 12550233
1.6081395 -0.94987547 2.2537088 12485211
1.6302935 -0.94987547 2.2537088 12287830
1.6524476 -0.94987547 2.2537088 12287574
1.7731075 -1.0057504 2.3862798 12288088
1.7965648 -1.0057504 2.3862798 12025430
2.2100267 -1.2212683 2.8976254 12090199
2.2385104 -1.2212683 2.8976254 12352601
1.98362 -1.0686098 2.5354223 12024920
2.0085433 -1.0686098 2.5354223 11893593
2.0334666 -1.0686098 2.5354223 11827799
2.1956158 -1.1398504 2.7044504 11892820
2.2222006 -1.1398504 2.7044504 11564883
2.2487855 -1.1398504 2.7044504 11564627
2.1331599 -1.0686098 2.5354223 11499348
2.1580832 -1.0686098 2.5354223 11433041
2.1830065 -1.0686098 2.5354223 11171156
2.2079298 -1.0686098 2.5354223 11236434
2.1015089 -1.0057504 2.3862798 11499349
2.2577765 -1.0686098 2.5354223 11301968
2.2826998 -1.0686098 2.5354223 11301455
2.4614646 -1.1398504 2.7044504 11105363
2.4880495 -1.1398504 2.7044504 11039827
2.5146344 -1.1398504 2.7044504 11170128
2.5412192 -1.1398504 2.7044504 11105105
2.5678041 -1.1398504 2.7044504 11104847
2.594389 -1.1398504 2.7044504 11039313
2.6209738 -1.1398504 2.7044504 10973265
3.0548756 -1.3152121 3.1205199 10842192
3.0855503 -1.3152121 3.1205199 10907985
3.1162252 -1.3152121 3.1205199 10448465
2.9221213 -1.2212683 2.8976254 10512975
2.9506052 -1.2212683 2.8976254 10710606
2.979089 -1.2212683 2.8976254 10710606
3.0075727 -1.2212683 2.8976254 10579791
3.0360565 -1.2212683 2.8976254 10514001
2.8602376 -1.1398504 2.7044504 10579790
2.8868225 -1.1398504 2.7044504 10711376
2.9134073 -1.1398504 2.7044504 10907985
3.1499918 -1.2212683 2.8976254 11236177
3.4229739 -1.3152121 3.1205199 11237720
3.4536486 -1.3152121 3.1205199 11368277
3.7746835 -1.424813 3.380563 11433298
3.8079147 -1.424813 3.380563 11696470
3.8411458 -1.424813 3.380563 11893849
3.8743768 -1.424813 3.380563 12221272
3.607023 -1.3152121 3.1205199 12155735
3.377862 -1.2212683 2.8976254 11959129
3.6683726 -1.3152121 3.1205199 11959387
4.0073013 -1.424813 3.380563 12155995
4.848639 -1.7097758 4.0566759 12354143
4.0737634 -1.424813 3.380563 12221787
4.1069946 -1.424813 3.380563 11763033
4.1402254 -1.424813 3.380563 11828312
5.5646091 -1.8997509 4.5074177 11763288
0 0 0 11828824
0 0 0 12090969
0 0 0 12221272
0 0 0 11959132
0 0 0 11893596
0 0 0 11630168
0 0 0 11104848
0 0 0 10907726
0 0 0 10972747
0 0 0 10972747
0 0 0 10906956
0 0 0 10776141
0 0 0 10644812
-0.52159095 -0.18762903 0.45580626 10776140
-0.5113647 -0.18554427 0.45074174 10775884
-0.50693387 -0.18554427 0.45074174 10578250
-0.5025031 -0.18554427 0.45074174 10512970
-0.49807227 -0.18554427 0.45074174 10578761
-0.49364144 -0.18554427 0.45074174 10643530
-0.49470738 -0.18762903 0.45580626 10579792
-0.47945258 -0.18350531 0.44578853 10250569
-0.46990663 -0.18151069 0.440943 10315848
-0.46557215 -0.18151069 0.440943 10381382
-0.46630621 -0.18350531 0.44578853 10053446
-0.46192408 -0.18350531 0.44578853 10118728
-0.45256868 -0.18151069 0.440943 10184259
-0.44341448 -0.17955896 0.43620169 10184516
-0.43912661 -0.17955896 0.43620169 9987653
-0.43483871 -0.17955896 0.43620169 9921862
-0.43523073 -0.18151069 0.440943 9855554
-0.43089622 -0.18151069 0.440943 9790276
-0.44094023 -0.18762903 0.45580626 9790276
-0.43645963 -0.18762903 0.45580626 9658693
-0.43197906 -0.18762903 0.45580626 9724486
-0.42749846 -0.18762903 0.45580626 9658693
-0.41372076 -0.18350531 0.44578853 9658951
-0.41853726 -0.18762903 0.45580626 9526850
-0.41405666 -0.18762903 0.45580626 9658690
-0.40957606 -0.18762903 0.45580626 9461314
-0.40059441 -0.18554427 0.45074174 9330241
-0.38755134 -0.18151069 0.440943 9330756
-0.38321686 -0.18151069 0.440943 9461828
-0.37888235 -0.18151069 0.440943 9133376
-0.37454787 -0.18151069 0.440943 9330498
-0.37021339 -0.18151069 0.440943 9330241
-0.36194474 -0.17955896 0.43620169 9199168
-0.35765684 -0.17955896 0.43620169 9461314
-0.35336897 -0.17955896 0.43620169 9067586
-0.35287541 -0.18151069 0.440943 9001793
-0.34854093 -0.18151069 0.440943 9133379
-0.3405053 -0.17955896 0.43620169 9001792
-0.33621743 -0.17955896 0.43620169 9198399
-0.33192953 -0.17955896 0.43620169 8869949
-0.32764167 -0.17955896 0.43620169 8935485
-0.33046046 -0.18350531 0.44578853 8607034
-0.32970142 -0.18554427 0.45074174 8475705
-0.32892534 -0.18762903 0.45580626 8738877
-0.33190325 -0.19194235 0.46628457 8279098
-0.32731965 -0.19194235 0.46628457 7884085
-0.30191436 -0.17955896 0.43620169 5254691
-0.28535324 -0.17215447 0.41821399 6108973
-0.27837235 -0.1703978 0.41394651 5188389
-0.27153248 -0.1686766 0.40976521 4925733
-0.26750448 -0.1686766 0.40976521 4531490
-0.26347646 -0.1686766 0.40976521 4202271
-0.25685397 -0.16698985 0.40566757 4135707
-0.25286624 -0.16698985 0.40566757 3808283
-0.25139242 -0.1686766 0.40976521 3545112
-0.24489079 -0.16698985 0.40566757 3741720
-0.24090306 -0.16698985 0.40566757 2756368
-0.2393084 -0.1686766 0.40976521 2362381
-0.23528039 -0.1686766 0.40976521 1837325
-0.23125239 -0.1686766 0.40976521 1443082
-0.22722438 -0.1686766 0.40976521 1377547
-0.22319637 -0.1686766 0.40976521 1640462
-0.21916835 -0.1686766 0.40976521 1772046
-0.21514034 -0.1686766 0.40976521 2099727
-0.21326655 -0.1703978 0.41394651 2231311
-0.21135411 -0.17215447 0.41821399 2296848
-0.20724304 -0.17215447 0.41821399 2690578
-0.20740844 -0.17577878 0.42701849 2887440
-0.20321083 -0.17577878 0.42701849 3018767
-0.19901322 -0.17577878 0.42701849 3150353
-0.19688812 -0.17764877 0.43156123 3347730
-0.19471732 -0.17955896 0.43620169 3346962
-0.19249931 -0.18151069 0.440943 3282453
-0.18816483 -0.18151069 0.440943 3873045
-0.18585044 -0.18350531 0.44578853 4070167
-0.18348464 -0.18554427 0.45074174 4266773
-0.17905383 -0.18554427 0.45074174 3676440
-0.17859173 -0.18976118 0.46098587 2297103
-0.17810813 -0.19417423 0.47170648 1377801
-0.1776015 -0.19879742 0.48293757 1115145
-0.1728542 -0.19879742 0.48293757 852489
-0.16612917 -0.19645864 0.47725597 786950
-0.16143773 -0.19645864 0.47725597 918536
-0.1586123 -0.19879742 0.48293757 1049352
-0.1557188 -0.20119259 0.48875612 1049352
-0.15275472 -0.20364615 0.49471655 1115144
-0.14971747 -0.20616029 0.50082415 2034961
-0.14846002 -0.21137954 0.51350325 1575181
-0.14525089 -0.21408954 0.52008665 2166805
-0.14382626 -0.21972348 0.53377312 9462594
-0.14232463 -0.22566195 0.54819942 9789504
0 0 0 9921348
0 0 0 9920578
-0.14145005 -0.25301489 0.61464781 9921090
-0.12767044 -0.23855692 0.57952511 9986626
-0.12556113 -0.2455733 0.59656996 9920834
0 0 0 9856067
0 0 0 10052676
0 0 0 9986883
0 0 0 10184262
0 0 0 9986884
0 0 0 10052163
0 0 0 10052675
-0.17251526 -0.53867692 1.3086051 10184261
-0.15965161 -0.53867692 1.3086051 9921604
-0.16251524 -0.59639227 1.4488127 10380613
-0.14827335 -0.59639227 1.4488127 10052674
0 0 0 10249796
0 0 0 10052677
0 0 0 10052676
0 0 0 9986883
-0.11356781 -0.87889391 2.1350925 10051902
-0.076478928 -0.72604275 1.763772 9856321
-0.061829198 -0.75904471 1.8439435 9658943
-0.064097956 -1.1132655 2.7044504 9986626
-0.040192589 -1.1927845 2.8976254 9920577
-0.01260948 -1.2845373 3.1205199 9986370
0.019570816 -1.391582 3.380563 9658690
0.052801903 -1.391582 3.380563 9395518
0.086032987 -1.391582 3.380563 9462081
0.11926407 -1.391582 3.380563 9133374
0.15249516 -1.391582 3.380563 9066813
0.17143962 -1.2845373 3.1205199 8935228
0.20211448 -1.2845373 3.1205199 9395264
0.23278932 -1.2845373 3.1205199 9395520
0.26346418 -1.2845373 3.1205199 9724229
0.29413903 -1.2845373 3.1205199 9658179
0.26391128 -1.0436865 2.5354223 9461569
0.35548872 -1.2845373 3.1205199 9396547
0.38616356 -1.2845373 3.1205199 9921863
0.36125994 -1.1132655 2.7044504 10052675
0.3878448 -1.1132655 2.7044504 9921859
0.41442969 -1.1132655 2.7044504 10249796
0.50886297 -1.2845373 3.1205199 10315589
0.53953785 -1.2845373 3.1205199 10709577
0.57021266 -1.2845373 3.1205199 10381641
0.52076918 -1.1132655 2.7044504 10709832
0.54735404 -1.1132655 2.7044504 10775370
0.47828245 -0.92772138 2.2537088 10710603
0.47409773 -0.87889391 2.1350925 10776140
0.49508578 -0.87889391 2.1350925 10907724
0.51607382 -0.87889391 2.1350925 11170124
0.5668987 -0.92772138 2.2537088 10973517
0.62370288 -0.98229319 2.3862798 11235659
0.64716011 -0.98229319 2.3862798 11367505
0.67061734 -0.98229319 2.3862798 11498575
0.69407457 -0.98229319 2.3862798 11762515
0.7175318 -0.98229319 2.3862798 11958867
0.74098909 -0.98229319 2.3862798 12220754
0.76444632 -0.98229319 2.3862798 12287061
0.95674002 -1.1927845 2.8976254 12681048
1.0610102 -1.2845373 3.1205199 12483926
1.0916852 -1.2845373 3.1205199 12878169
1.0421914 -1.1927845 2.8976254 12747609
0.93684077 -1.0436865 2.5354223 13075291
0.9617641 -1.0436865 2.5354223 12813914
0.92864698 -0.98229319 2.3862798 12813145
0.95210421 -0.98229319 2.3862798 13141337
0.97556144 -0.98229319 2.3862798 13404252
1.0614574 -1.0436865 2.5354223 13141852
1.0863807 -1.0436865 2.5354223 13732446
1.2700616 -1.1927845 2.8976254 13864032
1.2985455 -1.1927845 2.8976254 13536089
1.2385606 -1.1132655 2.7044504 13601885
1.1163049 -0.98229319 2.3862798 13667678
1.2109972 -1.0436865 2.5354223 13930079
1.5211331 -1.2845373 3.1205199 13865059
1.5518079 -1.2845373 3.1205199 14257761
1.4694482 -1.1927845 2.8976254 13601377
1.497932 -1.1927845 2.8976254 13798498
1.5264157 -1.1927845 2.8976254 13864288
1.5548996 -1.1927845 2.8976254 13733216
1.5833833 -1.1927845 2.8976254 14126686
1.6118671 -1.1927845 2.8976254 13536865
1.7665318 -1.2845373 3.1205199 13602146
1.7972068 -1.2845373 3.1205199 13471071
1.8278816 -1.2845373 3.1205199 13470303
2.0134361 -1.391582 3.380563 13470049
1.8892312 -1.2845373 3.1205199 13535585
1.5599236 -1.0436865 2.5354223 13273952
1.584847 -1.0436865 2.5354223 13338974
1.7170882 -1.1132655 2.7044504 13142108
1.5385351 -0.98229319 2.3862798 13076574
1.5619924 -0.98229319 2.3862798 12878169
1.5854496 -0.98229319 2.3862798 12878938
2.4864924 -1.5180894 3.687887 12878683
2.3125157 -1.391582 3.380563 12616027
2.3457468 -1.391582 3.380563 12485211
2.1959798 -1.2845373 3.1205199 12681820
1.8091568 -1.0436865 2.5354223 12485466
1.7261931 -0.98229319 2.3862798 12419417
1.8590034 -1.0436865 2.5354223 12616026
2.153059 -1.1927845 2.8976254 12287058
2.1815429 -1.1927845 2.8976254 12287576
2.2100267 -1.1927845 2.8976254 12221783
2.2385104 -1.1927845 2.8976254 12091223
2.1158612 -1.1132655 2.7044504 12156246
2.142446 -1.1132655 2.7044504 11695955
2.3239617 -1.1927845 2.8976254 11762001
2.3524456 -1.1927845 2.8976254 12155476
2.3809295 -1.1927845 2.8976254 11827797
2.2487855 -1.1132655 2.7044504 11629905
2.437897 -1.1927845 2.8976254 11761235
2.4663808 -1.1927845 2.8976254 11499860
2.3285403 -1.1132655 2.7044504 11302995
2.2079298 -1.0436865 2.5354223 11498836
2.2328532 -1.0436865 2.5354223 11433299
2.2577765 -1.0436865 2.5354223 11433298
2.2826998 -1.0436865 2.5354223 11563859
2.4614646 -1.1132655 2.7044504 11367255
2.4880495 -1.1132655 2.7044504 11236691
2.5146344 -1.1132655 2.7044504 10974033
2.5412192 -1.1132655 2.7044504 11235922
2.5678041 -1.1132655 2.7044504 11170384
2.594389 -1.1132655 2.7044504 10972751
2.8081863 -1.1927845 2.8976254 10776912
3.0548756 -1.2845373 3.1205199 10776401
3.0855503 -1.2845373 3.1205199 11104083
3.1162252 -1.2845373 3.1205199 10907987
3.1469002 -1.2845373 3.1205199 10711124
2.9506052 -1.1927845 2.8976254 10710863
2.979089 -1.1927845 2.8976254 10645583
3.0075727 -1.1927845 2.8976254 10842194
3.0360565 -1.1927845 2.8976254 10644561
3.0645404 -1.1927845 2.8976254 10578509
3.093024 -1.1927845 2.8976254 10776913
2.9134073 -1.1132655 2.7044504 10973778
3.1499918 -1.1927845 2.8976254 11105364
3.4229739 -1.2845373 3.1205199 11498834
3.4536486 -1.2845373 3.1205199 11630676
3.7746835 -1.391582 3.380563 11696212
4.154089 -1.5180894 3.687887 11959383
4.190341 -1.5180894 3.687887 11893592
4.6492524 -1.6698985 4.0566759 12286808
4.262845 -1.5180894 3.687887 11893590
4.2990971 -1.5180894 3.687887 12025175
4.7688847 -1.6698985 4.0566759 12090455
5.3430686 -1.8554428 4.5074177 12287577
5.3873768 -1.8554428 4.5074177 12024660
4.0737634 -1.391582 3.380563 11959639
3.7910719 -1.2845373 3.1205199 12157019
4.1402254 -1.391582 3.380563 12222812
5.5646091 -1.8554428 4.5074177 12090453
0 0 0 11959637
0 0 0 12024922
0 0 0 12024664
0 0 0 12155992
0 0 0 12155996
0 0 0 12024410
0 0 0 11301712
0 0 0 11104588
0 0 0 11104332
0 0 0 11170127
0 0 0 11104335
0 0 0 11235920
0 0 0 11038540
0 0 0 11038540
-0.5113647 -0.18111345 0.45074174 10447175
-0.50693387 -0.18111345 0.45074174 10776653
-0.5025031 -0.18111345 0.45074174 10972490
-0.49807227 -0.18111345 0.45074174 10645324
-0.49364144 -0.18111345 0.45074174 10710348
-0.49470738 -0.18314844 0.45580626 10645067
-0.48477983 -0.18111345 0.45074174 10382411
-0.47507045 -0.17912319 0.44578853 10710093
-0.47068834 -0.17912319 0.44578853 10446920
-0.4714874 -0.18111345 0.45074174 10381382
-0.46705657 -0.18111345 0.45074174 10316618
-0.44770238 -0.17527109 0.43620169 10250827
-0.44341448 -0.17527109 0.43620169 9987907
-0.43912661 -0.17527109 0.43620169 10184774
-0.43483871 -0.17527109 0.43620169 10119241
-0.43523073 -0.17717621 0.440943 10119239
-0.43089622 -0.17717621 0.440943 10118469
-0.43604091 -0.18111345 0.45074174 10053447
-0.43161008 -0.18111345 0.45074174 9922374
-0.43197906 -0.18314844 0.45580626 9790276
-0.42749846 -0.18314844 0.45580626 9790792
-0.42301786 -0.18314844 0.45580626 9724741
-0.41853726 -0.18314844 0.45580626 9855299
-0.41405666 -0.18314844 0.45580626 9659203
-0.40957606 -0.18314844 0.45580626 9856069
-0.40509546 -0.18314844 0.45580626 9855297
-0.38755134 -0.17717621 0.440943 9659462
-0.38321686 -0.17717621 0.440943 9462339
-0.37888235 -0.17717621 0.440943 9593156
-0.37454787 -0.17717621 0.440943 9462340
-0.37021339 -0.17717621 0.440943 9462594
-0.36587888 -0.17717621 0.440943 9396291
-0.3615444 -0.17717621 0.440943 9395264
-0.35720992 -0.17717621 0.440943 9460800
-0.35287541 -0.17717621 0.440943 9592386
-0.34854093 -0.17717621 0.440943 9264962
-0.3405053 -0.17527109 0.43620169 9330756
-0.33621743 -0.17527109 0.43620169 9395777
-0.33192953 -0.17527109 0.43620169 9263680
-0.33484256 -0.17912319 0.44578853 9264448
-0.33046046 -0.17912319 0.44578853 9198400
-0.32970142 -0.18111345 0.45074174 8738621
-0.32892534 -0.18314844 0.45580626 8476476
-0.32813162 -0.18522967 0.46098587 8803129
-0.32360011 -0.18522967 0.46098587 8015413
-0.30191436 -0.17527109 0.43620169 5451811
-0.28535324 -0.16804342 0.41821399 6569267
-0.27837235 -0.16632868 0.41394651 5452074
-0.27430323 -0.16632868 0.41394651 4728351
-0.26750448 -0.16464859 0.40976521 3939613
-0.26347646 -0.16464859 0.40976521 3414297
-0.25944847 -0.16464859 0.40976521 3545111
-0.25542045 -0.16464859 0.40976521 3676697
-0.25139242 -0.16464859 0.40976521 3413528
-0.24736443 -0.16464859 0.40976521 3413528
-0.24333642 -0.16464859 0.40976521 2691090
-0.2393084 -0.16464859 0.40976521 2099727
-0.23528039 -0.16464859 0.40976521 1706254
-0.23361212 -0.16632868 0.41394651 1837325
-0.229543 -0.16632868 0.41394651 1968911
-0.2254739 -0.16632868 0.41394651 1639946
-0.22140478 -0.16632868 0.41394651 1443080
-0.21957624 -0.16804342 0.41821399 1377289
-0.21546517 -0.16804342 0.41821399 1114631
-0.21135411 -0.16804342 0.41821399 1443083
-0.20940182 -0.16979386 0.42257038 1705226
-0.20524794 -0.16979386 0.42257038 1837069
-0.20321083 -0.17158116 0.42701849 1902348
-0.20113038 -0.1734065 0.43156123 2361870
-0.19688812 -0.1734065 0.43156123 2953233
-0.19471732 -0.17527109 0.43620169 3281680
-0.19249931 -0.17717621 0.440943 3346962
-0.18816483 -0.17717621 0.440943 3872790
-0.18585044 -0.17912319 0.44578853 4135447
-0.18348464 -0.18111345 0.45074174 4201240
-0.17905383 -0.18111345 0.45074174 4201238
-0.17859173 -0.18522967 0.46098587 3478803
-0.17606091 -0.18735875 0.46628457 1836553
-0.17551208 -0.19176719 0.47725597 1312267
-0.17082062 -0.19176719 0.47725597 918536
-0.16612917 -0.19176719 0.47725597 983559
-0.1633596 -0.19405013 0.48293757 917512
-0.1586123 -0.19405013 0.48293757 852488
-0.1557188 -0.1963881 0.48875612 1443596
-0.15464059 -0.20123717 0.50082415 3479065
-0.14971747 -0.20123717 0.50082415 4265233
-0.14846002 -0.20633179 0.51350325 4658965
-0.14525089 -0.20897707 0.52008665 2230284
-0.14382626 -0.21447647 0.53377312 9724483
-0.15957609 -0.24697289 0.61464781 9987137
0 0 0 9855554
0 0 0 9855554
0 0 0 9986883
0 0 0 9790276
0 0 0 10052163
0 0 0 9921860
0 0 0 10184262
0 0 0 9856321
0 0 0 9986883
0 0 0 10118471
0 0 0 10118469
-0.14366865 -0.4075053 1.014169 10184004
-0.16205977 -0.49394578 1.2292956 10118467
-0.15466249 -0.50938159 1.2677112 10052674
-0.16251524 -0.5821504 1.4488127 10184002
-0.18050668 -0.70870483 1.763772 10117956
0 0 0 10380357
0 0 0 10249024
0 0 0 10118469
0 0 0 9855297
0 0 0 10052928
-0.11726769 -1.0866807 2.7044504 9790274
-0.090682819 -1.0866807 2.7044504 9593667
-0.073959179 -1.2538624 3.1205199 9986370
-0.046891354 -1.3583509 3.380563 9592897
-0.01366027 -1.3583509 3.380563 9789248
0.019570816 -1.3583509 3.380563 9592127
0.052801903 -1.3583509 3.380563 9198653
0.086032987 -1.3583509 3.380563 9132351
0.14311691 -1.6300212 4.0566759 9198655
0.15249516 -1.3583509 3.380563 9526850
0.17143962 -1.2538624 3.1205199 9724483
0.20211448 -1.2538624 3.1205199 9592641
0.23278932 -1.2538624 3.1205199 9723969
0.26346418 -1.2538624 3.1205199 9724738
0.29413903 -1.2538624 3.1205199 9789504
0.32481387 -1.2538624 3.1205199 9725253
0.28883457 -1.0187632 2.5354223 9855815
0.38616356 -1.2538624 3.1205199 10184262
0.41683844 -1.2538624 3.1205199 10184002
0.44751328 -1.2538624 3.1205199 10381382
0.47818813 -1.2538624 3.1205199 10381640
0.50886297 -1.2538624 3.1205199 10512452
0.53953785 -1.2538624 3.1205199 10512966
0.57021266 -1.2538624 3.1205199 10709574
0.52076918 -1.0866807 2.7044504 10645067
0.54735404 -1.0866807 2.7044504 10973005
0.47828245 -0.90556735 2.2537088 11104078
0.50043648 -0.90556735 2.2537088 11235917
0.49508578 -0.85790586 2.1350925 11433297
0.54474461 -0.90556735 2.2537088 11301707
0.5668987 -0.90556735 2.2537088 11367503
0.62370288 -0.95883596 2.3862798 11367762
0.64716011 -0.95883596 2.3862798 11695953
0.76003295 -1.0866807 2.7044504 11958610
0.78661782 -1.0866807 2.7044504 12155474
0.7175318 -0.95883596 2.3862798 12352851
0.69982302 -0.90556735 2.2537088 12615512
0.92825621 -1.1643008 2.8976254 12353623
1.0303354 -1.2538624 3.1205199 12616023
1.0610102 -1.2538624 3.1205199 12617048
1.0916852 -1.2538624 3.1205199 12747606
1.0421914 -1.1643008 2.8976254 13272925
0.93684077 -1.0187632 2.5354223 13404251
0.90518975 -0.95883596 2.3862798 13404253
0.92864698 -0.95883596 2.3862798 13338717
1.0116107 -1.0187632 2.5354223 13470301
1.2757342 -1.2538624 3.1205199 13863776
1.3064091 -1.2538624 3.1205199 13404763
1.3370839 -1.2538624 3.1205199 13733727
1.2700616 -1.1643008 2.8976254 13930849
1.2119757 -1.0866807 2.7044504 13865054
1.2385606 -1.0866807 2.7044504 13930847
1.1163049 -0.95883596 2.3862798 13865313
1.2109972 -1.0187632 2.5354223 13865313
1.2359205 -1.0187632 2.5354223 13996642
1.3449001 -1.0866807 2.7044504 14259042
1.371485 -1.0866807 2.7044504 14060893
1.497932 -1.1643008 2.8976254 13865057
1.5264157 -1.1643008 2.8976254 13930595
1.5548996 -1.1643008 2.8976254 14126944
1.7051822 -1.2538624 3.1205199 14060897
1.735857 -1.2538624 3.1205199 13799009
1.7665318 -1.2538624 3.1205199 13799520
1.7972068 -1.2538624 3.1205199 13667934
1.9802049 -1.3583509 3.380563 13536609
2.0134361 -1.3583509 3.380563 13536353
2.7288897 -1.8111347 4.5074177 13536354
2.7731977 -1.8111347 4.5074177 13338463
2.8175058 -1.8111347 4.5074177 13405023
2.861814 -1.8111347 4.5074177 13404510
2.9061222 -1.8111347 4.5074177 13075802
1.5619924 -0.95883596 2.3862798 13338463
2.4502404 -1.4818374 3.687887 12878682
2.7351418 -1.6300212 4.0566759 12812891
2.7750192 -1.6300212 4.0566759 12681560
2.3457468 -1.3583509 3.380563 12813662
2.1959798 -1.2538624 3.1205199 12551002
2.2266545 -1.2538624 3.1205199 12813404
1.8340801 -1.0187632 2.5354223 12681562
2.1245754 -1.1643008 2.8976254 12616281
2.153059 -1.1643008 2.8976254 12616795
2.349354 -1.2538624 3.1205199 12484184
2.380029 -1.2538624 3.1205199 12222039
2.4107037 -1.2538624 3.1205199 12222809
2.4413786 -1.2538624 3.1205199 11893845
2.142446 -1.0866807 2.7044504 12156244
2.3239617 -1.1643008 2.8976254 12090453
2.3524456 -1.1643008 2.8976254 12089686
2.3809295 -1.1643008 2.8976254 11630677
2.4094131 -1.1643008 2.8976254 12024406
2.437897 -1.1643008 2.8976254 11696468
2.4663808 -1.1643008 2.8976254 11762004
2.4948645 -1.1643008 2.8976254 11499603
2.3551252 -1.0866807 2.7044504 11498834
2.2328532 -1.0187632 2.5354223 11564884
2.2577765 -1.0187632 2.5354223 11433298
2.2826998 -1.0187632 2.5354223 11236176
2.4614646 -1.0866807 2.7044504 11171412
2.4880495 -1.0866807 2.7044504 11106129
2.5146344 -1.0866807 2.7044504 11367763
2.5412192 -1.0866807 2.7044504 11104335
2.5678041 -1.0866807 2.7044504 11104593
2.594389 -1.0866807 2.7044504 10973519
2.8081863 -1.1643008 2.8976254 11235662
3.0548756 -1.2538624 3.1205199 11039058
3.0855503 -1.2538624 3.1205199 10907472
2.8936377 -1.1643008 2.8976254 11038542
3.1469002 -1.2538624 3.1205199 11039569
2.9506052 -1.1643008 2.8976254 11039058
2.979089 -1.1643008 2.8976254 10776399
2.8070679 -1.0866807 2.7044504 10710608
3.0360565 -1.1643008 2.8976254 10710866
3.0645404 -1.1643008 2.8976254 10711121
3.093024 -1.1643008 2.8976254 10907986
3.1215079 -1.1643008 2.8976254 10973521
3.1499918 -1.1643008 2.8976254 11039313
3.4229739 -1.2538624 3.1205199 11762008
3.4536486 -1.2538624 3.1205199 11761236
3.7746835 -1.3583509 3.380563 11696211
4.154089 -1.4818374 3.687887 11959383
5.1215281 -1.8111347 4.5074177 12090455
5.1658363 -1.8111347 4.5074177 12024919
4.6891298 -1.6300212 4.0566759 12025176
4.7290072 -1.6300212 4.0566759 11959640
5.2987604 -1.8111347 4.5074177 12090199
5.3430686 -1.8111347 4.5074177 11828313
5.3873768 -1.8111347 4.5074177 11828314
3.7603972 -1.2538624 3.1205199 12287837
3.7910719 -1.2538624 3.1205199 12484443
5.5203009 -1.8111347 4.5074177 12287062
5.5646091 -1.8111347 4.5074177 12025691
0 0 0 11959900
0 0 0 11894621
0 0 0 11697242
0 0 0 11827801
0 0 0 11893593
0 0 0 11630935
0 0 0 10974030
0 0 0 11236172
0 0 0 11367502
0 0 0 11301711
0 0 0 11235919
0 0 0 11235919
0 0 0 11235660
0 0 0 10907724
-0.5113647 -0.17668264 0.45074174 10973515
-0.50693387 -0.17668264 0.45074174 10907724
-0.5025031 -0.17668264 0.45074174 10776140
-0.49807227 -0.17668264 0.45074174 10776138
-0.49364144 -0.17668264 0.45074174 11038540
-0.49470738 -0.17866784 0.45580626 10776908
-0.48477983 -0.17668264 0.45074174 10579787
-0.46990663 -0.17284171 0.440943 10645322
-0.46557215 -0.17284171 0.440943 10645066
-0.46123767 -0.17284171 0.440943 10710858
-0.45690316 -0.17284171 0.440943 10513223
-0.44770238 -0.17098321 0.43620169 10447946
-0.44341448 -0.17098321 0.43620169 10447688
-0.43912661 -0.17098321 0.43620169 10513481
-0.43956521 -0.17284171 0.440943 10250825
-0.43523073 -0.17284171 0.440943 10053448
-0.43089622 -0.17284171 0.440943 10250570
-0.43124923 -0.17474107 0.44578853 10185032
-0.42686713 -0.17474107 0.44578853 10119239
-0.42717928 -0.17668264 0.45074174 10118726
-0.42274848 -0.17668264 0.45074174 10381128
-0.42301786 -0.17866784 0.45580626 9724483
-0.41388685 -0.17668264 0.45074174 9987139
-0.40945604 -0.17668264 0.45074174 9724481
-0.40957606 -0.17866784 0.45580626 9921858
-0.40509546 -0.17866784 0.45580626 9987653
-0.38755134 -0.17284171 0.440943 9659460
-0.38321686 -0.17284171 0.440943 9659206
-0.37888235 -0.17284171 0.440943 9921860
-0.37454787 -0.17284171 0.440943 9724227
-0.37021339 -0.17284171 0.440943 9855811
-0.36587888 -0.17284171 0.440943 9658688
-0.3615444 -0.17284171 0.440943 9855299
-0.35720992 -0.17284171 0.440943 9658433
-0.35287541 -0.17284171 0.440943 9593412
-0.34854093 -0.17284171 0.440943 9264961
-0.3405053 -0.17098321 0.43620169 9658690
-0.33987194 -0.17284171 0.440943 9658436
-0.3392247 -0.17474107 0.44578853 9592898
-0.33484256 -0.17474107 0.44578853 9067841
-0.33046046 -0.17474107 0.44578853 9265477
-0.32970142 -0.17668264 0.45074174 9461057
-0.32527062 -0.17668264 0.45074174 9527620
-0.32444474 -0.17866784 0.45580626 9263936
-0.31640899 -0.17668264 0.45074174 8672314
-0.30191436 -0.17098321 0.43620169 7095341
-0.29136068 -0.16738355 0.42701849 5647391
-0.28124216 -0.16393235 0.41821399 3348242
-0.27713111 -0.16393235 0.41821399 2625294
-0.27302006 -0.16393235 0.41821399 2428172
-0.26616502 -0.16225958 0.41394651 2166290
-0.2620959 -0.16225958 0.41394651 2822932
-0.25542045 -0.16062059 0.40976521 3217177
-0.25139242 -0.16062059 0.40976521 3349017
-0.24736443 -0.16062059 0.40976521 3281943
-0.24333642 -0.16062059 0.40976521 3150868
-0.2393084 -0.16062059 0.40976521 2625552
-0.23768122 -0.16225958 0.41394651 2296848
-0.23361212 -0.16225958 0.41394651 2231311
-0.23190942 -0.16393235 0.41821399 2098955
-0.22779836 -0.16393235 0.41821399 1639948
-0.22368729 -0.16393235 0.41821399 1180680
-0.21957624 -0.16393235 0.41821399 983818
-0.21546517 -0.16393235 0.41821399 852232
-0.21135411 -0.16393235 0.41821399 1049095
-0.20940182 -0.16563998 0.42257038 1509646
-0.20524794 -0.16563998 0.42257038 1509646
-0.20321083 -0.16738355 0.42701849 1574155
-0.20113038 -0.16916423 0.43156123 1968397
-0.19688812 -0.16916423 0.43156123 1968141
-0.19471732 -0.17098321 0.43620169 2230541
-0.19249931 -0.17284171 0.440943 2887697
-0.19023257 -0.17474107 0.44578853 3216148
-0.18791546 -0.17668264 0.45074174 3872533
-0.18348464 -0.17668264 0.45074174 4135447
-0.18106568 -0.17866784 0.45580626 4201240
-0.17859173 -0.18069816 0.46098587 4332312
-0.17606091 -0.18277515 0.46628457 2756882
-0.17551208 -0.18707575 0.47725597 1574669
-0.1728542 -0.18930283 0.48293757 1312267
-0.17013229 -0.19158359 0.48875612 852489
-0.1653278 -0.19158359 0.48875612 786696
-0.1605233 -0.19158359 0.48875612 983305
-0.15761781 -0.19391997 0.49471655 2099727
-0.15275472 -0.19391997 0.49471655 2493199
-0.14971747 -0.19631405 0.50082415 3149587
-0.14846002 -0.20128402 0.51350325 2951438
-0.14341226 -0.20128402 0.51350325 4397847
-0.14195837 -0.20651218 0.52684098 8409405
-0.15957609 -0.24093087 0.61464781 9659200
0 0 0 10053186
0 0 0 10380612
0 0 0 10118210
0 0 0 10118723
0 0 0 10052930
0 0 0 10250309
0 0 0 10184262
0 0 0 10184004
0 0 0 10183493
0 0 0 10249798
-0.16172418 -0.41845891 1.0675462 10052675
-0.15123016 -0.41845891 1.0675462 10249029
-0.16712415 -0.49691993 1.2677112 10250052
-0.15466249 -0.49691993 1.2677112 10184262
-0.19784464 -0.69136685 1.763772 10118210
0 0 0 10184003
0 0 0 10118721
0 0 0 10249026
0 0 0 10118210
0 0 0 10052930
-0.16598374 -1.2231876 3.1205199 9790276
-0.12564395 -1.1358169 2.8976254 9855297
-0.10463403 -1.2231876 3.1205199 9789504
-0.080122441 -1.3251199 3.380563 9264700
-0.051154207 -1.4455853 3.687887 9198654
-0.014902112 -1.4455853 3.687887 9263422
0.023484983 -1.5901439 4.0566759 9067069
0.057602078 -1.4455853 3.687887 9460798
0.086032987 -1.3251199 3.380563 9395520
0.11926407 -1.3251199 3.380563 9526848
0.14076477 -1.2231876 3.1205199 9593667
0.17143962 -1.2231876 3.1205199 9723713
0.20211448 -1.2231876 3.1205199 9855812
0.23278932 -1.2231876 3.1205199 9921351
0.28541949 -1.3251199 3.380563 9855812
0.3186506 -1.3251199 3.380563 10184262
0.32481387 -1.2231876 3.1205199 10119493
0.33009666 -1.1358169 2.8976254 10315848
0.35858044 -1.1358169 2.8976254 10447434
0.41683844 -1.2231876 3.1205199 10447686
0.48480603 -1.3251199 3.380563 10579274
0.51803714 -1.3251199 3.380563 10840906
0.50886297 -1.2231876 3.1205199 10841159
0.53953785 -1.2231876 3.1205199 10841673
0.57021266 -1.2231876 3.1205199 11103306
0.60088754 -1.2231876 3.1205199 11235660
0.63156235 -1.2231876 3.1205199 11235917
0.66223723 -1.2231876 3.1205199 11170379
0.6929121 -1.2231876 3.1205199 11498828
0.67190212 -1.1358169 2.8976254 11695438
0.54474461 -0.88341326 2.2537088 11893074
0.5668987 -0.88341326 2.2537088 11958867
0.58905274 -0.88341326 2.2537088 11631699
0.78583729 -1.1358169 2.8976254 12220754
0.87696117 -1.2231876 3.1205199 12090452
0.78661782 -1.0600958 2.7044504 12484436
0.7175318 -0.93537873 2.3862798 12484435
0.74098909 -0.93537873 2.3862798 12681557
0.92825621 -1.1358169 2.8976254 12682586
1.0303354 -1.2231876 3.1205199 12813143
1.0610102 -1.2231876 3.1205199 13010520
1.0137075 -1.1358169 2.8976254 13011291
1.0421914 -1.1358169 2.8976254 13470298
0.88173252 -0.93537873 2.3862798 13404252
0.90518975 -0.93537873 2.3862798 13601630
0.92864698 -0.93537873 2.3862798 13536094
0.95210421 -0.93537873 2.3862798 13733471
1.2757342 -1.2231876 3.1205199 13799009
1.3064091 -1.2231876 3.1205199 13537377
1.3370839 -1.2231876 3.1205199 13996127
1.3677588 -1.2231876 3.1205199 14127458
1.3984337 -1.2231876 3.1205199 13996125
1.3270292 -1.1358169 2.8976254 14259042
1.2651454 -1.0600958 2.7044504 14194019
1.1397622 -0.93537873 2.3862798 13865056
1.2359205 -0.99383986 2.5354223 14126945
1.2608439 -0.99383986 2.5354223 14193507
1.2857672 -0.99383986 2.5354223 14324320
1.497932 -1.1358169 2.8976254 14061923
1.5264157 -1.1358169 2.8976254 14324067
1.6745073 -1.2231876 3.1205199 14191966
1.7051822 -1.2231876 3.1205199 14390116
1.8805116 -1.3251199 3.380563 13799265
1.9137428 -1.3251199 3.380563 13865058
1.9469738 -1.3251199 3.380563 13799520
1.9802049 -1.3251199 3.380563 13930336
2.0134361 -1.3251199 3.380563 13667680
2.7288897 -1.7668265 4.5074177 13667168
2.7731977 -1.7668265 4.5074177 13733216
2.8175058 -1.7668265 4.5074177 13601118
2.861814 -1.7668265 4.5074177 13535839
2.9061222 -1.7668265 4.5074177 13338717
2.4139881 -1.4455853 3.687887 13338717
2.4502404 -1.4455853 3.687887 13404254
2.4864924 -1.4455853 3.687887 12944477
2.5227444 -1.4455853 3.687887 13142367
2.3457468 -1.3251199 3.380563 13010270
2.1959798 -1.2231876 3.1205199 12747864
2.2266545 -1.2231876 3.1205199 12616281
2.2573295 -1.2231876 3.1205199 12551004
2.2880044 -1.2231876 3.1205199 12354395
2.3186791 -1.2231876 3.1205199 12484439
2.349354 -1.2231876 3.1205199 12222296
2.380029 -1.2231876 3.1205199 12157273
2.4107037 -1.2231876 3.1205199 12156759
2.4413786 -1.2231876 3.1205199 11696722
2.4720535 -1.2231876 3.1205199 11893590
2.5027282 -1.2231876 3.1205199 11959637
2.3524456 -1.1358169 2.8976254 11828055
2.3809295 -1.1358169 2.8976254 11696472
2.4094131 -1.1358169 2.8976254 11762263
2.437897 -1.1358169 2.8976254 11630163
2.4663808 -1.1358169 2.8976254 11892820
2.4948645 -1.1358169 2.8976254 11695955
2.3551252 -1.0600958 2.7044504 11498832
2.3817101 -1.0600958 2.7044504 11433811
2.2577765 -0.99383986 2.5354223 11498577
2.4348798 -1.0600958 2.7044504 11565141
2.4614646 -1.0600958 2.7044504 11237200
2.4880495 -1.0600958 2.7044504 11236690
2.5146344 -1.0600958 2.7044504 11170643
2.7227349 -1.1358169 2.8976254 10908500
2.7512186 -1.1358169 2.8976254 10974548
2.7797024 -1.1358169 2.8976254 11104851
2.8081863 -1.1358169 2.8976254 11169871
2.6475587 -1.0600958 2.7044504 11170385
2.6741436 -1.0600958 2.7044504 11105104
2.8936377 -1.1358169 2.8976254 10841936
2.9221213 -1.1358169 2.8976254 10776144
2.9506052 -1.1358169 2.8976254 10973522
2.979089 -1.1358169 2.8976254 10775885
2.8070679 -1.0600958 2.7044504 11039311
3.0360565 -1.1358169 2.8976254 10973261
3.0645404 -1.1358169 2.8976254 10907470
3.093024 -1.1358169 2.8976254 10711121
3.1215079 -1.1358169 2.8976254 10907985
3.1499918 -1.1358169 2.8976254 11039570
3.4229739 -1.2231876 3.1205199 11367763
3.4536486 -1.2231876 3.1205199 11366994
3.7746835 -1.3251199 3.380563 11696727
4.154089 -1.4455853 3.687887 11959640
5.1215281 -1.7668265 4.5074177 12155992
5.1658363 -1.7668265 4.5074177 12090199
5.210144 -1.7668265 4.5074177 11827798
5.2544522 -1.7668265 4.5074177 12222299
5.2987604 -1.7668265 4.5074177 12155992
5.3430686 -1.7668265 4.5074177 12025178
4.4078536 -1.4455853 3.687887 11959644
4.0737634 -1.3251199 3.380563 12024407
3.7910719 -1.2231876 3.1205199 11959641
5.5203009 -1.7668265 4.5074177 11960156
5.5646091 -1.7668265 4.5074177 11959901
0 0 0 11763548
0 0 0 11763548
0 0 0 11565655
0 0 0 11566167
0 0 0 11697499
0 0 0 11499866
0 0 0 11564625
0 0 0 11368016
0 0 0 11236945
0 0 0 11302480
0 0 0 11368273
0 0 0 11367503
0 0 0 11301710
0 0 0 11038540
-0.51711035 -0.17418724 0.45580626 11367246
-0.50693387 -0.17225184 0.45074174 11170126
-0.5025031 -0.17225184 0.45074174 11170896
-0.49807227 -0.17225184 0.45074174 11104590
-0.49364144 -0.17225184 0.45074174 11104590
-0.48921064 -0.17225184 0.45074174 11039053
-0.48477983 -0.17225184 0.45074174 10973774
-0.46990663 -0.16850722 0.440943 10842444
-0.46557215 -0.16850722 0.440943 10776395
-0.45627815 -0.16669533 0.43620169 10906956
-0.45199025 -0.16669533 0.43620169 10841676
-0.44770238 -0.16669533 0.43620169 10645582
-0.44341448 -0.16669533 0.43620169 10579532
-0.44389969 -0.16850722 0.440943 10645069
-0.43956521 -0.16850722 0.440943 10513481
-0.43523073 -0.16850722 0.440943 10448204
-0.42626294 -0.16669533 0.43620169 10644298
-0.42656174 -0.16850722 0.440943 10315335
-0.42222726 -0.16850722 0.440943 10315847
-0.42248499 -0.17035896 0.44578853 10447175
-0.42274848 -0.17225184 0.45074174 10381382
-0.41831765 -0.17225184 0.45074174 10316102
-0.41388685 -0.17225184 0.45074174 10118727
-0.40945604 -0.17225184 0.45074174 10053446
-0.40502521 -0.17225184 0.45074174 10119495
-0.40059441 -0.17225184 0.45074174 10053959
-0.38755134 -0.16850722 0.440943 10184521
-0.38321686 -0.16850722 0.440943 9921607
-0.37888235 -0.16850722 0.440943 10052678
-0.37454787 -0.16850722 0.440943 9921092
-0.37021339 -0.16850722 0.440943 9987655
-0.36587888 -0.16850722 0.440943 10052934
-0.36551741 -0.17035896 0.44578853 9855298
0 0 0 9921092
0 0 0 9986370
-0.34854093 -0.16850722 0.440943 9856582
-0.34420645 -0.16850722 0.440943 9987398
-0.34360683 -0.17035896 0.44578853 9986883
-0.3392247 -0.17035896 0.44578853 9856067
-0.33484256 -0.17035896 0.44578853 9921860
-0.33046046 -0.17035896 0.44578853 9724740
-0.32607833 -0.17035896 0.44578853 9724483
-0.32169622 -0.17035896 0.44578853 9527877
-0.32083979 -0.17225184 0.45074174 9396034
-0.31640899 -0.17225184 0.45074174 9394748
-0.30519605 -0.16850722 0.440943 7423021
-0.29136068 -0.16318594 0.42701849 2558985
-0.28417176 -0.16148609 0.42257038 1639688
-0.28001788 -0.16148609 0.42257038 1378060
-0.27586401 -0.16148609 0.42257038 1378060
-0.26890898 -0.15982129 0.41821399 1443852
-0.26479793 -0.15982129 0.41821399 1837582
-0.25802678 -0.15819046 0.41394651 2626070
-0.25139242 -0.15659258 0.40976521 3349019
-0.24736443 -0.15659258 0.40976521 3676697
-0.24333642 -0.15659258 0.40976521 3479318
-0.24175034 -0.15819046 0.41394651 3150612
-0.24013154 -0.15982129 0.41821399 2887698
-0.23602049 -0.15982129 0.41821399 2296589
-0.23190942 -0.15982129 0.41821399 1770762
-0.22779836 -0.15982129 0.41821399 1508618
-0.22368729 -0.15982129 0.41821399 1114888
-0.21957624 -0.15982129 0.41821399 1114888
-0.2177096 -0.16148609 0.42257038 1312013
-0.21355571 -0.16148609 0.42257038 786696
-0.21160606 -0.16318594 0.42701849 2100755
-0.20740844 -0.16318594 0.42701849 3020311
-0.20321083 -0.16318594 0.42701849 2560790
-0.19901322 -0.16318594 0.42701849 1574668
-0.19688812 -0.16492197 0.43156123 1574668
-0.19471732 -0.16669533 0.43620169 1968140
-0.19249931 -0.16850722 0.440943 2493711
-0.19234626 -0.17225184 0.45074174 3019026
-0.18791546 -0.17225184 0.45074174 3675927
-0.18348464 -0.17225184 0.45074174 4201238
-0.18106568 -0.17418724 0.45580626 4332053
-0.17658508 -0.17418724 0.45580626 4398105
-0.17606091 -0.17819156 0.46628457 3544595
-0.17347123 -0.18026355 0.47170648 1705482
-0.17082062 -0.1823843 0.47725597 1443595
-0.17013229 -0.1867791 0.48875612 1114888
-0.1653278 -0.1867791 0.48875612 786696
-0.1605233 -0.1867791 0.48875612 852487
-0.1557188 -0.1867791 0.48875612 1180681
-0.15275472 -0.18905689 0.49471655 1771532
-0.14971747 -0.19139092 0.50082415 4528409
-0.14660427 -0.19378333 0.50708449 3477010
-0.14341226 -0.19623627 0.51350325 3410445
-0.1401384 -0.19875212 0.52008665 7357751
-0.14042696 -0.2067022 0.5408901 9987650
0 0 0 10250052
0 0 0 10118210
0 0 0 10183233
0 0 0 10248772
0 0 0 9921090
0 0 0 9921344
0 0 0 10250052
0 0 0 10315075
0 0 0 10183491
0 0 0 10446661
-0.16172418 -0.40796489 1.0675462 10184003
-0.17414381 -0.4697777 1.2292956 10446148
-0.16712415 -0.48445827 1.2677112 10316100
0 0 0 10184003
0 0 0 10250307
0 0 0 10118723
0 0 0 10184516
0 0 0 10052930
0 0 0 9921344
-0.28406242 -1.7225184 4.5074177 9986624
-0.16598374 -1.1925128 3.1205199 9920577
-0.12564395 -1.1073332 2.8976254 9592127
-0.10463403 -1.1925128 3.1205199 9264702
-0.080122441 -1.2918887 3.380563 9329471
-0.051154207 -1.4093331 3.687887 9526334
-0.014902112 -1.4093331 3.687887 9790275
0.023484983 -1.5502666 4.0566759 9723713
0.052801903 -1.2918887 3.380563 9855298
0.079415068 -1.1925128 3.1205199 9986881
0.11008992 -1.1925128 3.1205199 9987140
0.14076477 -1.1925128 3.1205199 10183748
0.17143962 -1.1925128 3.1205199 10118724
0.20211448 -1.1925128 3.1205199 10446406
0.23278932 -1.1925128 3.1205199 10315335
0.28541949 -1.2918887 3.380563 10250311
0.3186506 -1.2918887 3.380563 10577989
0.35188168 -1.2918887 3.380563 10579274
0.33009666 -1.1073332 2.8976254 10644811
0.35858044 -1.1073332 2.8976254 10709575
0.41683844 -1.1925128 3.1205199 10972747
0.44751328 -1.1925128 3.1205199 10906697
0.47818813 -1.1925128 3.1205199 11104331
0.50886297 -1.1925128 3.1205199 11038283
0.53953785 -1.1925128 3.1205199 11038542
0.57021266 -1.1925128 3.1205199 11169867
0.60088754 -1.1925128 3.1205199 11170894
0.63156235 -1.1925128 3.1205199 11170124
0.66223723 -1.1925128 3.1205199 11498572
0.6929121 -1.1925128 3.1205199 11630416
0.72358692 -1.1925128 3.1205199 12089425
0.70038593 -1.1073332 2.8976254 11762258
0.60024565 -0.91192144 2.3862798 12024660
0.75735348 -1.1073332 2.8976254 12155474
0.78583729 -1.1073332 2.8976254 12352851
0.76003295 -1.0335109 2.7044504 12418131
0.78661782 -1.0335109 2.7044504 12812630
0.81320274 -1.0335109 2.7044504 12747093
0.96898574 -1.1925128 3.1205199 12813399
0.99966061 -1.1925128 3.1205199 13207129
1.0303354 -1.1925128 3.1205199 13207129
0.98522377 -1.1073332 2.8976254 13404251
0.88699412 -0.96891654 2.5354223 13667680
0.97271192 -1.0335109 2.7044504 13667167
0.93684077 -0.96891654 2.5354223 13733216
0.90518975 -0.91192144 2.3862798 13864287
0.92864698 -0.91192144 2.3862798 13930079
1.2450594 -1.1925128 3.1205199 13865056
1.2757342 -1.1925128 3.1205199 14128226
1.3064091 -1.1925128 3.1205199 13996640
1.158806 -1.0335109 2.7044504 14061665
1.3677588 -1.1925128 3.1205199 14193762
1.3984337 -1.1925128 3.1205199 14259298
1.3270292 -1.1073332 2.8976254 14521442
1.2651454 -1.0335109 2.7044504 14390116
1.2109972 -0.96891654 2.5354223 14456423
1.2359205 -0.96891654 2.5354223 14455651
1.3449001 -1.0335109 2.7044504 14324835
1.371485 -1.0335109 2.7044504 14389858
1.497932 -1.1073332 2.8976254 14193250
1.5264157 -1.1073332 2.8976254 14587496
1.6745073 -1.1925128 3.1205199 14455651
1.7051822 -1.1925128 3.1205199 13996385
1.735857 -1.1925128 3.1205199 13733727
1.9137428 -1.2918887 3.380563 13865314
1.9469738 -1.2918887 3.380563 13930595
1.9802049 -1.2918887 3.380563 13930079
2.0134361 -1.2918887 3.380563 13865056
2.0466671 -1.2918887 3.380563 13601630
2.7731977 -1.7225184 4.5074177 13733216
2.8175058 -1.7225184 4.5074177 13405022
2.1463604 -1.2918887 3.380563 13733727
2.0119307 -1.1925128 3.1205199 13404508
1.5619924 -0.91192144 2.3862798 13207899
2.4502404 -1.4093331 3.687887 13272924
2.2792847 -1.2918887 3.380563 13272924
2.3125157 -1.2918887 3.380563 13206877
2.3457468 -1.2918887 3.380563 13140827
2.378978 -1.2918887 3.380563 13010268
2.2266545 -1.1925128 3.1205199 12814173
2.2573295 -1.1925128 3.1205199 12616539
2.2880044 -1.1925128 3.1205199 12616795
2.3186791 -1.1925128 3.1205199 12419159
2.349354 -1.1925128 3.1205199 12025176
2.380029 -1.1925128 3.1205199 12222295
2.4107037 -1.1925128 3.1205199 12221782
2.4413786 -1.1925128 3.1205199 12157016
2.4720535 -1.1925128 3.1205199 11829078
2.5027282 -1.1925128 3.1205199 11762518
2.5334032 -1.1925128 3.1205199 11762004
2.5640779 -1.1925128 3.1205199 12024406
2.5947528 -1.1925128 3.1205199 11893590
2.437897 -1.1073332 2.8976254 11959126
2.4663808 -1.1073332 2.8976254 11564883
2.3285403 -1.0335109 2.7044504 11434327
2.3551252 -1.0335109 2.7044504 11564884
2.5518322 -1.1073332 2.8976254 11500122
2.5803158 -1.1073332 2.8976254 11367764
2.4348798 -1.0335109 2.7044504 11565142
2.4614646 -1.0335109 2.7044504 11237204
2.3325465 -0.96891654 2.5354223 11039825
2.3574698 -0.96891654 2.5354223 11301460
2.7227349 -1.1073332 2.8976254 11302482
2.7512186 -1.1073332 2.8976254 11105617
2.7797024 -1.1073332 2.8976254 10974293
3.0242007 -1.1925128 3.1205199 11104849
3.0548756 -1.1925128 3.1205199 11170127
2.8651538 -1.1073332 2.8976254 10972751
2.8936377 -1.1073332 2.8976254 10842195
3.1469002 -1.1925128 3.1205199 11236179
3.1775749 -1.1925128 3.1205199 10776399
2.979089 -1.1073332 2.8976254 10776399
3.0075727 -1.1073332 2.8976254 10841420
3.0360565 -1.1073332 2.8976254 11038802
3.0645404 -1.1073332 2.8976254 10907474
3.093024 -1.1073332 2.8976254 10842194
3.1215079 -1.1073332 2.8976254 10645837
3.3922989 -1.1925128 3.1205199 11040081
3.4229739 -1.1925128 3.1205199 11368276
3.7414525 -1.2918887 3.380563 11434070
5.0329118 -1.7225184 4.5074177 11434583
3.8079147 -1.2918887 3.380563 11959385
4.190341 -1.4093331 3.687887 12089687
4.226593 -1.4093331 3.687887 12221274
4.6891298 -1.5502666 4.0566759 12024666
4.7290072 -1.5502666 4.0566759 11959385
5.2987604 -1.7225184 4.5074177 12155994
4.8087616 -1.5502666 4.0566759 12155992
4.0405321 -1.2918887 3.380563 11960157
3.7603972 -1.1925128 3.1205199 12024406
3.7910719 -1.1925128 3.1205199 12222555
4.9682708 -1.5502666 4.0566759 11893592
6.2601852 -1.9378331 5.0708447 11631190
0 0 0 11959898
0 0 0 12156507
0 0 0 12025178
0 0 0 11630677
0 0 0 11760466
0 0 0 11761752
0 0 0 11761488
0 0 0 11761488
0 0 0 11564625
0 0 0 11433551
0 0 0 11236945
0 0 0 11302995
0 0 0 11564109
0 0 0 11367246
0 0 0 11170638
-0.51262975 -0.16970664 0.45580626 11367247
-0.5025031 -0.16782102 0.45074174 11498063
-0.49807227 -0.16782102 0.45074174 11366735
-0.49364144 -0.16782102 0.45074174 11169869
-0.48921064 -0.16782102 0.45074174 11169868
-0.48477983 -0.16782102 0.45074174 11039052
-0.46990663 -0.16417274 0.440943 11104333
-0.46056601 -0.16240744 0.43620169 11038540
-0.45627815 -0.16240744 0.43620169 10973517
-0.45199025 -0.16240744 0.43620169 10973519
-0.44770238 -0.16240744 0.43620169 10776394
-0.44341448 -0.16240744 0.43620169 10842446
-0.43912661 -0.16240744 0.43620169 10776653
-0.43483871 -0.16240744 0.43620169 10908239
-0.43055084 -0.16240744 0.43620169 10776910
-0.42626294 -0.16240744 0.43620169 10776140
-0.42197508 -0.16240744 0.43620169 10579272
-0.42222726 -0.16417274 0.440943 10513481
-0.42248499 -0.16597684 0.44578853 10316362
-0.42274848 -0.16782102 0.45074174 10316102
-0.41831765 -0.16782102 0.45074174 10447175
-0.41388685 -0.16782102 0.45074174 10251079
-0.40945604 -0.16782102 0.45074174 10447434
-0.40502521 -0.16782102 0.45074174 10513225
-0.40059441 -0.16782102 0.45074174 10315848
-0.39181015 -0.16597684 0.44578853 10184261
-0.38321686 -0.16417274 0.440943 10185029
-0.37888235 -0.16417274 0.440943 10250309
-0.37454787 -0.16417274 0.440943 10447689
-0.37021339 -0.16417274 0.440943 10577991
-0.36587888 -0.16417274 0.440943 10249799
-0.3615444 -0.16417274 0.440943 10118726
-0.35720992 -0.16417274 0.440943 9922632
-0.35287541 -0.16417274 0.440943 10053703
-0.34854093 -0.16417274 0.440943 10184775
-0.34420645 -0.16417274 0.440943 9856324
-0.34360683 -0.16597684 0.44578853 10184262
-0.33553746 -0.16417274 0.440943 10052676
-0.33484256 -0.16597684 0.44578853 9791301
-0.33046046 -0.16597684 0.44578853 9790789
-0.32607833 -0.16597684 0.44578853 9791046
-0.31819952 -0.16417274 0.440943 9790276
-0.31386501 -0.16417274 0.440943 9724485
-0.30953053 -0.16417274 0.440943 9985859
-0.30519605 -0.16417274 0.440943 6962209
-0.29446024 -0.1606797 0.43156123 2035217
-0.29021797 -0.1606797 0.43156123 1642259
-0.28296545 -0.15898834 0.42701849 1838867
-0.27876782 -0.15898834 0.42701849 1772561
-0.27457023 -0.15898834 0.42701849 1707025
-0.2703726 -0.15898834 0.42701849 1772047
-0.26340234 -0.15733221 0.42257038 2100497
-0.25657579 -0.15571022 0.41821399 2955804
-0.24988857 -0.15412135 0.41394651 3743517
-0.24581945 -0.15412135 0.41394651 3939099
-0.24175034 -0.15412135 0.41394651 3806997
-0.24013154 -0.15571022 0.41821399 3347734
-0.23602049 -0.15571022 0.41821399 2689804
-0.23432514 -0.15733221 0.42257038 2033934
-0.23017125 -0.15733221 0.42257038 1640460
-0.22601737 -0.15733221 0.42257038 1180681
