# .PCD v0.7 - Point Cloud Data file format
VERSION 0.7
FIELDS x y z rgb
SIZE 4 4 4 4
TYPE F F F U
COUNT 1 1 1 1
WIDTH 1295
HEIGHT 1
VIEWPOINT 0 0 0 1 0 0 0
POINTS 1295
DATA ascii
-0.11218277 0.1336415 0.587924 11220769
0 0 0 11482915
0 0 0 11417376
0 0 0 11417634
0 0 0 11352354
0 0 0 11614496
0 0 0 11548194
-0.10998221 0.20491697 0.90148348 11680034
-0.056178108 0.11384276 0.50082415 11745314
-0.051254984 0.11384276 0.50082415 11483169
-0.04633186 0.11384276 0.50082415 12007973
-0.083852693 0.2305316 1.014169 11548963
-0.079873905 0.24922334 1.0963988 11614497
-0.071015604 0.25614622 1.1268544 11877411
-0.059938572 0.25614622 1.1268544 11745568
-0.047540955 0.24922334 1.0963988 11745314
-0.038864069 0.26346469 1.1590502 11483939
-0.029135432 0.27943221 1.2292956 11811875
-0.01940332 0.3179746 1.3988537 12139811
0 0 0 11680289
0 0 0 11614755
0.019200692 0.27943221 1.2292956 11091238
0.031284723 0.27943221 1.2292956 10959650
0 0 0 10894373
0 0 0 11156259
0 0 0 11222054
0 0 0 11287332
0 0 0 11353640
0 0 0 11616297
0 0 0 12009254
0 0 0 12271397
0.35548872 0.709328 3.1205199 12402983
0.38616356 0.709328 3.1205199 12337190
0.41683844 0.709328 3.1205199 12403237
0.44751328 0.709328 3.1205199 12140324
0.4440318 0.65866166 2.8976254 12206119
0.55126822 0.76843864 3.380563 12534569
0.46759942 0.61475092 2.7044504 12141351
0.43604496 0.5424273 2.3862798 12206631
0.41113356 0.48532969 2.1350925 12272426
0.4321216 0.48532969 2.1350925 12403750
0.45310968 0.48532969 2.1350925 12469289
0.47409773 0.48532969 2.1350925 12403493
0.49508578 0.48532969 2.1350925 12403496
0.54474461 0.51229244 2.2537088 12534311
0.5668987 0.51229244 2.2537088 12206374
0.62370288 0.5424273 2.3862798 12600873
0.64716011 0.5424273 2.3862798 12665898
0.60002607 0.48532969 2.1350925 12534569
0.47197074 0.36885056 1.6226703 12469288
0.46915543 0.354664 1.5602599 12665639
0.48449287 0.354664 1.5602599 12601129
0.44812369 0.3179746 1.3988537 12535336
0.46187449 0.3179746 1.3988537 12666409
0.4597711 0.30737546 1.3522252 12469289
0.45780343 0.29746011 1.3086051 12534823
0.48635596 0.30737546 1.3522252 12403240
0.53533757 0.32933083 1.4488127 12469545
0.59185487 0.354664 1.5602599 12534570
0.60719228 0.354664 1.5602599 12600359
0.62252969 0.354664 1.5602599 12469289
0.63786709 0.354664 1.5602599 12666155
0.65320456 0.354664 1.5602599 12666668
0.64378113 0.3415283 1.5024725 12469289
0.6585505 0.3415283 1.5024725 12207144
0.67331988 0.3415283 1.5024725 12010537
0.71455425 0.354664 1.5602599 12140838
0.72989166 0.354664 1.5602599 12272683
0.74522913 0.354664 1.5602599 12337961
0.79098916 0.36885056 1.6226703 12206377
0.84056258 0.38421932 1.6902815 12337703
0.85717809 0.38421932 1.6902815 12140840
0.87379366 0.38421932 1.6902815 12337449
0.89040917 0.38421932 1.6902815 12271912
0.98948157 0.41914836 1.8439435 12403755
1.0076076 0.41914836 1.8439435 12337965
1.0257336 0.41914836 1.8439435 12141098
1.0438597 0.41914836 1.8439435 12009768
1.1125565 0.43910778 1.9317503 12075304
1.1315457 0.43910778 1.9317503 11943719
1.1505349 0.43910778 1.9317503 11550502
1.1163639 0.41914836 1.8439435 11943974
1.1344899 0.41914836 1.8439435 12140586
1.2075025 0.43910778 1.9317503 11747881
1.2264916 0.43910778 1.9317503 11615527
1.307755 0.46106321 2.028338 11812392
1.3276936 0.46106321 2.028338 11747112
1.3476323 0.46106321 2.028338 11812391
1.3024484 0.43910778 1.9317503 11812134
1.3214376 0.43910778 1.9317503 11616041
1.3404268 0.43910778 1.9317503 11550504
1.359416 0.43910778 1.9317503 11484711
1.3784052 0.43910778 1.9317503 11419433
1.3338765 0.41914836 1.8439435 11288617
1.4163835 0.43910778 1.9317503 11156519
1.4353727 0.43910778 1.9317503 11222054
1.4543619 0.43910778 1.9317503 11222824
1.3452337 0.4009245 1.763772 11221796
1.3625716 0.4009245 1.763772 11091238
1.3799095 0.4009245 1.763772 11225134
1.3972476 0.4009245 1.763772 11291441
1.4145855 0.4009245 1.763772 11422003
1.4970108 0.41914836 1.8439435 11159602
1.5872862 0.43910778 1.9317503 11028273
1.6062754 0.43910778 1.9317503 10896686
1.6252646 0.43910778 1.9317503 10765613
1.6442538 0.43910778 1.9317503 10634029
1.8383213 0.48532969 2.1350925 10567981
1.9626044 0.51229244 2.2537088 10502700
1.6238931 0.41914836 1.8439435 10240300
1.5706271 0.4009245 1.763772 10305322
1.6601453 0.41914836 1.8439435 10634029
1.6782713 0.41914836 1.8439435 10700337
1.6963974 0.41914836 1.8439435 10569267
1.7145234 0.41914836 1.8439435 10504759
1.8151566 0.43910778 1.9317503 10569009
1.9258533 0.46106321 2.028338 10502959
2.0482018 0.48532969 2.1350925 10503473
2.184145 0.51229244 2.2537088 10437165
2.090178 0.48532969 2.1350925 10502958
2.0056078 0.46106321 2.028338 10371372
1.9290917 0.43910778 1.9317503 10371885
2.045485 0.46106321 2.028338 10502700
2.0654237 0.46106321 2.028338 10634799
2.0853624 0.46106321 2.028338 10306607
2.1053011 0.46106321 2.028338 10438194
2.2370944 0.48532969 2.1350925 9847856
2.2580824 0.48532969 2.1350925 9389871
2.4056857 0.51229244 2.2537088 9063734
2.7313194 0.57632899 2.5354223 9263937
3.3922989 0.709328 3.1205199 9198662
3.4229739 0.709328 3.1205199 8540223
3.4536486 0.709328 3.1205199 7685172
2.8310127 0.57632899 2.5354223 7750448
2.6879399 0.5424273 2.3862798 9128758
2.7113969 0.5424273 2.3862798 10308404
2.7348542 0.5424273 2.3862798 10439988
2.7583115 0.5424273 2.3862798 10898999
2.488951 0.48532969 2.1350925 10635314
2.2708972 0.43910778 1.9317503 10635315
2.2898865 0.43910778 1.9317503 10373683
2.3088756 0.43910778 1.9317503 9847599
0 0 0 9650223
0 0 0 9453357
0 0 0 9321771
0 0 0 9387051
0 0 0 9518634
0 0 0 9847342
0 0 0 9584681
0 0 0 9584425
0 0 0 9781805
0 0 0 9781552
0 0 0 5451293
0 0 0 3215880
-4.4014053 0.87454879 3.687887 1115144
-4.3651533 0.87454879 3.687887 852489
-4.3289013 0.87454879 3.687887 1181708
-4.2926493 0.87454879 3.687887 2691602
-4.2563972 0.87454879 3.687887 2954258
-4.2201452 0.87454879 3.687887 2888722
-4.1838932 0.87454879 3.687887 2757139
-4.1476407 0.87454879 3.687887 2822932
-4.5225282 0.96200371 4.0566759 2822930
-4.4826508 0.96200371 4.0566759 2757137
-4.4427733 0.96200371 4.0566759 2757136
-4.4028959 0.96200371 4.0566759 2494223
-4.8477983 1.0688931 4.5074177 2034957
-4.8034906 1.0688931 4.5074177 1443338
-4.2832642 0.96200371 4.0566759 1115144
-4.2433867 0.96200371 4.0566759 918536
-4.2035093 0.96200371 4.0566759 852743
-4.1636324 0.96200371 4.0566759 721673
-4.123755 0.96200371 4.0566759 655882
-4.0838776 0.96200371 4.0566759 786955
-3.6763637 0.87454879 3.687887 786696
-3.6401114 0.87454879 3.687887 1641231
-3.6038594 0.87454879 3.687887 1837325
-3.5676074 0.87454879 3.687887 1050122
-3.5313554 0.87454879 3.687887 1246731
-3.4951031 0.87454879 3.687887 1115402
-3.4588511 0.87454879 3.687887 1049868
-3.4225991 0.87454879 3.687887 1378573
-3.7249818 0.96200371 4.0566759 1509645
-3.6851046 0.96200371 4.0566759 1181196
-3.6452272 0.96200371 4.0566759 1114891
-3.60535 0.96200371 4.0566759 1180938
-3.5654726 0.96200371 4.0566759 1838611
-3.5255952 0.96200371 4.0566759 1970193
-3.485718 0.96200371 4.0566759 1838092
-3.8287117 1.0688931 4.5074177 3547163
-3.7844038 1.0688931 4.5074177 4795167
-3.7400956 1.0688931 4.5074177 5781289
-3.6957874 1.0688931 4.5074177 5716266
-3.6514795 1.0688931 4.5074177 7490623
-3.2464542 0.96200371 4.0566759 9130303
-2.9150696 0.87454879 3.687887 9127730
-2.4359226 0.74000287 3.1205199 8735030
-2.4052479 0.74000287 3.1205199 8472629
-2.374573 0.74000287 3.1205199 8406320
-3.8088343 1.2025046 5.0708447 8208682
-7.5179753 2.4050093 10.141689 7682086
0 0 0 7486508
0 0 0 6763043
-0.37500754 0.12493554 0.52684098 6039578
-0.36982867 0.12493554 0.52684098 4989464
-0.41291231 0.14147113 0.59656996 4464152
-0.4324885 0.15031308 0.63385558 3872789
0 0 0 2888468
0 0 0 1574668
0 0 0 2034190
-0.43473616 0.16033395 0.67611259 2822162
-0.4210721 0.15770552 0.66502881 3085846
-0.40784881 0.15516189 0.65430254 2232079
-0.40141696 0.15516189 0.65430254 1705740
-0.40146032 0.15770552 0.66502881 1574668
-0.39492306 0.15770552 0.66502881 1508875
-0.39485887 0.16033395 0.67611259 1312267
-0.38821265 0.16033395 0.67611259 1312011
-0.38156644 0.16033395 0.67611259 1114888
-0.28119019 0.12025046 0.50708449 1180424
-0.25398207 0.11057514 0.46628457 852489
-0.23082624 0.10234082 0.43156123 1114888
-0.22658397 0.10234082 0.43156123 1180428
-0.22234172 0.10234082 0.43156123 3480610
-0.2204446 0.10344125 0.43620169 5056806
-0.21615672 0.10344125 0.43620169 5253928
-0.20313199 0.099175639 0.41821399 4925221
-0.19902092 0.099175639 0.41821399 5122342
-0.19490986 0.099175639 0.41821399 4925217
-0.1907988 0.099175639 0.41821399 5186592
-0.18668774 0.099175639 0.41821399 5120797
-0.1864204 0.10126355 0.42701849 4727068
-0.18614155 0.10344125 0.43620169 4398619
-0.18185367 0.10344125 0.43620169 4398105
-0.17756578 0.10344125 0.43620169 4397846
-0.16962995 0.10126355 0.42701849 4332564
-0.16719225 0.10234082 0.43156123 4267030
-0.16123472 0.10126355 0.42701849 4332309
-0.15870772 0.10234082 0.43156123 4332823
-0.15612638 0.10344125 0.43620169 4332566
-0.15866269 0.1080903 0.45580626 4266772
-0.15956055 0.11186089 0.47170648 3938068
-0.1586123 0.11452425 0.48293757 3740689
-0.1557188 0.11590406 0.48875612 2362897
-0.15657361 0.12025046 0.50708449 1772818
-0.15350778 0.12177262 0.51350325 2955293
-0.14479433 0.11876588 0.50082415 4925738
-0.13987121 0.11876588 0.50082415 7681070
-0.13494809 0.11876588 0.50082415 9974823
-0.13002497 0.11876588 0.50082415 10760992
-0.12510183 0.11876588 0.50082415 11089185
-0.12168096 0.12025046 0.50708449 10892063
-0.1228382 0.12657943 0.53377312 11024162
-0.11915907 0.12826715 0.5408901 11613729
-0.11384209 0.12826715 0.5408901 11153948
-0.10709716 0.12657943 0.53377312 11023390
-0.10185014 0.12657943 0.53377312 11416865
-0.095348544 0.12493554 0.52684098 11416610
-0.090169676 0.12493554 0.52684098 11417122
-0.083901182 0.12333381 0.52008665 11679778
-0.079811931 0.12493554 0.52684098 11548962
0 0 0 11745825
-0.066024356 0.11876588 0.50082415 11614241
-0.060356095 0.11731752 0.49471655 11614242
-0.055493008 0.11731752 0.49471655 11745313
-0.050629925 0.11731752 0.49471655 11680035
-0.04633186 0.11876588 0.50082415 11483169
-0.041408736 0.11876588 0.50082415 11745571
-0.037888907 0.12333381 0.52008665 11679776
-0.033202097 0.12493554 0.52684098 11483169
-0.058318608 0.260001 1.0963988 11942692
-0.022844356 0.12493554 0.52684098 11942947
-0.037784513 0.26722327 1.1268544 11943207
-0.012650913 0.12657943 0.53377312 12074531
-0.016077036 0.27485821 1.1590502 12074018
0 0 0 11942947
0 0 0 11418148
0.0086797653 0.13178132 0.555709 11089953
0 0 0 10828326
0 0 0 11156259
0 0 0 11090468
0 0 0 11287332
0 0 0 11353125
0 0 0 11746341
0 0 0 11681318
0 0 0 12074533
0 0 0 12206117
0 0 0 12206117
0 0 0 12665385
0.41683844 0.74000287 3.1205199 12140324
0.44751328 0.74000287 3.1205199 12141351
0.51803714 0.80166972 3.380563 12468776
0.55126822 0.80166972 3.380563 12206117
0.46759942 0.64133579 2.7044504 12009254
0.39014551 0.50631773 2.1350925 12534569
0.3905769 0.48100185 2.028338 12337703
0.41051555 0.48100185 2.028338 12402469
0.43045419 0.48100185 2.028338 12600103
0.45039287 0.48100185 2.028338 12796455
0.49508578 0.50631773 2.1350925 12534823
0.51607382 0.50631773 2.1350925 12469545
0.5668987 0.53444654 2.2537088 12534823
0.58905274 0.53444654 2.2537088 12535081
0.61120683 0.53444654 2.2537088 12469032
0.63336086 0.53444654 2.2537088 12600874
0.47197074 0.38480148 1.6226703 12731948
0.46915543 0.37000144 1.5602599 12600362
0.4343729 0.33172539 1.3988537 12535082
0.44812369 0.33172539 1.3988537 12731430
0.43207613 0.31032377 1.3086051 12600362
0.44493979 0.31032377 1.3086051 12403496
0.45780343 0.31032377 1.3086051 12862506
0.48635596 0.32066789 1.3522252 12600618
0.51687765 0.33172539 1.3988537 12535339
0.54957944 0.34357274 1.4488127 12338475
0.54437923 0.33172539 1.3988537 12731434
0.55813003 0.33172539 1.3988537 12600103
0.59230512 0.34357274 1.4488127 12796713
0.62901175 0.35629767 1.5024725 12731178
0.64378113 0.35629767 1.5024725 12599592
0.6585505 0.35629767 1.5024725 12600616
0.69921684 0.37000144 1.5602599 12535081
0.71455425 0.37000144 1.5602599 12403496
0.72989166 0.37000144 1.5602599 12534826
0.74522913 0.37000144 1.5602599 12271910
0.79098916 0.38480148 1.6226703 12009256
0.84056258 0.40083486 1.6902815 12076330
0.85717809 0.40083486 1.6902815 12010023
0.87379366 0.40083486 1.6902815 12206379
0.89040917 0.40083486 1.6902815 11944744
0.9464606 0.41826245 1.763772 11944231
1.0076076 0.4372744 1.8439435 12271912
1.074578 0.45809698 1.9317503 12206118
1.0935673 0.45809698 1.9317503 12140326
1.1125565 0.45809698 1.9317503 12074533
1.1315457 0.45809698 1.9317503 12009769
1.0982379 0.4372744 1.8439435 12140326
1.1163639 0.4372744 1.8439435 12075048
1.1344899 0.4372744 1.8439435 12074793
1.2075025 0.45809698 1.9317503 11681320
1.2264916 0.45809698 1.9317503 11484711
1.2454808 0.45809698 1.9317503 11550248
1.26447 0.45809698 1.9317503 11549734
1.2834592 0.45809698 1.9317503 11550504
1.3024484 0.45809698 1.9317503 11418146
1.3214376 0.45809698 1.9317503 11615785
1.3404268 0.45809698 1.9317503 11485224
1.359416 0.45809698 1.9317503 11615784
1.2585438 0.41826245 1.763772 11616040
1.3338765 0.4372744 1.8439435 11550504
1.4163835 0.45809698 1.9317503 11419431
1.4353727 0.45809698 1.9317503 11157031
1.2725667 0.40083486 1.6902815 11287847
1.2891822 0.40083486 1.6902815 11223081
1.3057978 0.40083486 1.6902815 11025445
1.3799095 0.41826245 1.763772 11027499
1.3972476 0.41826245 1.763772 10962221
1.4145855 0.41826245 1.763772 10962480
1.4970108 0.4372744 1.8439435 10961710
1.515137 0.4372744 1.8439435 11355183
1.533263 0.4372744 1.8439435 11094066
1.551389 0.4372744 1.8439435 11159345
1.5695151 0.4372744 1.8439435 10962223
1.7464054 0.48100185 2.028338 10962480
1.766344 0.48100185 2.028338 11028273
1.6238931 0.4372744 1.8439435 11027501
1.5706271 0.41826245 1.763772 10765872
1.587965 0.41826245 1.763772 10700337
1.605303 0.41826245 1.763772 10437933
1.6963974 0.4372744 1.8439435 10371627
1.7145234 0.4372744 1.8439435 10174763
1.8151566 0.45809698 1.9317503 10109229
1.8341458 0.45809698 1.9317503 10240302
2.2891667 0.56588453 2.3862798 10634544
2.312624 0.56588453 2.3862798 10109229
2.2062991 0.53444654 2.2537088 10306863
2.0056078 0.48100185 2.028338 10241069
2.0255466 0.48100185 2.028338 10438193
2.045485 0.48100185 2.028338 10504242
2.0654237 0.48100185 2.028338 10570034
2.0853624 0.48100185 2.028338 10701618
2.1053011 0.48100185 2.028338 10635569
2.2370944 0.50631773 2.1350925 10437937
2.3835316 0.53444654 2.2537088 10306863
2.5471964 0.56588453 2.3862798 9652529
3.1215079 0.68714547 2.8976254 9195833
3.3922989 0.74000287 3.1205199 9395009
3.1784754 0.68714547 2.8976254 9001282
2.6410253 0.56588453 2.3862798 8080957
2.6644826 0.56588453 2.3862798 6633772
2.6879399 0.56588453 2.3862798 6569521
2.7113969 0.56588453 2.3862798 8866359
2.7348542 0.56588453 2.3862798 9915445
2.7583115 0.56588453 2.3862798 10766898
2.7817688 0.56588453 2.3862798 10833204
2.8052261 0.56588453 2.3862798 10767413
2.8286831 0.56588453 2.3862798 10569521
0 0 0 10701107
0 0 0 10701364
0 0 0 10373171
0 0 0 10110771
0 0 0 9979185
0 0 0 10176564
0 0 0 10241587
0 0 0 10175281
0 0 0 10043951
0 0 0 9912878
0 0 0 10045490
0 0 0 5583393
0 0 0 4203544
-4.4014053 0.91080087 3.687887 1836806
-4.3651533 0.91080087 3.687887 853260
-4.3289013 0.91080087 3.687887 1247247
-4.2926493 0.91080087 3.687887 2297874
-4.2563972 0.91080087 3.687887 2297358
-4.2201452 0.91080087 3.687887 2099979
-4.1838932 0.91080087 3.687887 1639687
-4.5624051 1.001881 4.0566759 1377288
-4.5225282 1.001881 4.0566759 1114632
-4.4826508 1.001881 4.0566759 918025
-4.4427733 1.001881 4.0566759 655882
-4.8921065 1.1132011 4.5074177 655882
-4.8477983 1.1132011 4.5074177 721675
-4.3231416 1.001881 4.0566759 786698
-4.2832642 1.001881 4.0566759 852489
-4.2433867 1.001881 4.0566759 590088
-3.821372 0.91080087 3.687887 590089
-3.78512 0.91080087 3.687887 590091
-4.123755 1.001881 4.0566759 917770
-4.0838776 1.001881 4.0566759 721675
-4.0440001 1.001881 4.0566759 1049868
-3.6401114 0.91080087 3.687887 1576209
-3.3035378 0.8349008 3.380563 1640971
-3.5676074 0.91080087 3.687887 1969679
-3.5313554 0.91080087 3.687887 2297874
-3.4951031 0.91080087 3.687887 2692889
-3.4588511 0.91080087 3.687887 2758939
-3.4225991 0.91080087 3.687887 2955801
-3.7249818 1.001881 4.0566759 2757139
-3.6851046 1.001881 4.0566759 2560530
-3.3138428 0.91080087 3.687887 4269089
-3.2775905 0.91080087 3.687887 6436914
-2.546766 0.71562928 2.8976254 6766644
-2.7119963 0.77067769 3.1205199 7029044
-3.1688342 0.91080087 3.687887 7554355
-3.4458406 1.001881 4.0566759 7751474
-3.4059634 1.001881 4.0566759 7817265
-3.366086 1.001881 4.0566759 7159599
-2.7718403 0.8349008 3.380563 7752515
-2.9875739 0.91080087 3.687887 8671036
-3.2464542 1.001881 4.0566759 8866101
-2.9150696 0.91080087 3.687887 8472113
-2.4359226 0.77067769 3.1205199 8537652
-2.4052479 0.77067769 3.1205199 8406320
-2.374573 0.77067769 3.1205199 8273450
-3.8088343 1.2523513 5.0708447 7879465
0 0 0 7025955
0 0 0 6894630
-0.36141178 0.12368901 0.50082415 6171679
-0.36551371 0.12682037 0.51350325 5515036
-0.3650873 0.12844628 0.52008665 4661017
-0.3646498 0.13011441 0.52684098 4135444
-0.39541805 0.14312586 0.57952511 3675155
0 0 0 3150355
0 0 0 2165005
0 0 0 1312010
0 0 0 1444110
-0.4210721 0.16424279 0.66502881 1771789
-0.41453484 0.16424279 0.66502881 1838095
-0.40799758 0.16424279 0.66502881 1772560
-0.4081513 0.16698016 0.67611259 1443852
-0.41535008 0.17273809 0.69942683 1246473
-0.40847468 0.17273809 0.69942683 1246474
-0.40159929 0.17273809 0.69942683 1180681
-0.38156644 0.16698016 0.67611259 1180681
-0.26157224 0.11649779 0.47170648 1180425
-0.23759614 0.10772914 0.43620169 1114888
-0.23082624 0.10658308 0.43156123 983559
-0.22658397 0.10658308 0.43156123 1049098
-0.22234172 0.10658308 0.43156123 2299162
-0.22284074 0.10890011 0.440943 5187108
-0.20940182 0.1043626 0.42257038 5122342
-0.20313199 0.1032867 0.41821399 4924963
-0.19902092 0.1032867 0.41821399 5056804
-0.19490986 0.1032867 0.41821399 5385254
-0.1907988 0.1032867 0.41821399 5253154
-0.18668774 0.1032867 0.41821399 4661277
-0.18257667 0.1032867 0.41821399 4463642
-0.18222278 0.10546116 0.42701849 4332312
-0.17802517 0.10546116 0.42701849 4463898
-0.17382756 0.10546116 0.42701849 4398619
-0.16962995 0.10546116 0.42701849 4463896
-0.16543233 0.10546116 0.42701849 4595738
-0.16123472 0.10546116 0.42701849 4397592
-0.15870772 0.10658308 0.43156123 4266772
-0.15612638 0.10772914 0.43620169 4923159
-0.16231011 0.11515874 0.46628457 6038555
-0.15956055 0.11649779 0.47170648 7940896
-0.15674628 0.11786835 0.47725597 9908772
-0.15386501 0.11927155 0.48293757 10433054
-0.15275472 0.12218061 0.49471655 10498849
-0.14971747 0.12368901 0.50082415 10761506
-0.14479433 0.12368901 0.50082415 10826784
-0.13987121 0.12368901 0.50082415 10629920
-0.13494809 0.12368901 0.50082415 10827039
-0.13002497 0.12368901 0.50082415 11154208
-0.12510183 0.12368901 0.50082415 11023390
-0.12017871 0.12368901 0.50082415 11351585
-0.11525559 0.12368901 0.50082415 11286562
-0.11457603 0.12844628 0.52008665 11417377
-0.11234418 0.13182645 0.53377312 11417376
-0.10048622 0.12368901 0.50082415 11679780
-0.099238604 0.12844628 0.52008665 11154206
-0.092934661 0.12682037 0.51350325 11548964
-0.0878869 0.12682037 0.51350325 11352353
-0.080793723 0.12368901 0.50082415 11482914
-0.075870603 0.12368901 0.50082415 11613728
-0.070947476 0.12368901 0.50082415 11876899
-0.065219179 0.12218061 0.49471655 11548449
-0.060356095 0.12218061 0.49471655 11745571
-0.055493008 0.12218061 0.49471655 11877155
-0.051254984 0.12368901 0.50082415 11811106
-0.04633186 0.12368901 0.50082415 11876641
-0.041408736 0.12368901 0.50082415 11876897
-0.036485612 0.12368901 0.50082415 11942950
-0.03117758 0.12218061 0.49471655 11811359
-0.026972357 0.12523513 0.50708449 11680035
-0.021987693 0.12523513 0.50708449 11876641
-0.017439006 0.12844628 0.52008665 12074020
-0.012486614 0.13011441 0.52684098 12074018
-0.0073077437 0.13011441 0.52684098 11811875
-0.0021568846 0.13182645 0.53377312 11746341
0.0031736461 0.13538933 0.54819942 11221539
0.0085624708 0.13538933 0.54819942 11353125
0.01414241 0.13724397 0.555709 11025445
0 0 0 11352357
0 0 0 11221539
0 0 0 11483939
0 0 0 11549732
0 0 0 11680548
0 0 0 11483939
0 0 0 11812388
0 0 0 11943459
0 0 0 12533799
0 0 0 12664869
0 0 0 12468006
0 0 0 12271397
0 0 0 12402213
0 0 0 12206117
0 0 0 12141353
0.37063825 0.5009405 2.028338 12402983
0.3905769 0.5009405 2.028338 12469289
0.39096716 0.47708619 1.9317503 12534571
0.43045419 0.5009405 2.028338 12402983
0.45039287 0.5009405 2.028338 12600361
0.47033152 0.5009405 2.028338 12861991
0.51607382 0.52730578 2.1350925 12534311
0.5668987 0.55660057 2.2537088 12468519
0.58905274 0.55660057 2.2537088 12666155
0.61120683 0.55660057 2.2537088 12534569
0.57002479 0.5009405 2.028338 12600103
0.45381802 0.38533884 1.5602599 12731432
0.43564433 0.35781464 1.4488127 12599592
0.4198938 0.33396032 1.3522252 12797225
0.4061121 0.31308782 1.2677112 12469289
0.43207613 0.32318741 1.3086051 12535082
0.44493979 0.32318741 1.3086051 12600619
0.45780343 0.32318741 1.3086051 12666410
0.47066709 0.32318741 1.3086051 12731432
0.48353073 0.32318741 1.3086051 12469032
0.53062844 0.34547618 1.3988537 12075045
0.54437923 0.34547618 1.3988537 12797225
0.55813003 0.34547618 1.3988537 12403238
0.59230512 0.35781464 1.4488127 12862505
0.60654706 0.35781464 1.4488127 12731178
0.64378113 0.37106705 1.5024725 12534569
0.6585505 0.37106705 1.5024725 12140839
0.69921684 0.38533884 1.5602599 12403497
0.71455425 0.38533884 1.5602599 12140840
0.72989166 0.38533884 1.5602599 12206631
0.77503824 0.4007524 1.6226703 12337447
0.79098916 0.4007524 1.6226703 12469289
0.84056258 0.4174504 1.6902815 12206633
0.85717809 0.4174504 1.6902815 12337960
0.87379366 0.4174504 1.6902815 12337705
0.89040917 0.4174504 1.6902815 11943720
0.9464606 0.43560043 1.763772 12271655
0.92364031 0.4174504 1.6902815 12206376
1.0257336 0.45540044 1.8439435 12140326
1.0935673 0.47708619 1.9317503 12009767
1.1125565 0.47708619 1.9317503 11878181
1.1315457 0.47708619 1.9317503 12140327
1.006718 0.4174504 1.6902815 11943207
1.0233335 0.4174504 1.6902815 11747112
1.1344899 0.45540044 1.8439435 11812905
1.2075025 0.47708619 1.9317503 11746341
1.2264916 0.47708619 1.9317503 11615525
1.2454808 0.47708619 1.9317503 11746854
1.2069941 0.45540044 1.8439435 11615527
1.2251202 0.45540044 1.8439435 11681318
1.2432462 0.45540044 1.8439435 11484711
1.2613722 0.45540044 1.8439435 11353639
1.3404268 0.47708619 1.9317503 11549990
1.2976243 0.45540044 1.8439435 11287332
1.3157504 0.45540044 1.8439435 11287333
1.2758818 0.43560043 1.763772 11353640
1.1897622 0.4007524 1.6226703 11615525
1.2057132 0.4007524 1.6226703 11221797
1.2725667 0.4174504 1.6902815 11090728
1.2891822 0.4174504 1.6902815 11221287
1.3057978 0.4174504 1.6902815 11025445
1.3224133 0.4174504 1.6902815 11158826
1.3972476 0.43560043 1.763772 11422513
1.3556443 0.4174504 1.6902815 11422259
1.37226 0.4174504 1.6902815 11422256
1.3333205 0.4007524 1.6226703 11290416
1.405491 0.4174504 1.6902815 11093038
1.4221066 0.4174504 1.6902815 10961710
1.5695151 0.45540044 1.8439435 10830382
1.5876411 0.45540044 1.8439435 10961966
1.6057671 0.45540044 1.8439435 10437165
1.6238931 0.45540044 1.8439435 10502958
1.6420193 0.45540044 1.8439435 10699566
1.6601453 0.45540044 1.8439435 10437165
1.6782713 0.45540044 1.8439435 10634287
1.8660372 0.5009405 2.028338 10502958
1.7961674 0.47708619 1.9317503 10634031
1.9059145 0.5009405 2.028338 10568749
2.1398368 0.55660057 2.2537088 10634544
2.2891667 0.58934176 2.3862798 10634286
2.312624 0.58934176 2.3862798 10634285
2.2062991 0.55660057 2.2537088 10371372
2.0056078 0.5009405 2.028338 10634544
2.0255466 0.5009405 2.028338 10568749
2.045485 0.5009405 2.028338 10502959
2.0654237 0.5009405 2.028338 10437681
2.0853624 0.5009405 2.028338 10700595
2.1053011 0.5009405 2.028338 10766384
2.2370944 0.52730578 2.1350925 10635311
2.5237391 0.58934176 2.3862798 10569776
2.8868225 0.66792065 2.7044504 10175791
3.1215079 0.71562928 2.8976254 9586738
3.1499918 0.71562928 2.8976254 8868154
2.7811661 0.62617564 2.5354223 9132608
2.8060894 0.62617564 2.5354223 9066817
3.4843235 0.77067769 3.1205199 8343098
3.5149984 0.77067769 3.1205199 5781035
4.190341 0.91080087 3.687887 7094321
2.9057827 0.62617564 2.5354223 8669238
2.7583115 0.58934176 2.3862798 10046516
2.7817688 0.58934176 2.3862798 10373938
2.8052261 0.58934176 2.3862798 10504242
0 0 0 10438450
0 0 0 10437938
0 0 0 10503988
0 0 0 10439736
0 0 0 10373173
0 0 0 10438196
0 0 0 10240046
0 0 0 9912622
0 0 0 9847087
0 0 0 9715759
0 0 0 9584684
0 0 0 9650477
0 0 0 6241062
0 0 0 4597784
-4.0346217 0.86813188 3.380563 1770753
-4.3651533 0.94705296 3.687887 852489
-4.3289013 0.94705296 3.687887 786698
-4.2926493 0.94705296 3.687887 852490
-4.2563972 0.94705296 3.687887 852488
-4.2201452 0.94705296 3.687887 918281
-4.6022825 1.0417583 4.0566759 918282
-5.0693393 1.1575093 4.5074177 786697
-5.0250311 1.1575093 4.5074177 721418
-4.9807229 1.1575093 4.5074177 655624
-4.9364147 1.1575093 4.5074177 721160
-4.8921065 1.1575093 4.5074177 721160
-4.3630185 1.0417583 4.0566759 917769
-4.3231416 1.0417583 4.0566759 1180938
-4.2832642 1.0417583 4.0566759 1378317
-4.2433867 1.0417583 4.0566759 1510672
-3.821372 0.94705296 3.687887 1905431
-3.78512 0.94705296 3.687887 2364953
-3.7488678 0.94705296 3.687887 2627352
-4.0838776 1.0417583 4.0566759 2955801
-3.6763637 0.94705296 3.687887 3283479
-3.3367689 0.86813188 3.380563 3546651
-3.3035378 0.86813188 3.380563 4007456
-3.2703068 0.86813188 3.380563 4468006
-3.2370756 0.86813188 3.380563 5190698
-3.2038445 0.86813188 3.380563 6241584
-3.1706135 0.86813188 3.380563 6831661
-3.1373823 0.86813188 3.380563 7225389
-3.1041512 0.86813188 3.380563 7159597
-2.6322174 0.74411303 2.8976254 7224876
-2.6037335 0.74411303 2.8976254 7093290
-2.2533436 0.65109891 2.5354223 7027755
-2.2284203 0.65109891 2.5354223 7290926
-2.2034969 0.65109891 2.5354223 7356973
-2.4897983 0.74411303 2.8976254 7291178
-2.6506467 0.80135256 3.1205199 7356714
-3.4059634 1.0417583 4.0566759 7291437
-3.0600781 0.94705296 3.687887 6436909
-2.7718403 0.86813188 3.380563 8407357
-2.7386093 0.86813188 3.380563 8406581
-2.7053783 0.86813188 3.380563 8668981
-2.4665976 0.80135256 3.1205199 8470832
-2.4359226 0.80135256 3.1205199 7946032
-2.4052479 0.80135256 3.1205199 8208688
-2.374573 0.80135256 3.1205199 7944745
0 0 0 7682345
-2.1479928 0.74411303 2.8976254 6960423
-0.36633492 0.12861213 0.50082415 6237985
-0.36141178 0.12861213 0.50082415 5842973
-0.36094481 0.13021979 0.50708449 5054488
-0.3650873 0.13355877 0.52008665 4134933
-0.35997483 0.13355877 0.52008665 3872277
-0.35486236 0.13355877 0.52008665 3281427
0 0 0 2888211
0 0 0 2428432
0 0 0 984329
0 0 0 1114891
0 0 0 1443853
-0.42144373 0.17362638 0.67611259 1574668
-0.421828 0.17656921 0.68757218 1312266
-0.42963299 0.18276462 0.71169752 1574924
-0.43018404 0.18602826 0.72440636 1312267
-0.43075514 0.1894106 0.73757738 983048
-0.39479256 0.17656921 0.68757218 1049098
-0.27254745 0.12401884 0.48293757 1114888
-0.24188402 0.11201702 0.43620169 1180681
-0.23759614 0.11201702 0.43620169 1049352
-0.22839651 0.10965877 0.42701849 1048841
-0.21957624 0.10739776 0.41821399 1114889
-0.22000128 0.10965877 0.42701849 2232598
-0.2204446 0.11201702 0.43620169 5056803
-0.21160606 0.10965877 0.42701849 5056549
-0.20313199 0.10739776 0.41821399 4925476
-0.1969901 0.10630187 0.41394651 4990756
-0.19097228 0.10522811 0.40976521 4662304
-0.18885188 0.10630187 0.41394651 4727584
-0.18668774 0.10739776 0.41821399 4529691
-0.18071365 0.10630187 0.41394651 4398363
-0.17664453 0.10630187 0.41394651 4464152
-0.17435455 0.10739776 0.41821399 4595225
-0.17024349 0.10739776 0.41821399 4594453
-0.16786297 0.10851648 0.42257038 4989982
-0.16370907 0.10851648 0.42257038 6172198
-0.1595552 0.10851648 0.42257038 7877673
-0.15703711 0.10965877 0.42701849 9122598
-0.15612638 0.11201702 0.43620169 9842719
-0.16046567 0.11838162 0.46098587 10367262
-0.15956055 0.12113468 0.47170648 10760737
-0.15674628 0.1225598 0.47725597 10760736
-0.15205483 0.1225598 0.47725597 10891804
-0.15091431 0.12551305 0.48875612 10760990
-0.14610982 0.12551305 0.48875612 11089183
-0.14130533 0.12551305 0.48875612 11088927
-0.13487582 0.12401884 0.48293757 11220001
-0.13012852 0.12401884 0.48293757 11351070
-0.12843929 0.12704369 0.49471655 11285792
-0.12357622 0.12704369 0.49471655 11154978
-0.11871313 0.12704369 0.49471655 11154464
-0.11385004 0.12704369 0.49471655 11022877
-0.11033247 0.12861213 0.50082415 11155491
-0.10540935 0.12861213 0.50082415 11154206
-0.10048622 0.12861213 0.50082415 11219998
-0.095563099 0.12861213 0.50082415 11220769
-0.090639971 0.12861213 0.50082415 11811107
-0.084671527 0.12704369 0.49471655 11614242
-0.079808436 0.12704369 0.49471655 11680035
-0.074945353 0.12704369 0.49471655 11548449
-0.070947476 0.12861213 0.50082415 11352353
-0.065219179 0.12704369 0.49471655 11286562
-0.060356095 0.12704369 0.49471655 11482656
-0.056178108 0.12861213 0.50082415 11483171
-0.051254984 0.12861213 0.50082415 11548194
-0.04633186 0.12861213 0.50082415 11680289
-0.041408736 0.12861213 0.50082415 11613728
-0.036485612 0.12861213 0.50082415 11942434
-0.03117758 0.12704369 0.49471655 11614242
-0.026639363 0.12861213 0.50082415 11877411
-0.021716239 0.12861213 0.50082415 11876898
-0.017218258 0.13186814 0.51350325 11942945
-0.01232653 0.13355877 0.52008665 11876641
-0.0073077437 0.13529328 0.52684098 11811621
-0.002128873 0.13529328 0.52684098 11352355
0.0031313307 0.1389011 0.5408901 11483169
0.0085624708 0.14077814 0.54819942 11352355
0.013951296 0.14077814 0.54819942 11287330
0.019877348 0.14468867 0.56342721 11286562
0 0 0 11091238
0 0 0 11614755
0 0 0 11812388
0 0 0 11811621
0 0 0 11746343
0 0 0 11681318
0 0 0 11681320
0 0 0 12271399
0 0 0 11747111
0 0 0 12075045
0 0 0 12271910
0 0 0 12140324
0 0 0 12403496
0 0 0 12337190
0.37063825 0.52087915 2.028338 12206374
0.37197798 0.49607536 1.9317503 12469286
0.39096716 0.49607536 1.9317503 12534312
0.40995637 0.49607536 1.9317503 12599848
0.42894554 0.49607536 1.9317503 12206887
0.44793475 0.49607536 1.9317503 12206630
0.49027017 0.52087915 2.028338 12271397
0.53706187 0.54829383 2.1350925 12337190
0.55804998 0.54829383 2.1350925 12600362
0.61120683 0.57875466 2.2537088 12403238
0.43848059 0.40067628 1.5602599 12534567
0.42140242 0.37205651 1.4488127 12468776
0.42062211 0.359227 1.3988537 12534569
0.39365044 0.32554945 1.2677112 12862248
0.38222316 0.30639949 1.1931399 12928039
0.40588969 0.31568432 1.2292956 12599848
0.43103543 0.32554945 1.2677112 12534313
0.45780343 0.33605108 1.3086051 12468777
0.47066709 0.33605108 1.3086051 12469032
0.45422581 0.31568432 1.2292956 12468519
0.49639437 0.33605108 1.3086051 12468776
0.52623326 0.34725276 1.3522252 12403241
0.55813003 0.359227 1.3988537 12535339
0.59230512 0.37205651 1.4488127 12403498
0.60654706 0.37205651 1.4488127 12469289
0.62078893 0.37205651 1.4488127 12600362
0.68387938 0.40067628 1.5602599 12337704
0.69921684 0.40067628 1.5602599 12403496
0.74313641 0.41670331 1.6226703 12336677
0.75908732 0.41670331 1.6226703 12468006
0.77503824 0.41670331 1.6226703 12337191
0.79098916 0.41670331 1.6226703 12337703
0.80694008 0.41670331 1.6226703 12074533
0.822891 0.41670331 1.6226703 12140843
0.83884192 0.41670331 1.6226703 12009767
0.89040917 0.43406594 1.6902815 11878184
0.90702474 0.43406594 1.6902815 11943207
0.92364031 0.43406594 1.6902815 12140326
1.0257336 0.47352648 1.8439435 11943720
1.0438597 0.47352648 1.8439435 12009254
1.0619857 0.47352648 1.8439435 12009256
0.99010247 0.43406594 1.6902815 11877927
1.006718 0.43406594 1.6902815 11877670
1.0678263 0.45293838 1.763772 11877928
1.1344899 0.47352648 1.8439435 11484709
1.2075025 0.49607536 1.9317503 11287334
1.2264916 0.49607536 1.9317503 11352357
1.188868 0.47352648 1.8439435 11616040
1.1064112 0.43406594 1.6902815 11221539
1.1230268 0.43406594 1.6902815 11484711
1.1891921 0.45293838 1.763772 11484455
1.2613722 0.47352648 1.8439435 11419176
1.2794983 0.47352648 1.8439435 11352867
1.2976243 0.47352648 1.8439435 11287845
1.2585438 0.45293838 1.763772 11484711
1.1738113 0.41670331 1.6226703 11681577
1.1897622 0.41670331 1.6226703 11549990
1.2057132 0.41670331 1.6226703 11222054
1.2216641 0.41670331 1.6226703 11090984
1.237615 0.41670331 1.6226703 11221541
1.2053518 0.40067628 1.5602599 10959398
1.2695168 0.41670331 1.6226703 11224364
1.2854677 0.41670331 1.6226703 11158831
1.3014187 0.41670331 1.6226703 11093037
1.3173696 0.41670331 1.6226703 10962222
1.3333205 0.41670331 1.6226703 10568749
1.405491 0.43406594 1.6902815 10502958
1.4221066 0.43406594 1.6902815 10766128
1.4387221 0.43406594 1.6902815 10831406
1.4553376 0.43406594 1.6902815 10634027
1.4719532 0.43406594 1.6902815 10765358
1.4885688 0.43406594 1.6902815 10700080
1.5706271 0.45293838 1.763772 10568236
2.0290666 0.57875466 2.2537088 10699820
1.8460985 0.52087915 2.028338 10437676
2.0733747 0.57875466 2.2537088 10830893
1.8859758 0.52087915 2.028338 10370859
2.2422523 0.61279899 2.3862798 10174506
2.1398368 0.57875466 2.2537088 10305578
2.2891667 0.61279899 2.3862798 10108970
2.312624 0.61279899 2.3862798 10370859
2.3360813 0.61279899 2.3862798 10436911
2.0056078 0.52087915 2.028338 10043437
1.9290917 0.49607536 1.9317503 10174508
1.9480809 0.49607536 1.9317503 10371628
1.9670701 0.49607536 1.9317503 10570034
2.0853624 0.52087915 2.028338 10635314
2.1053011 0.52087915 2.028338 10832693
2.2370944 0.54829383 2.1350925 10963505
2.6814728 0.65109891 2.5354223 10767153
2.8868225 0.69450551 2.7044504 10176046
3.1215079 0.74411303 2.8976254 10175532
2.2049944 0.52087915 2.028338 9324081
2.2249329 0.52087915 2.028338 8408373
2.4943018 0.57875466 2.2537088 8672828
3.0197468 0.69450551 2.7044504 8869694
2.6879399 0.61279899 2.3862798 7423539
2.7113969 0.61279899 2.3862798 5912876
2.7348542 0.61279899 2.3862798 7094320
2.7583115 0.61279899 2.3862798 8601900
2.7817688 0.61279899 2.3862798 10045745
3.179256 0.69450551 2.7044504 10439475
0 0 0 10636084
0 0 0 10898486
0 0 0 10766644
0 0 0 10701362
0 0 0 10635827
0 0 0 10701107
0 0 0 10569521
0 0 0 10635828
0 0 0 10570550
0 0 0 10570548
0 0 0 10307890
0 0 0 10240817
0 0 0 6767150
0 0 0 3677200
-4.0346217 0.90136296 3.380563 1771269
-4.3651533 0.9833051 3.687887 1246218
-4.7617917 1.0816356 4.0566759 852489
-4.2926493 0.9833051 3.687887 786696
-4.2563972 0.9833051 3.687887 787468
-4.2201452 0.9833051 3.687887 787466
-5.1136475 1.2018174 4.5074177 1247246
-5.0693393 1.2018174 4.5074177 1838610
-5.0250311 1.2018174 4.5074177 2298389
-4.9807229 1.2018174 4.5074177 2889241
-4.4427733 1.0816356 4.0566759 3021082
-4.4028959 1.0816356 4.0566759 3152667
-4.3630185 1.0816356 4.0566759 3349788
-4.3231416 1.0816356 4.0566759 3415067
-4.2832642 1.0816356 4.0566759 3546394
-4.2433867 1.0816356 4.0566759 3677720
-3.821372 0.9833051 3.687887 3809300
-3.4696932 0.90136296 3.380563 4664607
-3.4364622 0.90136296 3.380563 5519916
-3.4032311 0.90136296 3.380563 6176306
-3.3699999 0.90136296 3.380563 7161656
-3.3367689 0.90136296 3.380563 7686196
-3.3035378 0.90136296 3.380563 8014644
-3.0187449 0.83202744 3.1205199 7948338
-2.98807 0.83202744 3.1205199 7751216
-3.2038445 0.90136296 3.380563 7423022
-3.1706135 0.90136296 3.380563 7028265
-3.1373823 0.90136296 3.380563 7159596
-2.660701 0.77259684 2.8976254 7093807
-2.6322174 0.77259684 2.8976254 7029045
-2.2782669 0.67602223 2.5354223 6174507
-2.2533436 0.67602223 2.5354223 5451043
-2.0973368 0.63625622 2.3862798 4596252
-1.410238 0.43265423 1.6226703 3873555
-1.3942871 0.43265423 1.6226703 3020563
-1.6408764 0.51506454 1.9317503 2758168
-3.0963302 0.9833051 3.687887 2955038
-4.8086939 1.5451937 5.7952509 6506823
-2.7718403 0.90136296 3.380563 8144696
-2.7386093 0.90136296 3.380563 8142642
-2.7053783 0.90136296 3.380563 8340016
-2.6721473 0.90136296 3.380563 7682088
-2.4359226 0.83202744 3.1205199 7814706
-2.4052479 0.83202744 3.1205199 8208687
0 0 0 7879722
0 0 0 7419430
0 0 0 6369057
-0.36186743 0.13190678 0.49471655 6040607
-0.36141178 0.13353525 0.50082415 5514010
-0.36094481 0.13520445 0.50708449 4661017
-0.35596013 0.13520445 0.50708449 4135187
-0.3466424 0.13353525 0.50082415 3412755
-0.3417193 0.13353525 0.50082415 2953489
-0.33679616 0.13353525 0.50082415 2691089
0 0 0 2165519
0 0 0 1378060
0 0 0 1049098
0 0 0 1180681
0 0 0 1180937
-0.44442591 0.19314921 0.72440636 984329
-0.44525596 0.19666101 0.73757738 1443339
-0.43800554 0.19666101 0.73757738 1377803
-0.44701004 0.20408218 0.76541048 1312266
-0.43948603 0.20408218 0.76541048 1049352
-0.2572358 0.12153209 0.45580626 1049095
-0.24188402 0.1163049 0.43620169 1049095
-0.23506851 0.11506762 0.43156123 983305
-0.22140478 0.11037098 0.41394651 917512
-0.21733566 0.11037098 0.41394651 1311497
-0.21326655 0.11037098 0.41394651 5717052
-0.20919743 0.11037098 0.41394651 5187355
-0.20512833 0.11037098 0.41394651 4859427
-0.20105921 0.11037098 0.41394651 5122340
-0.19500029 0.10925612 0.40976521 4662304
-0.19097228 0.10925612 0.40976521 4924963
-0.18694428 0.10925612 0.40976521 4793631
-0.18668774 0.11150882 0.41821399 4989727
-0.18257667 0.11150882 0.41821399 5383197
-0.1784656 0.11150882 0.41821399 6497565
-0.17257543 0.11037098 0.41394651 8532002
-0.17024349 0.11150882 0.41821399 10367777
-0.16613242 0.11150882 0.41821399 10629917
-0.16202137 0.11150882 0.41821399 10498588
-0.1595552 0.11267037 0.42257038 10629663
-0.16041426 0.1163049 0.43620169 10564640
-0.1578234 0.11756908 0.440943 10892322
0 0 0 11089441
-0.15593417 0.12291314 0.46098587 10629662
-0.15140265 0.12291314 0.46098587 10629406
-0.15028675 0.12577158 0.47170648 10760990
-0.14736338 0.12725125 0.47725597 10957599
-0.14267194 0.12725125 0.47725597 11023392
-0.13798049 0.12725125 0.47725597 11023392
-0.13487582 0.12876613 0.48293757 11088414
-0.13012852 0.12876613 0.48293757 11153948
-0.12843929 0.13190678 0.49471655 11023390
-0.12357622 0.13190678 0.49471655 11351072
-0.11588662 0.12876613 0.48293757 10957597
-0.1098318 0.12725125 0.47725597 11220514
-0.10514036 0.12725125 0.47725597 11351587
-0.10044891 0.12725125 0.47725597 11024419
-0.099260785 0.13190678 0.49471655 10761502
-0.094397694 0.13190678 0.49471655 11089441
-0.089534611 0.13190678 0.49471655 11154719
-0.084671527 0.13190678 0.49471655 11613730
-0.078846894 0.13031754 0.48875612 11417376
-0.074042395 0.13031754 0.48875612 11548451
-0.069237903 0.13031754 0.48875612 11351585
-0.066024356 0.13353525 0.50082415 11482658
-0.061101232 0.13353525 0.50082415 11614242
-0.056178108 0.13353525 0.50082415 11745568
-0.051254984 0.13353525 0.50082415 11745825
-0.045766838 0.13190678 0.49471655 11352355
-0.040903751 0.13190678 0.49471655 11417634
-0.036040664 0.13190678 0.49471655 11417378
-0.03117758 0.13190678 0.49471655 11483939
-0.026314493 0.13190678 0.49471655 11811618
-0.021716239 0.13353525 0.50082415 11745568
-0.017439006 0.13867123 0.52008665 11811621
-0.01232653 0.13867123 0.52008665 11811361
-0.0073077437 0.14047214 0.52684098 11942947
-0.002128873 0.14047214 0.52684098 11548962
0.0031313307 0.14421809 0.5408901 11287332
0.0084483046 0.14421809 0.5408901 11548962
0.01414241 0.14816926 0.555709 11352353
0.019877348 0.15022717 0.56342721 11287332
0 0 0 11614755
0 0 0 11680548
0 0 0 11745828
0 0 0 11811875
0 0 0 11942947
0 0 0 11943461
0 0 0 12139811
0 0 0 12008740
0 0 0 12206117
0 0 0 12271397
0 0 0 12402985
0 0 0 12140326
0 0 0 12009512
0 0 0 12206117
0.35298878 0.51506454 1.9317503 12205604
0.37197798 0.51506454 1.9317503 12468774
0.39096716 0.51506454 1.9317503 12468517
0.40995637 0.51506454 1.9317503 12337189
0.42894554 0.51506454 1.9317503 12337446
0.44793475 0.51506454 1.9317503 12534567
0.46692392 0.51506454 1.9317503 12337190
0.51020885 0.5408178 2.028338 12533541
0.53014749 0.5408178 2.028338 12469288
0.44006887 0.43265423 1.6226703 12271653
0.42224056 0.4006058 1.5024725 12469289
0.40687129 0.37297779 1.3988537 12665639
0.42062211 0.37297779 1.3988537 12404264
0.34991151 0.30045435 1.1268544 12140838
0.36098856 0.30045435 1.1268544 12599846
0.39395177 0.31812811 1.1931399 12206118
0.41797373 0.32776836 1.2292956 12468776
0.43005773 0.32776836 1.2292956 12534825
0.44214177 0.32776836 1.2292956 12796455
0.44086626 0.31812811 1.1931399 12665385
0.46630985 0.32776836 1.2292956 12665385
0.54437923 0.37297779 1.3988537 12665384
0.55813003 0.37297779 1.3988537 12534312
0.59230512 0.38629842 1.4488127 12665385
0.60654706 0.38629842 1.4488127 12469800
0.62078893 0.38629842 1.4488127 12403240
0.6585505 0.4006058 1.5024725 12468775
0.64927274 0.38629842 1.4488127 12206376
0.71455425 0.41601372 1.5602599 12271912
0.72989166 0.41601372 1.5602599 12074533
0.74522913 0.41601372 1.5602599 12009254
0.76056653 0.41601372 1.5602599 12206379
0.77590394 0.41601372 1.5602599 12337705
0.79124135 0.41601372 1.5602599 12140583
0.80657881 0.41601372 1.5602599 12075303
0.85479283 0.43265423 1.6226703 12074789
0.87074375 0.43265423 1.6226703 11747111
0.92364031 0.45068148 1.6902815 11943207
0.94025582 0.45068148 1.6902815 12205863
0.91859657 0.43265423 1.6226703 12009254
0.9734869 0.45068148 1.6902815 11615013
0.99010247 0.45068148 1.6902815 11484711
1.006718 0.45068148 1.6902815 11681576
1.0678263 0.47027633 1.763772 11352355
1.0851643 0.47027633 1.763772 11745828
1.1526159 0.49165255 1.8439435 11942693
1.0731802 0.45068148 1.6902815 11746343
1.046204 0.43265423 1.6226703 11550247
1.0621549 0.43265423 1.6226703 11418919
1.0781058 0.43265423 1.6226703 11484454
1.1396424 0.45068148 1.6902815 11615527
1.1562579 0.45068148 1.6902815 11549736
1.2794983 0.49165255 1.8439435 11419433
1.2976243 0.49165255 1.8439435 11221537
1.2585438 0.47027633 1.763772 11287589
1.1738113 0.43265423 1.6226703 11352869
1.1897622 0.43265423 1.6226703 11090727
1.2057132 0.43265423 1.6226703 11156261
1.2216641 0.43265423 1.6226703 11155750
1.1900145 0.41601372 1.5602599 11287593
1.2053518 0.41601372 1.5602599 11025448
1.1754786 0.4006058 1.5024725 11092779
1.2854677 0.43265423 1.6226703 11027758
1.3014187 0.43265423 1.6226703 11093294
1.37226 0.45068148 1.6902815 11356975
1.3888755 0.45068148 1.6902815 10962735
1.3492714 0.43265423 1.6226703 10962480
1.3652223 0.43265423 1.6226703 11093297
1.3811733 0.43265423 1.6226703 10830635
1.3971242 0.43265423 1.6226703 10633771
1.4719532 0.45068148 1.6902815 10829868
1.4885688 0.45068148 1.6902815 10698538
1.5051843 0.45068148 1.6902815 10634540
1.587965 0.47027633 1.763772 10698795
1.605303 0.47027633 1.763772 11028269
1.8660372 0.5408178 2.028338 10765355
1.8859758 0.5408178 2.028338 10633772
2.2422523 0.63625622 2.3862798 10568236
2.2657096 0.63625622 2.3862798 10436652
2.2891667 0.63625622 2.3862798 10634029
2.312624 0.63625622 2.3862798 10371629
2.3360813 0.63625622 2.3862798 10239529
2.0056078 0.5408178 2.028338 10240556
1.9290917 0.51506454 1.9317503 9977643
1.9480809 0.51506454 1.9317503 10109229
1.9670701 0.51506454 1.9317503 10371888
1.8133585 0.47027633 1.763772 10700335
2.1053011 0.5408178 2.028338 10962992
2.2370944 0.56928188 2.1350925 10635570
2.2580824 0.56928188 2.1350925 10503728
2.2790704 0.56928188 2.1350925 10373425
2.1850557 0.5408178 2.028338 10373173
2.2049944 0.5408178 2.028338 10307378
2.2249329 0.5408178 2.028338 9652789
2.4943018 0.6009087 2.2537088 8013362
0 0 0 8343607
0 0 0 8475195
0 0 0 6701362
0 0 0 6568493
2.930706 0.67602223 2.5354223 6765102
2.9556293 0.67602223 2.5354223 7946029
3.179256 0.72109038 2.7044504 9849910
0 0 0 10570035
0 0 0 10897203
0 0 0 10897716
0 0 0 10701107
0 0 0 10766128
0 0 0 10766385
0 0 0 10503985
0 0 0 10307121
0 0 0 10109999
0 0 0 10372403
0 0 0 10502704
0 0 0 10176051
0 0 0 6569254
0 0 0 2955027
-4.0346217 0.93459404 3.380563 2626835
-4.0013905 0.93459404 3.380563 2495508
-4.3289013 1.0195571 3.687887 2693145
-4.2926493 1.0195571 3.687887 2758939
-4.2563972 1.0195571 3.687887 3087132
-4.2201452 1.0195571 3.687887 3217946
-4.6022825 1.121513 4.0566759 3283479
-5.0693393 1.2461255 4.5074177 3546905
-4.5225282 1.121513 4.0566759 3744030
-3.7355418 0.93459404 3.380563 3941409
-3.7023108 0.93459404 3.380563 4860451
-4.0026326 1.0195571 3.687887 5715756
-3.9663804 1.0195571 3.687887 6634285
-3.9301283 1.0195571 3.687887 7094062
-3.5693865 0.93459404 3.380563 7225388
-3.5361555 0.93459404 3.380563 7422253
-3.2334688 0.86270225 3.1205199 8014131
-3.2027938 0.86270225 3.1205199 7882542
-2.945539 0.80108064 2.8976254 7554093
-2.9170551 0.80108064 2.8976254 7159338
-3.1107693 0.86270225 3.1205199 7094060
-3.0800946 0.86270225 3.1205199 7226160
-3.0494196 0.86270225 3.1205199 6896423
-2.3084519 0.65971345 2.3862798 5910817
-2.2849946 0.65971345 2.3862798 4466204
-3.2038445 0.93459404 3.380563 3021077
0 0 0 2364180
-3.1373823 0.93459404 3.380563 2167573
-2.660701 0.80108064 2.8976254 2167573
-2.1677084 0.65971345 2.3862798 2101523
-2.1442511 0.65971345 2.3862798 2298132
-2.0029721 0.62306273 2.2537088 2363926
-1.6206692 0.50977856 1.8439435 2167316
-1.305776 0.41537514 1.5024725 2101780
-1.2910067 0.41537514 1.5024725 2364180
-1.3783362 0.44860515 1.6226703 2429975
-4.8656616 1.6021613 5.7952509 5586752
0 0 0 7554358
-2.3758633 0.80108064 2.8976254 7945777
-2.7386093 0.93459404 3.380563 8012080
-2.3188956 0.80108064 2.8976254 7945258
-2.6721473 0.93459404 3.380563 7550763
-2.2619281 0.80108064 2.8976254 7749424
0 0 0 7879723
0 0 0 7222567
0 0 0 7156773
-0.37125805 0.13845839 0.50082415 6303776
-0.35750759 0.13512205 0.48875612 6040352
-0.36141178 0.13845839 0.50082415 5514780
-0.36094481 0.14018913 0.50708449 4791318
-0.35596013 0.14018913 0.50708449 4069651
-0.35097548 0.14018913 0.50708449 3412754
-0.3417193 0.13845839 0.50082415 2822673
-0.33679616 0.13845839 0.50082415 2559503
0 0 0 2231313
0 0 0 1640204
0 0 0 983817
0 0 0 918025
0 0 0 1049095
-0.436629 0.19675666 0.71169752 852743
-0.44525596 0.20391142 0.73757738 1180938
-0.45453405 0.2116062 0.76541048 1115144
-0.44701004 0.2116062 0.76541048 1180681
-0.43948603 0.2116062 0.76541048 918024
-0.44026899 0.21567556 0.78012997 983559
-0.24994682 0.12461254 0.45074174 983302
-0.23759614 0.12059279 0.43620169 1049098
-0.22140478 0.11444009 0.41394651 1180938
-0.21514034 0.11328413 0.40976521 1575439
-0.21326655 0.11444009 0.41394651 9923414
-0.20919743 0.11444009 0.41394651 6894362
-0.21160606 0.11805399 0.42701849 5056550
0 0 0 4991011
0 0 0 5056289
-0.19097228 0.11328413 0.40976521 6368806
-0.18694428 0.11328413 0.40976521 7681065
-0.17929415 0.11104088 0.40165105 9386026
-0.17709938 0.11215129 0.40566757 10367520
-0.1784656 0.11561989 0.41821399 10367776
-0.17435455 0.11561989 0.41821399 10629662
-0.17024349 0.11561989 0.41821399 10695712
-0.16613242 0.11561989 0.41821399 10695456
-0.16370907 0.11682425 0.42257038 10629663
-0.16470215 0.12059279 0.43620169 10695198
-0.16041426 0.12059279 0.43620169 10760736
-0.1578234 0.12190358 0.440943 10892576
-0.15866269 0.12601268 0.45580626 10827296
-0.15593417 0.12744464 0.46098587 11024161
-0.15140265 0.12744464 0.46098587 10892576
-0.14855932 0.12890953 0.46628457 11285536
-0.14397572 0.12890953 0.46628457 11088925
-0.13939212 0.12890953 0.46628457 10826783
-0.13637607 0.13040848 0.47170648 10891806
-0.13328904 0.13194269 0.47725597 10695456
-0.13012852 0.13351344 0.48293757 10760992
-0.12538122 0.13351344 0.48293757 11023648
-0.1192147 0.13194269 0.47725597 11285792
-0.11452325 0.13194269 0.47725597 11351072
-0.1098318 0.13194269 0.47725597 11220769
-0.10391779 0.13040848 0.47170648 11417378
-0.10044891 0.13194269 0.47725597 11351329
-0.096897431 0.13351344 0.48293757 10892832
-0.094397694 0.13676986 0.49471655 10629918
-0.090639971 0.13845839 0.50082415 11089698
-0.085716851 0.13845839 0.50082415 11285793
-0.078846894 0.13512205 0.48875612 11089696
-0.074042395 0.13512205 0.48875612 11614242
-0.070947476 0.13845839 0.50082415 11352355
-0.066024356 0.13845839 0.50082415 11351585
-0.061101232 0.13845839 0.50082415 11745314
-0.056178108 0.13845839 0.50082415 11745057
-0.051254984 0.13845839 0.50082415 11483170
-0.04467715 0.13351344 0.48293757 11483169
-0.039929852 0.13351344 0.48293757 11614244
-0.036485612 0.13845839 0.50082415 11615009
-0.031957019 0.14018913 0.50708449 11483171
-0.026972357 0.14018913 0.50708449 11155746
