# .PCD v0.7 - Point Cloud Data file format
VERSION 0.7
FIELDS x y z rgb
SIZE 4 4 4 4
TYPE F F F U
COUNT 1 1 1 1
WIDTH 1319
HEIGHT 1
VIEWPOINT 0 0 0 1 0 0 0
POINTS 1319
DATA ascii
-0.072300225 0.1131769 0.47725597 11810848
-0.067608774 0.1131769 0.47725597 11810848
-0.064433411 0.11590406 0.48875612 11680035
-0.060356095 0.11731752 0.49471655 11811107
-0.056178108 0.11876588 0.50082415 11614499
-0.051254984 0.11876588 0.50082415 11614755
-0.04633186 0.11876588 0.50082415 11745569
0 0 0 11745314
-0.037409298 0.12177262 0.51350325 11548705
-0.031957019 0.12025046 0.50708449 11680032
-0.026972357 0.12025046 0.50708449 12335907
-0.021987693 0.12025046 0.50708449 12073507
-0.01700303 0.12025046 0.50708449 12139813
-0.012170497 0.12177262 0.51350325 12205604
-0.0070337038 0.12025046 0.50708449 12270629
-0.0020749776 0.12177262 0.51350325 11942947
0.0030499974 0.12493554 0.52684098 11548964
0 0 0 11089951
0 0 0 11418918
0 0 0 10959650
0 0 0 11418148
0 0 0 11221541
0 0 0 11287332
0 0 0 11681318
0 0 0 12009002
0 0 0 12009767
0 0 0 12271397
0 0 0 12271910
0 0 0 12337190
0 0 0 12469030
0 0 0 12271910
0 0 0 12468776
0 0 0 12271399
0.5844993 0.80166972 3.380563 12337190
0.43604496 0.56588453 2.3862798 12731178
0.41113356 0.50631773 2.1350925 12337190
0.4321216 0.50631773 2.1350925 12534823
0.45310968 0.50631773 2.1350925 12337190
0.45039287 0.48100185 2.028338 12600105
0.52259058 0.53444654 2.2537088 12666409
0.54474461 0.53444654 2.2537088 12601129
0.60024565 0.56588453 2.3862798 12600362
0.66268432 0.60125232 2.5354223 12666152
0.68760765 0.60125232 2.5354223 12731688
0.49567369 0.41826245 1.763772 12731945
0.38062155 0.31032377 1.3086051 12928041
0.38118878 0.30062616 1.2677112 12666155
0.38172162 0.29151624 1.2292956 12863018
0.39380565 0.29151624 1.2292956 12797223
0.41857377 0.30062616 1.2677112 12600362
0.47562528 0.33172539 1.3988537 12599844
0.48937607 0.33172539 1.3988537 12600618
0.50312686 0.33172539 1.3988537 12535082
0.59957808 0.38480148 1.6226703 12534826
0.615529 0.38480148 1.6226703 12535082
0.56382138 0.34357274 1.4488127 12535082
0.57806325 0.34357274 1.4488127 12271910
0.55281812 0.32066789 1.3522252 12599848
0.56611055 0.32066789 1.3522252 12666157
0.57940298 0.32066789 1.3522252 12665639
0.63503081 0.34357274 1.4488127 12731178
0.72718549 0.38480148 1.6226703 12600362
0.74313641 0.38480148 1.6226703 12535338
0.75908732 0.38480148 1.6226703 12600619
0.77503824 0.38480148 1.6226703 12206121
0.79098916 0.38480148 1.6226703 12403498
0.84056258 0.40083486 1.6902815 12075558
0.85717809 0.40083486 1.6902815 12140585
0.91178471 0.41826245 1.763772 12076076
0.9713555 0.4372744 1.8439435 12337190
1.0365998 0.45809698 1.9317503 12009510
1.0555888 0.45809698 1.9317503 12140583
1.074578 0.45809698 1.9317503 12009253
1.0935673 0.45809698 1.9317503 12140840
1.1125565 0.45809698 1.9317503 12140326
1.1315457 0.45809698 1.9317503 12009766
1.1505349 0.45809698 1.9317503 12206117
1.1695241 0.45809698 1.9317503 11943462
1.1885133 0.45809698 1.9317503 12075306
1.2075025 0.45809698 1.9317503 11746343
1.2264916 0.45809698 1.9317503 11812904
1.2454808 0.45809698 1.9317503 11615527
1.26447 0.45809698 1.9317503 11353638
1.3476323 0.48100185 2.028338 11418920
1.3024484 0.45809698 1.9317503 11877929
1.3214376 0.45809698 1.9317503 11681063
1.3404268 0.45809698 1.9317503 11616038
1.359416 0.45809698 1.9317503 11682088
1.3784052 0.45809698 1.9317503 11549991
1.3973943 0.45809698 1.9317503 11549734
1.4163835 0.45809698 1.9317503 11550504
1.4353727 0.45809698 1.9317503 11419176
1.3882545 0.4372744 1.8439435 11614757
1.2891822 0.40083486 1.6902815 11484968
1.3057978 0.40083486 1.6902815 11090982
1.3224133 0.40083486 1.6902815 11224106
1.3390288 0.40083486 1.6902815 11093035
1.4145855 0.41826245 1.763772 11092777
1.4319234 0.41826245 1.763772 11158574
1.4492614 0.41826245 1.763772 11224882
1.4665993 0.41826245 1.763772 11422259
1.551389 0.4372744 1.8439435 11094066
1.5695151 0.4372744 1.8439435 10896687
1.5876411 0.4372744 1.8439435 10961965
1.8593093 0.50631773 2.1350925 10962478
2.1015089 0.56588453 2.3862798 10962478
2.1249661 0.56588453 2.3862798 10831664
1.82616 0.48100185 2.028338 10831668
1.758189 0.45809698 1.9317503 10569008
1.8660372 0.48100185 2.028338 10371629
1.8859758 0.48100185 2.028338 10306092
2.0062258 0.50631773 2.1350925 10306349
2.1398368 0.53444654 2.2537088 10306349
2.1619909 0.53444654 2.2537088 10371888
2.184145 0.53444654 2.2537088 10372401
2.2062991 0.53444654 2.2537088 10437422
2.2284532 0.53444654 2.2537088 10503472
2.0255466 0.48100185 2.028338 10503729
1.9480809 0.45809698 1.9317503 10635314
1.8776579 0.4372744 1.8439435 10634800
1.8957839 0.4372744 1.8439435 10897457
2.0050485 0.45809698 1.9317503 10635056
2.0240376 0.45809698 1.9317503 10372144
2.1451783 0.48100185 2.028338 10306863
2.165117 0.48100185 2.028338 9521970
2.1850557 0.48100185 2.028338 9196347
2.2049944 0.48100185 2.028338 9525826
2.2249329 0.48100185 2.028338 9197891
2.2448716 0.48100185 2.028338 8015419
2.2648103 0.48100185 2.028338 6766383
2.284749 0.48100185 2.028338 7095348
2.3046875 0.48100185 2.028338 8735287
2.446975 0.50631773 2.1350925 10242870
2.467963 0.50631773 2.1350925 10767413
2.6272261 0.53444654 2.2537088 10635825
2.2708972 0.45809698 1.9317503 10831923
2.4043808 0.48100185 2.028338 10897201
2.4243195 0.48100185 2.028338 10569263
3.0553226 0.60125232 2.5354223 10767414
0 0 0 10307379
0 0 0 10176564
0 0 0 10176562
0 0 0 9979442
0 0 0 10045235
0 0 0 10110773
0 0 0 10110772
0 0 0 9979440
0 0 0 9913905
0 0 0 5649186
0 0 0 4597273
-3.7242663 0.77067769 3.1205199 1967878
-4.0013905 0.8349008 3.380563 918539
-3.9681594 0.8349008 3.380563 1247247
-4.2926493 0.91080087 3.687887 2428690
-4.2563972 0.91080087 3.687887 2428174
-4.2201452 0.91080087 3.687887 2230540
-4.1838932 0.91080087 3.687887 1704968
-4.5624051 1.001881 4.0566759 1311495
-4.5225282 1.001881 4.0566759 1049096
-4.4826508 1.001881 4.0566759 852232
-4.4427733 1.001881 4.0566759 918284
-4.4028959 1.001881 4.0566759 721675
-4.3630185 1.001881 4.0566759 655882
-4.3231416 1.001881 4.0566759 721675
-4.2832642 1.001881 4.0566759 786696
-4.2433867 1.001881 4.0566759 852489
-4.2035093 1.001881 4.0566759 720903
-4.1636324 1.001881 4.0566759 720905
-4.123755 1.001881 4.0566759 852491
-4.0838776 1.001881 4.0566759 918282
-4.0440001 1.001881 4.0566759 984075
-3.6401114 0.91080087 3.687887 1444623
-3.3035378 0.8349008 3.380563 1640972
-3.2703068 0.8349008 3.380563 1904658
-3.5313554 0.91080087 3.687887 2233364
-3.4951031 0.91080087 3.687887 2627352
-3.4588511 0.91080087 3.687887 2824475
-3.4225991 0.91080087 3.687887 3152667
-3.3863468 0.91080087 3.687887 2888723
-3.6851046 1.001881 4.0566759 2560532
-2.8040209 0.77067769 3.1205199 4268833
-2.7733459 0.77067769 3.1205199 6634035
-2.3769815 0.66792065 2.7044504 7028274
-2.5182822 0.71562928 2.8976254 7291700
-2.9047649 0.8349008 3.380563 7554356
-3.1325822 0.91080087 3.687887 7685682
-3.0963302 0.91080087 3.687887 7816752
-3.0600781 0.91080087 3.687887 6633769
-3.3262088 1.001881 4.0566759 8013879
0 0 0 8406581
-4.0580673 1.2523513 5.0708447 8340275
-2.9150696 0.91080087 3.687887 8208687
-2.4359226 0.77067769 3.1205199 7946033
-3.9085276 1.2523513 5.0708447 8077872
0 0 0 7682601
0 0 0 7288615
-0.35799882 0.11927155 0.48293757 6566948
-0.35325152 0.11927155 0.48293757 6368803
-0.34850422 0.11927155 0.48293757 5842975
-0.35214126 0.12218061 0.49471655 5186329
-0.34727818 0.12218061 0.49471655 4463381
-0.3466424 0.12368901 0.50082415 3938068
-0.35037041 0.12682037 0.51350325 3478290
0 0 0 3018769
0 0 0 2428174
0 0 0 1114888
0 0 0 1312524
0 0 0 1705996
-0.41453484 0.16424279 0.66502881 1836813
-0.40141696 0.16159371 0.65430254 1575182
-0.39498514 0.16159371 0.65430254 1443853
-0.38855332 0.16159371 0.65430254 1180680
-0.3821215 0.16159371 0.65430254 1311497
-0.34765315 0.14953448 0.605474 1180681
-0.2826418 0.12368901 0.50082415 1114888
-0.27433187 0.12218061 0.49471655 1246474
-0.25693536 0.11649779 0.47170648 1049095
-0.23330826 0.10772914 0.43620169 1049095
-0.22658397 0.10658308 0.43156123 1180681
-0.22473249 0.10772914 0.43620169 1904150
-0.22284074 0.10890011 0.440943 4924963
-0.21615672 0.10772914 0.43620169 5187876
-0.20961492 0.10658308 0.43156123 4925217
-0.20321083 0.10546116 0.42701849 4924963
-0.19490986 0.1032867 0.41821399 5319205
-0.1907988 0.1032867 0.41821399 5318435
-0.18668774 0.1032867 0.41821399 4989213
-0.18257667 0.1032867 0.41821399 4398618
-0.1784656 0.1032867 0.41821399 4332826
-0.17617074 0.1043626 0.42257038 4529432
-0.17567678 0.10658308 0.43156123 4464152
-0.17143452 0.10658308 0.43156123 4463897
-0.16543233 0.10546116 0.42701849 4595223
-0.16294998 0.10658308 0.43156123 4398100
-0.16041426 0.10772914 0.43620169 4463639
-0.15612638 0.10772914 0.43620169 4857366
0 0 0 5907225
0 0 0 7875873
0 0 0 9843749
-0.15761781 0.12218061 0.49471655 10433056
-0.15275472 0.12218061 0.49471655 10629665
-0.14971747 0.12368901 0.50082415 10826783
-0.14479433 0.12368901 0.50082415 10498846
-0.13987121 0.12368901 0.50082415 10695710
-0.13494809 0.12368901 0.50082415 10957855
-0.13002497 0.12368901 0.50082415 11219742
-0.12357622 0.12218061 0.49471655 11285793
-0.11871313 0.12218061 0.49471655 11351331
-0.11385004 0.12218061 0.49471655 11417123
-0.10767386 0.12070855 0.48875612 11417380
-0.10286937 0.12070855 0.48875612 11482657
-0.09806487 0.12070855 0.48875612 11613730
-0.093260378 0.12070855 0.48875612 11613728
-0.087402835 0.11927155 0.48293757 11482658
-0.082655534 0.11927155 0.48293757 11482656
-0.078846894 0.12070855 0.48875612 11811365
-0.074042395 0.12070855 0.48875612 11548449
-0.069237903 0.12070855 0.48875612 11680037
-0.063666344 0.11927155 0.48293757 11811361
-0.060356095 0.12218061 0.49471655 11680291
-0.055493008 0.12218061 0.49471655 11942692
-0.051254984 0.12368901 0.50082415 11811361
-0.04633186 0.12368901 0.50082415 11811104
-0.041408736 0.12368901 0.50082415 11811361
-0.036485612 0.12368901 0.50082415 11942692
-0.031562489 0.12368901 0.50082415 11942693
-0.026639363 0.12368901 0.50082415 11680034
-0.021716239 0.12368901 0.50082415 11876896
-0.01700303 0.12523513 0.50708449 12335650
-0.012018367 0.12523513 0.50708449 12074018
-0.0070337038 0.12523513 0.50708449 11811361
-0.0020749776 0.12682037 0.51350325 12008740
0.0030108951 0.12844628 0.52008665 11353123
0.0082288682 0.13011441 0.52684098 11418146
0 0 0 11155746
0 0 0 11090468
0 0 0 11746341
0 0 0 11484711
0 0 0 11615525
0 0 0 11680550
0 0 0 11680035
0 0 0 11615779
0 0 0 11877927
0 0 0 12271397
0 0 0 12664615
0 0 0 12205606
0 0 0 12140326
0 0 0 12402983
0 0 0 12402983
0 0 0 12272937
0.43604496 0.58934176 2.3862798 12271397
0.41113356 0.52730578 2.1350925 12403753
0.41051555 0.5009405 2.028338 12600105
0.43045419 0.5009405 2.028338 12206375
0.45039287 0.5009405 2.028338 12796713
0.47033152 0.5009405 2.028338 12796711
0.54474461 0.55660057 2.2537088 12534567
0.5668987 0.55660057 2.2537088 12534823
0.58905274 0.55660057 2.2537088 12665384
0.52389151 0.47708619 1.9317503 12534312
0.43848059 0.38533884 1.5602599 12797225
0.36872712 0.31308782 1.2677112 12797223
0.36963758 0.30360028 1.2292956 12796453
0.38172162 0.30360028 1.2292956 12993834
0.39380565 0.30360028 1.2292956 12600616
0.40588969 0.30360028 1.2292956 12272164
0.4597711 0.33396032 1.3522252 12534823
0.48937607 0.34547618 1.3988537 12600361
0.50312686 0.34547618 1.3988537 12666409
0.51687765 0.34547618 1.3988537 12338218
0.46630985 0.30360028 1.2292956 12468776
0.49334371 0.31308782 1.2677112 12600362
0.52212167 0.32318741 1.3086051 12599849
0.55281812 0.33396032 1.3522252 12862761
0.56611055 0.33396032 1.3522252 12796971
0.57940298 0.33396032 1.3522252 12600875
0.63503081 0.35781464 1.4488127 12534569
0.64927274 0.35781464 1.4488127 12403240
0.74313641 0.4007524 1.6226703 12141610
0.75908732 0.4007524 1.6226703 12403753
0.77503824 0.4007524 1.6226703 12337705
0.79098916 0.4007524 1.6226703 12599592
0.80694008 0.4007524 1.6226703 12403496
0.85717809 0.4174504 1.6902815 12403241
0.87379366 0.4174504 1.6902815 12403498
0.92912263 0.43560043 1.763772 12141353
0.98948157 0.45540044 1.8439435 12009257
1.0555888 0.47708619 1.9317503 11943978
1.074578 0.47708619 1.9317503 12075048
1.0935673 0.47708619 1.9317503 12271910
1.1125565 0.47708619 1.9317503 11550504
1.1315457 0.47708619 1.9317503 11747368
1.1505349 0.47708619 1.9317503 11877927
1.1695241 0.47708619 1.9317503 11616040
1.1885133 0.47708619 1.9317503 11812647
1.2075025 0.47708619 1.9317503 11811878
1.2264916 0.47708619 1.9317503 11680548
1.2454808 0.47708619 1.9317503 11812647
1.26447 0.47708619 1.9317503 12009254
1.2834592 0.47708619 1.9317503 11681318
1.3024484 0.47708619 1.9317503 11615527
1.3214376 0.47708619 1.9317503 11614755
1.3404268 0.47708619 1.9317503 11418661
1.2976243 0.45540044 1.8439435 11418918
1.3784052 0.47708619 1.9317503 11550246
1.3338765 0.45540044 1.8439435 11549736
1.4163835 0.47708619 1.9317503 11287847
1.3701285 0.45540044 1.8439435 11025444
1.2216641 0.4007524 1.6226703 11222309
1.237615 0.4007524 1.6226703 11157287
1.2535659 0.4007524 1.6226703 11025188
1.3224133 0.4174504 1.6902815 11224619
1.3972476 0.43560043 1.763772 11487021
1.4145855 0.43560043 1.763772 11291700
1.3173696 0.4007524 1.6226703 11226165
1.3333205 0.4007524 1.6226703 11290930
1.405491 0.4174504 1.6902815 11093553
1.4221066 0.4174504 1.6902815 10962479
1.5012753 0.43560043 1.763772 10765358
1.5876411 0.45540044 1.8439435 10961709
1.6057671 0.45540044 1.8439435 10371372
1.6238931 0.45540044 1.8439435 10306349
1.8062212 0.5009405 2.028338 10437421
1.82616 0.5009405 2.028338 10502957
1.758189 0.47708619 1.9317503 10634031
1.8660372 0.5009405 2.028338 10568494
2.0955288 0.55660057 2.2537088 10502443
2.2422523 0.58934176 2.3862798 10437935
2.2657096 0.58934176 2.3862798 10634543
2.1619909 0.55660057 2.2537088 10699568
2.184145 0.55660057 2.2537088 10568752
2.2062991 0.55660057 2.2537088 10634542
2.2284532 0.55660057 2.2537088 10765358
2.0255466 0.5009405 2.028338 10437678
1.9480809 0.47708619 1.9317503 10436909
1.9670701 0.47708619 1.9317503 10634544
1.9860593 0.47708619 1.9317503 10700336
2.0050485 0.47708619 1.9317503 10831921
2.0240376 0.47708619 1.9317503 10700593
2.1451783 0.5009405 2.028338 10766386
2.165117 0.5009405 2.028338 10372655
2.1850557 0.5009405 2.028338 9587250
2.2049944 0.5009405 2.028338 8801590
2.2249329 0.5009405 2.028338 9131839
2.2448716 0.5009405 2.028338 9329219
2.2648103 0.5009405 2.028338 8344383
2.284749 0.5009405 2.028338 6043180
2.3046875 0.5009405 2.028338 7095089
2.446975 0.52730578 2.1350925 8473142
2.467963 0.52730578 2.1350925 10309175
0 0 0 10701365
0 0 0 10570292
2.4043808 0.5009405 2.028338 10635314
2.4243195 0.5009405 2.028338 10831923
3.0553226 0.62617564 2.5354223 10569266
0 0 0 10702138
0 0 0 10503728
0 0 0 10307380
0 0 0 9978930
0 0 0 9781552
0 0 0 9781551
0 0 0 9716270
0 0 0 9716270
0 0 0 9453614
0 0 0 6109477
0 0 0 4663579
-3.7242663 0.80135256 3.1205199 1705217
-4.0013905 0.86813188 3.380563 852489
-3.9681594 0.86813188 3.380563 852489
-4.2926493 0.94705296 3.687887 852489
-4.2563972 0.94705296 3.687887 852489
-4.2201452 0.94705296 3.687887 917768
-4.1838932 0.94705296 3.687887 852489
-4.5624051 1.0417583 4.0566759 721416
-5.0250311 1.1575093 4.5074177 721416
-4.4826508 1.0417583 4.0566759 786696
-4.4427733 1.0417583 4.0566759 786952
-4.4028959 1.0417583 4.0566759 721416
-4.3630185 1.0417583 4.0566759 852744
-4.3231416 1.0417583 4.0566759 1115915
-4.2832642 1.0417583 4.0566759 1509900
-3.8576241 0.94705296 3.687887 1773074
-3.821372 0.94705296 3.687887 2036246
-3.4696932 0.86813188 3.380563 2233110
-3.7488678 0.94705296 3.687887 2561559
-3.7126157 0.94705296 3.687887 2890008
-3.6763637 0.94705296 3.687887 3349274
-3.6401114 0.94705296 3.687887 3546653
-3.3035378 0.86813188 3.380563 4204324
-3.2703068 0.86813188 3.380563 4533543
-3.2370756 0.86813188 3.380563 5322285
-2.9573951 0.80135256 3.1205199 6176048
-3.1706135 0.86813188 3.380563 6831919
-3.1373823 0.86813188 3.380563 7290923
-3.1041512 0.86813188 3.380563 7421996
-2.8346958 0.80135256 3.1205199 7421996
-2.4301512 0.69450551 2.7044504 6831915
-2.2533436 0.65109891 2.5354223 7290412
-2.2284203 0.65109891 2.5354223 7356462
-2.3503966 0.69450551 2.7044504 7487533
-2.6813214 0.80135256 3.1205199 7488302
-3.1325822 0.94705296 3.687887 6832687
-3.4059634 1.0417583 4.0566759 7029548
-3.0600781 0.94705296 3.687887 6569524
-3.3262088 1.0417583 4.0566759 7947061
-2.9875739 0.94705296 3.687887 8012082
-2.4972725 0.80135256 3.1205199 8274485
-2.4665976 0.80135256 3.1205199 8011053
-2.4359226 0.80135256 3.1205199 7486766
-3.9085276 1.3021978 5.0708447 8077358
0 0 0 7551529
0 0 0 7157286
-0.35378709 0.1225598 0.47725597 6435363
-0.34909564 0.1225598 0.47725597 5712416
-0.34850422 0.12401884 0.48293757 5580317
-0.35214126 0.12704369 0.49471655 4726295
-0.34727818 0.12704369 0.49471655 3938068
-0.34241509 0.12704369 0.49471655 3609364
-0.3417193 0.12861213 0.50082415 3346706
-0.33679616 0.12861213 0.50082415 2822418
0 0 0 2427920
0 0 0 1115145
0 0 0 1049098
0 0 0 1443853
0 0 0 1312267
-0.40799758 0.17078005 0.66502881 1115144
-0.40146032 0.17078005 0.66502881 1312524
-0.41535008 0.1796135 0.69942683 1442826
-0.40847468 0.1796135 0.69942683 1245704
-0.34765315 0.15548632 0.605474 983305
-0.27919495 0.12704369 0.49471655 1049352
-0.26464957 0.1225598 0.47725597 1114634
-0.23759614 0.11201702 0.43620169 1049097
-0.23082624 0.11082534 0.43156123 1114888
-0.22419889 0.10965877 0.42701849 1114889
-0.22473249 0.11201702 0.43620169 2166806
-0.2204446 0.11201702 0.43620169 4925476
-0.21615672 0.11201702 0.43620169 4925475
-0.20313199 0.10739776 0.41821399 4990756
-0.19500029 0.10522811 0.40976521 4793377
-0.19097228 0.10522811 0.40976521 4858912
-0.18885188 0.10630187 0.41394651 4662046
-0.18478276 0.10630187 0.41394651 4727067
-0.18071365 0.10630187 0.41394651 4333082
-0.1784656 0.10739776 0.41821399 4529691
-0.17435455 0.10739776 0.41821399 4726557
-0.17024349 0.10739776 0.41821399 4529432
-0.16786297 0.10851648 0.42257038 5055004
-0.16370907 0.10851648 0.42257038 6106664
-0.16123472 0.10965877 0.42701849 7681066
-0.16041426 0.11201702 0.43620169 8991270
-0.15612638 0.11201702 0.43620169 9711904
-0.15866269 0.11705149 0.45580626 10367519
-0.15772651 0.11974233 0.46628457 10695456
-0.15492365 0.12113468 0.47170648 10892322
-0.15028675 0.12113468 0.47170648 10760990
-0.14911771 0.12401884 0.48293757 10760990
-0.14971747 0.12861213 0.50082415 11089185
-0.14479433 0.12861213 0.50082415 11285792
-0.13987121 0.12861213 0.50082415 11154976
-0.13494809 0.12861213 0.50082415 11219998
-0.12843929 0.12704369 0.49471655 11154204
-0.12510183 0.12861213 0.50082415 11219488
-0.12017871 0.12861213 0.50082415 11154978
-0.11525559 0.12861213 0.50082415 10892319
-0.10898695 0.12704369 0.49471655 11089185
-0.10286937 0.12551305 0.48875612 11154976
-0.09806487 0.12551305 0.48875612 11351585
-0.092150129 0.12401884 0.48293757 11351587
-0.087402835 0.12401884 0.48293757 11417121
-0.083651386 0.12551305 0.48875612 11614242
-0.078846894 0.12551305 0.48875612 11417378
-0.074042395 0.12551305 0.48875612 11220769
-0.069237903 0.12551305 0.48875612 11482915
-0.063666344 0.12401884 0.48293757 11352355
-0.058919042 0.12401884 0.48293757 11483170
-0.054171745 0.12401884 0.48293757 11745572
-0.051254984 0.12861213 0.50082415 11548449
-0.046911009 0.13021979 0.50708449 11745314
-0.041926347 0.13021979 0.50708449 11942693
-0.036485612 0.12861213 0.50082415 12008484
-0.031562489 0.12861213 0.50082415 11811621
-0.026639363 0.12861213 0.50082415 11745568
-0.021716239 0.12861213 0.50082415 11942947
-0.01700303 0.13021979 0.50708449 12074020
-0.012018367 0.13021979 0.50708449 12008225
-0.0071227378 0.13186814 0.51350325 12008486
-0.0021015799 0.13355877 0.52008665 11483171
0.0030499974 0.13529328 0.52684098 11418146
0.0082288682 0.13529328 0.52684098 11286560
0.013584157 0.13707346 0.53377312 11089953
0 0 0 11222052
0 0 0 11287845
0 0 0 11746343
0 0 0 11812388
0 0 0 11746341
0 0 0 11746595
0 0 0 11484711
0 0 0 11549734
0 0 0 12271399
0 0 0 12271397
0 0 0 12206117
0 0 0 12271910
0 0 0 12205606
0 0 0 12534823
0 0 0 12664615
0.39014551 0.54829383 2.1350925 12337447
0.3905769 0.52087915 2.028338 12337190
0.41051555 0.52087915 2.028338 12599078
0.43045419 0.52087915 2.028338 12206374
0.45039287 0.52087915 2.028338 12206117
0.47033152 0.52087915 2.028338 12206117
0.49027017 0.52087915 2.028338 12402725
0.51020885 0.52087915 2.028338 12140841
0.53014749 0.52087915 2.028338 12469290
0.52389151 0.49607536 1.9317503 12403494
0.43848059 0.40067628 1.5602599 12338729
0.39330891 0.34725276 1.3522252 12600362
0.36963758 0.31568432 1.2292956 12534569
0.37049454 0.30639949 1.1931399 12469030
0.39380565 0.31568432 1.2292956 12600616
0.39395177 0.30639949 1.1931399 12796458
0.43103543 0.32554945 1.2677112 12665640
0.44349706 0.32554945 1.2677112 12534825
0.48635596 0.34725276 1.3522252 12535080
0.45422581 0.31568432 1.2292956 12534569
0.46630985 0.31568432 1.2292956 12338217
0.49334371 0.32554945 1.2677112 12271912
0.52212167 0.33605108 1.3086051 12731177
0.55281812 0.34725276 1.3522252 12928041
0.58563161 0.359227 1.3988537 12534571
0.57940298 0.34725276 1.3522252 12468006
0.59269542 0.34725276 1.3522252 12271912
0.60598785 0.34725276 1.3522252 12468776
0.66351461 0.37205651 1.4488127 12271399
0.70285863 0.38583642 1.5024725 12337192
0.74522913 0.40067628 1.5602599 12402983
0.76056653 0.40067628 1.5602599 12271397
0.77590394 0.40067628 1.5602599 12271912
0.79124135 0.40067628 1.5602599 12141353
0.83884192 0.41670331 1.6226703 11813160
0.85479283 0.41670331 1.6226703 12008999
0.9464606 0.45293838 1.763772 12009000
1.0076076 0.47352648 1.8439435 11616297
1.074578 0.49607536 1.9317503 12074791
1.0935673 0.49607536 1.9317503 12206119
1.1125565 0.49607536 1.9317503 12009254
1.1315457 0.49607536 1.9317503 12271912
1.1505349 0.49607536 1.9317503 12074790
1.0233335 0.43406594 1.6902815 11943463
1.0399491 0.43406594 1.6902815 11418918
1.0565646 0.43406594 1.6902815 11419175
1.0731802 0.43406594 1.6902815 11419431
1.2454808 0.49607536 1.9317503 11419430
1.26447 0.49607536 1.9317503 11287845
1.2251202 0.47352648 1.8439435 11419174
1.2432462 0.47352648 1.8439435 11418661
1.2613722 0.47352648 1.8439435 11485224
1.3404268 0.49607536 1.9317503 11418404
1.359416 0.49607536 1.9317503 11222052
1.3157504 0.47352648 1.8439435 11222569
1.3338765 0.47352648 1.8439435 11615786
1.2932198 0.45293838 1.763772 11353124
1.2057132 0.41670331 1.6226703 11090725
1.2216641 0.41670331 1.6226703 11221541
1.237615 0.41670331 1.6226703 11157031
1.3625716 0.45293838 1.763772 10894372
1.4426327 0.47352648 1.8439435 11224363
1.3972476 0.45293838 1.763772 11028016
1.2050173 0.38583642 1.5024725 11224623
1.1762228 0.37205651 1.4488127 10961965
1.1904647 0.37205651 1.4488127 10896687
1.3492714 0.41670331 1.6226703 10830892
1.4221066 0.43406594 1.6902815 10963246
1.4387221 0.43406594 1.6902815 11093810
1.3971242 0.41670331 1.6226703 10831152
1.4719532 0.43406594 1.6902815 10962994
1.4885688 0.43406594 1.6902815 10831408
1.6420193 0.47352648 1.8439435 10764331
1.6601453 0.47352648 1.8439435 10765613
1.758189 0.49607536 1.9317503 10568234
1.7771782 0.49607536 1.9317503 10699564
2.0955288 0.57875466 2.2537088 10567980
2.5412192 0.69450551 2.7044504 10370860
2.7512186 0.74411303 2.8976254 10239532
2.1619909 0.57875466 2.2537088 10239532
2.184145 0.57875466 2.2537088 10436911
2.2062991 0.57875466 2.2537088 10567720
2.2284532 0.57875466 2.2537088 10043177
1.9290917 0.49607536 1.9317503 10174766
1.9480809 0.49607536 1.9317503 10437422
1.9670701 0.49607536 1.9317503 10569521
1.9860593 0.49607536 1.9317503 10766128
2.0050485 0.49607536 1.9317503 10898227
2.0240376 0.49607536 1.9317503 10832178
2.0430269 0.49607536 1.9317503 10635827
2.062016 0.49607536 1.9317503 10503983
2.0810053 0.49607536 1.9317503 10438190
2.0999944 0.49607536 1.9317503 9586735
2.1189837 0.49607536 1.9317503 8277303
2.1379728 0.49607536 1.9317503 8672574
2.1569622 0.49607536 1.9317503 9001280
2.1759512 0.49607536 1.9317503 7292467
2.1949403 0.49607536 1.9317503 5978156
2.446975 0.54829383 2.1350925 7421998
2.930706 0.65109891 2.5354223 8536879
0 0 0 10373426
0 0 0 10570034
0 0 0 10767156
0 0 0 10767157
0 0 0 10832950
0 0 0 10636085
0 0 0 10439218
0 0 0 10438964
0 0 0 10308148
0 0 0 10373942
0 0 0 10439735
0 0 0 10438708
0 0 0 10504497
0 0 0 10175791
0 0 0 6701100
0 0 0 3611922
-3.7242663 0.83202744 3.1205199 1443077
-3.6935916 0.83202744 3.1205199 1049609
-3.9681594 0.90136296 3.380563 852743
-4.2926493 0.9833051 3.687887 852489
-4.2563972 0.9833051 3.687887 918282
-4.2201452 0.9833051 3.687887 1049868
-4.1838932 0.9833051 3.687887 1313039
-4.1476407 0.9833051 3.687887 1838866
-4.1113887 0.9833051 3.687887 2429973
-4.0751367 0.9833051 3.687887 2889239
-4.0388846 0.9833051 3.687887 3217947
-4.0026326 0.9833051 3.687887 3283739
-3.6358488 0.90136296 3.380563 3546652
-3.6026175 0.90136296 3.380563 3677979
-3.5693865 0.90136296 3.380563 3546648
-3.5361555 0.90136296 3.380563 3677719
-3.5029244 0.90136296 3.380563 3875093
-3.4696932 0.90136296 3.380563 4664607
-3.4364622 0.90136296 3.380563 5586224
-3.4032311 0.90136296 3.380563 6242099
-3.3699999 0.90136296 3.380563 7161400
-3.0800946 0.83202744 3.1205199 7686453
-3.0494196 0.83202744 3.1205199 8013872
-3.0187449 0.83202744 3.1205199 8276785
-2.98807 0.83202744 3.1205199 7948334
-2.9573951 0.83202744 3.1205199 7488558
-2.9267204 0.83202744 3.1205199 7093801
-2.8960454 0.83202744 3.1205199 6896681
-2.660701 0.77259684 2.8976254 6962991
-2.3031902 0.67602223 2.5354223 7094067
-2.2782669 0.67602223 2.5354223 6568495
-2.2533436 0.67602223 2.5354223 5582116
-1.9808182 0.6009087 2.2537088 4596251
-1.9586641 0.6009087 2.2537088 3676948
-2.3238118 0.72109038 2.7044504 2954772
-3.1325822 0.9833051 3.687887 2823961
0 0 0 4530466
0 0 0 7684664
0 0 0 7618610
0 0 0 7683374
-2.4972725 0.83202744 3.1205199 8077359
-2.4665976 0.83202744 3.1205199 7485225
-3.1666996 1.0816356 4.0566759 7420974
0 0 0 8077873
0 0 0 7682345
-0.36274612 0.12876613 0.48293757 7025701
-0.34967327 0.12577158 0.47170648 5843742
-0.34909564 0.12725125 0.47725597 5777694
-0.34440419 0.12725125 0.47725597 5645852
-0.3478986 0.13031754 0.48875612 4858652
-0.34309411 0.13031754 0.48875612 4266519
-0.33828959 0.13031754 0.48875612 3478548
-0.33755198 0.13190678 0.49471655 3019282
-0.33679616 0.13353525 0.50082415 2690319
-0.3491132 0.14047214 0.52684098 2034189
0 0 0 1443338
0 0 0 1049098
0 0 0 1049352
0 0 0 1245961
0 0 0 1049352
0 0 0 1312267
0 0 0 1245960
0 0 0 1180681
-0.43948603 0.20408218 0.76541048 917766
-0.25437763 0.12018173 0.45074174 983559
-0.24720015 0.11886105 0.44578853 1049352
-0.23506851 0.11506762 0.43156123 983305
-0.21916835 0.10925612 0.40976521 983559
-0.21514034 0.10925612 0.40976521 1312267
-0.21111234 0.10925612 0.40976521 5453882
-0.21135411 0.11150882 0.41821399 5581081
-0.20305631 0.10925612 0.40976521 5188392
-0.1990283 0.10925612 0.40976521 4990242
-0.1930503 0.10816356 0.40566757 4662304
-0.18719065 0.10709263 0.40165105 4727841
-0.18507484 0.10816356 0.40566757 4793377
-0.18108711 0.10816356 0.40566757 5055775
-0.17709938 0.10816356 0.40566757 5448478
-0.17664453 0.11037098 0.41394651 6629665
-0.17257543 0.11037098 0.41394651 8794405
-0.17024349 0.11150882 0.41821399 10236706
-0.16613242 0.11150882 0.41821399 10629663
-0.16543233 0.11385638 0.42701849 10563614
-0.16294998 0.11506762 0.43156123 10760990
-0.16041426 0.1163049 0.43620169 10760736
-0.15612638 0.1163049 0.43620169 10892576
-0.15866269 0.12153209 0.45580626 10892576
-0.15593417 0.12291314 0.46098587 10957600
-0.15314291 0.12432593 0.46628457 10629919
-0.15028675 0.12577158 0.47170648 10760736
-0.14911771 0.12876613 0.48293757 10826783
-0.14971747 0.13353525 0.50082415 11088415
-0.14479433 0.13353525 0.50082415 11285279
-0.13987121 0.13353525 0.50082415 11351072
-0.13494809 0.13353525 0.50082415 11154205
-0.13002497 0.13353525 0.50082415 11220511
-0.12510183 0.13353525 0.50082415 11023391
-0.12017871 0.13353525 0.50082415 11089184
-0.11525559 0.13353525 0.50082415 11417123
-0.11033247 0.13353525 0.50082415 11286048
-0.10412387 0.13190678 0.49471655 11220257
-0.09806487 0.13031754 0.48875612 10892063
-0.093260378 0.13031754 0.48875612 11024161
-0.088455878 0.13031754 0.48875612 11220514
-0.083651386 0.13031754 0.48875612 11482656
-0.078846894 0.13031754 0.48875612 11547935
-0.074042395 0.13031754 0.48875612 11548451
-0.069237903 0.13031754 0.48875612 11679523
-0.063666344 0.12876613 0.48293757 11614244
-0.058919042 0.12876613 0.48293757 11680035
-0.054171745 0.12876613 0.48293757 11483169
-0.051895674 0.13520445 0.50708449 11745314
-0.046911009 0.13520445 0.50708449 11286305
-0.041926347 0.13520445 0.50708449 11352355
-0.037888907 0.13867123 0.52008665 11614242
-0.031562489 0.13353525 0.50082415 11615009
-0.026639363 0.13353525 0.50082415 11680289
-0.021987693 0.13520445 0.50708449 11811107
-0.017218258 0.13691589 0.51350325 12074018
-0.012170497 0.13691589 0.51350325 11942693
-0.0072140549 0.13867123 0.52008665 11746341
-0.0021015799 0.13867123 0.52008665 11418148
0.0030499974 0.14047214 0.52684098 11352353
0.0082288682 0.14047214 0.52684098 11548962
0.013584157 0.14232047 0.53377312 11222052
0.01934012 0.14616697 0.54819942 11156261
0 0 0 11548962
0 0 0 11483941
0 0 0 11746595
0 0 0 11418918
0 0 0 11811875
0 0 0 12009254
0 0 0 12467238
0 0 0 12140324
0 0 0 12140324
0 0 0 12336420
0 0 0 12468006
0 0 0 12139811
0 0 0 12075045
0 0 0 12271910
0.43604496 0.63625622 2.3862798 12074535
0.37197798 0.51506454 1.9317503 12271910
0.39096716 0.51506454 1.9317503 12468774
0.40995637 0.51506454 1.9317503 12402982
0.45039287 0.5408178 2.028338 12271398
0.47033152 0.5408178 2.028338 12535080
0.49027017 0.5408178 2.028338 12468005
0.48591313 0.51506454 1.9317503 12665127
0.5049023 0.51506454 1.9317503 12534826
0.50007826 0.49165255 1.8439435 12337703
0.43848059 0.41601372 1.5602599 12403498
0.40687129 0.37297779 1.3988537 12731432
0.39348519 0.34891471 1.3086051 12338217
0.37049454 0.31812811 1.1931399 12666409
0.38222316 0.31812811 1.1931399 12600875
0.40588969 0.32776836 1.2292956 12337190
0.43103543 0.33801112 1.2677112 12468776
0.44349706 0.33801112 1.2677112 12599846
0.45595872 0.33801112 1.2677112 12534569
0.46842039 0.33801112 1.2677112 12862248
0.46630985 0.32776836 1.2292956 12469030
0.50925803 0.34891471 1.3086051 12731175
0.53952569 0.36054519 1.3522252 12599850
0.55281812 0.36054519 1.3522252 12731178
0.58563161 0.37297779 1.3988537 12534826
0.57940298 0.36054519 1.3522252 12469030
0.59269542 0.36054519 1.3522252 12469033
0.60598785 0.36054519 1.3522252 12205865
0.64063483 0.37297779 1.3988537 12533799
0.67775649 0.38629842 1.4488127 11943975
0.69199842 0.38629842 1.4488127 12075047
0.7062403 0.38629842 1.4488127 12009513
0.72048217 0.38629842 1.4488127 12075047
0.7347241 0.38629842 1.4488127 12075048
0.74896598 0.38629842 1.4488127 12206117
0.85479283 0.43265423 1.6226703 12074534
0.87074375 0.43265423 1.6226703 12271912
1.0076076 0.49165255 1.8439435 12205865
1.074578 0.51506454 1.9317503 12140326
1.0935673 0.51506454 1.9317503 11877927
1.1125565 0.51506454 1.9317503 11877671
1.1315457 0.51506454 1.9317503 11680807
1.0504884 0.47027633 1.763772 11615012
0.98240024 0.43265423 1.6226703 11353125
0.99835116 0.43265423 1.6226703 11746598
1.014302 0.43265423 1.6226703 11615527
1.0302529 0.43265423 1.6226703 11943207
1.046204 0.43265423 1.6226703 11615525
1.1064112 0.45068148 1.6902815 11549733
1.1230268 0.45068148 1.6902815 11549477
1.1396424 0.45068148 1.6902815 11484199
1.1562579 0.45068148 1.6902815 11681320
1.3404268 0.51506454 1.9317503 11288617
1.189489 0.45068148 1.6902815 11222052
1.2061045 0.45068148 1.6902815 11288617
1.22272 0.45068148 1.6902815 11353383
1.1897622 0.43265423 1.6226703 11221543
1.1593395 0.41601372 1.5602599 11155748
1.174677 0.41601372 1.5602599 11156007
1.3452337 0.47027633 1.763772 11091238
1.3625716 0.47027633 1.763772 11222311
1.4426327 0.49165255 1.8439435 11093034
1.1902479 0.4006058 1.5024725 11027759
1.1619809 0.38629842 1.4488127 11094066
1.0978079 0.36054519 1.3522252 11094064
1.1111003 0.36054519 1.3522252 11290927
1.2047065 0.38629842 1.4488127 11159341
1.3127139 0.41601372 1.5602599 10962220
1.1906666 0.37297779 1.3988537 10699307
1.2044173 0.37297779 1.3988537 10436650
1.3587261 0.41601372 1.5602599 10437164
1.429026 0.43265423 1.6226703 10699306
1.5051843 0.45068148 1.6902815 10765099
1.587965 0.47027633 1.763772 10896174
1.758189 0.51506454 1.9317503 10896429
1.7771782 0.51506454 1.9317503 10699564
2.0955288 0.6009087 2.2537088 10633772
2.2422523 0.63625622 2.3862798 10568751
2.7512186 0.77259684 2.8976254 10700082
1.9457918 0.5408178 2.028338 10700083
1.5725844 0.43265423 1.6226703 10437167
1.5274378 0.41601372 1.5602599 10108972
1.5427752 0.41601372 1.5602599 10371118
1.6204371 0.43265423 1.6226703 10501931
1.9480809 0.51506454 1.9317503 10305577
1.9670701 0.51506454 1.9317503 10306860
1.9860593 0.51506454 1.9317503 10503213
2.0050485 0.51506454 1.9317503 10831922
2.0240376 0.51506454 1.9317503 10701619
2.0430269 0.51506454 1.9317503 10439216
1.9682881 0.49165255 1.8439435 10373425
2.0810053 0.51506454 1.9317503 10504241
2.0999944 0.51506454 1.9317503 10569521
2.1189837 0.51506454 1.9317503 9521204
2.1379728 0.51506454 1.9317503 8079156
2.2648103 0.5408178 2.028338 8671543
2.1759512 0.51506454 1.9317503 8344123
2.1949403 0.51506454 1.9317503 6635058
2.2139297 0.51506454 1.9317503 6830895
2.467963 0.56928188 2.1350925 6830895
2.9556293 0.67602223 2.5354223 7945773
0 0 0 9849397
0 0 0 10570291
0 0 0 10635314
0 0 0 10897716
0 0 0 10962994
0 0 0 10635314
0 0 0 10505012
0 0 0 10438963
0 0 0 10176307
0 0 0 9913392
0 0 0 10241587
0 0 0 10110769
0 0 0 10307632
0 0 0 6437930
0 0 0 2889488
-4.0346217 0.93459404 3.380563 2561299
-4.0013905 0.93459404 3.380563 2429974
-3.6629167 0.86270225 3.1205199 2495768
-3.6322417 0.86270225 3.1205199 2693402
-3.9016974 0.93459404 3.380563 3087388
-3.8684664 0.93459404 3.380563 3284252
-4.1838932 1.0195571 3.687887 3218458
-3.8020041 0.93459404 3.380563 3678237
-4.1113887 1.0195571 3.687887 3809566
-3.7355418 0.93459404 3.380563 4138531
-4.0388846 1.0195571 3.687887 4336418
-3.6690798 0.93459404 3.380563 5781289
-3.6358488 0.93459404 3.380563 6831148
-3.3254933 0.86270225 3.1205199 7224876
-3.2948184 0.86270225 3.1205199 7421995
-3.2641437 0.86270225 3.1205199 7685166
-3.2334688 0.86270225 3.1205199 7751472
-3.2027938 0.86270225 3.1205199 7882802
-3.1721191 0.86270225 3.1205199 7816751
-2.9170551 0.80108064 2.8976254 7487531
-2.5275002 0.70094556 2.5354223 7290925
-2.2245128 0.62306273 2.2537088 7357230
-1.8877358 0.53405374 1.9317503 7355943
-1.8687468 0.53405374 1.9317503 6107936
-2.1580505 0.62306273 2.2537088 4466203
-2.2615373 0.65971345 2.3862798 2956053
-2.9267204 0.86270225 3.1205199 2233364
-2.5099058 0.74767524 2.7044504 2232594
-2.3281136 0.70094556 2.5354223 2429973
-2.1677084 0.65971345 2.3862798 2298386
-2.1442511 0.65971345 2.3862798 2495509
-2.0029721 0.62306273 2.2537088 2429975
-1.6206692 0.50977856 1.8439435 2364180
-1.6025432 0.50977856 1.8439435 2232596
-1.6598656 0.53405374 1.9317503 2298389
0 0 0 3022112
0 0 0 6636092
0 0 0 7289902
0 0 0 7355181
0 0 0 7617068
0 0 0 7617068
0 0 0 7682348
0 0 0 7354924
0 0 0 7617324
0 0 0 7156773
-0.35431018 0.13040848 0.47170648 6763301
-0.34565404 0.12890953 0.46628457 5778207
-0.34909564 0.13194269 0.47725597 5646108
-0.34440419 0.13194269 0.47725597 5580572
-0.3478986 0.13512205 0.48875612 4529174
-0.34309411 0.13512205 0.48875612 4201240
-0.33828959 0.13512205 0.48875612 3675667
-0.33755198 0.13676986 0.49471655 3085075
-0.34100616 0.14018913 0.50708449 2756113
-0.3491132 0.14565103 0.52684098 2034704
0 0 0 1705739
0 0 0 983815
0 0 0 983305
0 0 0 1049353
0 0 0 852743
0 0 0 1180684
0 0 0 1180681
-0.46453986 0.21990448 0.79542661 1049353
-0.43948603 0.2116062 0.76541048 1049095
-0.43196198 0.2116062 0.76541048 983559
-0.24720015 0.12324318 0.44578853 1049095
-0.23506851 0.11930988 0.43156123 1114888
-0.22368729 0.11561989 0.41821399 1114888
-0.21514034 0.11328413 0.40976521 1641232
-0.21111234 0.11328413 0.40976521 9791572
-0.2204446 0.12059279 0.43620169 7355421
-0.21615672 0.12059279 0.43620169 4793892
-0.1990283 0.11328413 0.40976521 4991012
-0.1930503 0.11215129 0.40566757 4990242
-0.18719065 0.11104088 0.40165105 6433827
-0.18507484 0.11215129 0.40566757 7812136
-0.17929415 0.11104088 0.40165105 9451047
-0.17534591 0.11104088 0.40165105 10171426
-0.17664453 0.11444009 0.41394651 10433312
-0.17435455 0.11561989 0.41821399 10499104
-0.17024349 0.11561989 0.41821399 10695966
-0.16786297 0.11682425 0.42257038 10629663
-0.16543233 0.11805399 0.42701849 10629663
-0.16294998 0.11930988 0.43156123 10826785
-0.16041426 0.12059279 0.43620169 10891806
-0.15612638 0.12059279 0.43620169 10826783
-0.15866269 0.12601268 0.45580626 10827296
-0.15418209 0.12601268 0.45580626 10826785
-0.15314291 0.12890953 0.46628457 11089183
-0.14855932 0.12890953 0.46628457 11286050
-0.15275472 0.13676986 0.49471655 11285535
-0.14971747 0.13845839 0.50082415 10958369
-0.14479433 0.13845839 0.50082415 10891804
-0.13987121 0.13845839 0.50082415 10629663
-0.13494809 0.13845839 0.50082415 10957854
-0.13165028 0.14018913 0.50708449 11285793
-0.12510183 0.13845839 0.50082415 11154463
-0.12017871 0.13845839 0.50082415 11285792
-0.11525559 0.13845839 0.50082415 11417378
-0.11033247 0.13845839 0.50082415 11286305
-0.10540935 0.13845839 0.50082415 11285792
-0.10048622 0.13845839 0.50082415 11351586
-0.095563099 0.13845839 0.50082415 10499104
-0.090639971 0.13845839 0.50082415 10892834
-0.084671527 0.13676986 0.49471655 11155746
-0.078846894 0.13512205 0.48875612 11286306
-0.074042395 0.13512205 0.48875612 11548962
-0.07008227 0.13676986 0.49471655 11483171
-0.066024356 0.13845839 0.50082415 11417378
-0.061101232 0.13845839 0.50082415 11613982
-0.057600338 0.14196366 0.51350325 11745313
-0.053226329 0.1437837 0.52008665 11418146
-0.048113856 0.1437837 0.52008665 11352098
-0.043559838 0.14565103 0.52684098 11810594
-0.038380966 0.14565103 0.52684098 11680548
-0.033202097 0.14565103 0.52684098 11352355
-0.028023226 0.14565103 0.52684098 11483169
-0.022844356 0.14565103 0.52684098 11220769
-0.017665485 0.14565103 0.52684098 11417378
-0.012486614 0.14565103 0.52684098 11483171
-0.0073077437 0.14565103 0.52684098 11745314
-0.002128873 0.14565103 0.52684098 11810848
0.003090129 0.14756748 0.53377312 11746341
0.0083371429 0.14756748 0.53377312 11548964
0.013765278 0.14953506 0.5408901 11549216
0.01934012 0.15155579 0.54819942 11418146
0 0 0 11745830
0 0 0 11811621
0 0 0 11418146
0 0 0 11484709
0 0 0 11746341
0 0 0 11877668
0 0 0 12205604
0 0 0 12074533
0 0 0 12008740
0 0 0 12402213
0 0 0 12336420
0 0 0 12140324
0 0 0 12402985
0 0 0 12074786
0.43604496 0.65971345 2.3862798 12468776
0.3905769 0.5607565 2.028338 12665127
0.39096716 0.53405374 1.9317503 12271651
0.40995637 0.53405374 1.9317503 12337191
0.45039287 0.5607565 2.028338 12337447
0.52259058 0.62306273 2.2537088 12271912
0.57678843 0.65971345 2.3862798 12337446
0.51020885 0.5607565 2.028338 12796454
0.48195222 0.50977856 1.8439435 12796970
0.44006887 0.44860515 1.6226703 12730660
0.45601982 0.44860515 1.6226703 12731432
0.40687129 0.38672858 1.3988537 12731178
0.40660137 0.37383762 1.3522252 12469030
0.38172162 0.33985236 1.2292956 12863018
0.38222316 0.32985672 1.1931399 12469031
0.40588969 0.33985236 1.2292956 12206373
0.43103543 0.35047278 1.2677112 12272166
0.44349706 0.35047278 1.2677112 12403496
0.45595872 0.35047278 1.2677112 12271910
0.48353073 0.36177835 1.3086051 11944744
0.49639437 0.36177835 1.3086051 12206892
0.54437923 0.38672858 1.3988537 12337705
0.55813003 0.38672858 1.3988537 12206119
0.55281812 0.37383762 1.3522252 12534568
0.58563161 0.38672858 1.3988537 12468518
0.5993824 0.38672858 1.3988537 12534568
0.61313319 0.38672858 1.3988537 12468260
0.62688398 0.38672858 1.3988537 12402983
0.64063483 0.38672858 1.3988537 12139811
0.65438563 0.38672858 1.3988537 11944231
0.69199842 0.40054032 1.4488127 11878181
0.7062403 0.40054032 1.4488127 11353125
0.72048217 0.40054032 1.4488127 11418917
0.7347241 0.40054032 1.4488127 11878182
0.7767055 0.41537514 1.5024725 12140326
0.82191622 0.43135113 1.5602599 12206377
0.87074375 0.44860515 1.6226703 12205865
0.92364031 0.46729702 1.6902815 12271400
0.9811365 0.4876143 1.763772 12271397
1.0935673 0.53405374 1.9317503 12008741
1.0158124 0.4876143 1.763772 12140583
1.1315457 0.53405374 1.9317503 11943720
1.1505349 0.53405374 1.9317503 12008743
0.98240024 0.44860515 1.6226703 11221537
0.92439926 0.41537514 1.5024725 11681317
0.87439829 0.38672858 1.3988537 11812134
0.99062788 0.43135113 1.5602599 11746597
1.046204 0.44860515 1.6226703 11681063
1.0621549 0.44860515 1.6226703 11353381
1.0781058 0.44860515 1.6226703 11615527
1.1396424 0.46729702 1.6902815 11616040
1.1562579 0.46729702 1.6902815 11222054
1.1728734 0.46729702 1.6902815 11877927
1.0573236 0.41537514 1.5024725 11418920
1.0338038 0.40054032 1.4488127 11222053
1.0868623 0.41537514 1.5024725 11418920
1.1440022 0.43135113 1.5602599 11483943
1.1593395 0.43135113 1.5602599 11353640
1.2216641 0.44860515 1.6226703 11156518
1.237615 0.44860515 1.6226703 11288360
1.3625716 0.4876143 1.763772 10894119
1.2206893 0.43135113 1.5602599 10763818
1.1477391 0.40054032 1.4488127 10633515
1.1219126 0.38672858 1.3988537 10699820
1.0978079 0.37383762 1.3522252 10897716
1.0752585 0.36177835 1.3086051 10962736
1.0881221 0.36177835 1.3086051 11093551
1.1009858 0.36177835 1.3086051 11093294
1.1138494 0.36177835 1.3086051 10962732
1.1642702 0.37383762 1.3522252 11027501
1.1775626 0.37383762 1.3522252 10766128
1.2319189 0.38672858 1.3988537 10634799
1.5051843 0.46729702 1.6902815 10634028
1.587965 0.4876143 1.763772 10765099
1.6782713 0.50977856 1.8439435 10370857
1.6963974 0.50977856 1.8439435 10567722
1.7961674 0.53405374 1.9317503 10502956
1.8151566 0.53405374 1.9317503 10305321
1.9258533 0.5607565 2.028338 10239787
1.5566334 0.44860515 1.6226703 10239530
1.5121003 0.43135113 1.5602599 10042923
1.470866 0.41537514 1.5024725 10305579
1.6044862 0.44860515 1.6226703 10108970
1.9290917 0.53405374 1.9317503 10240045
1.9480809 0.53405374 1.9317503 10305322
1.9670701 0.53405374 1.9317503 10371112
1.9860593 0.53405374 1.9317503 10634027
2.0050485 0.53405374 1.9317503 10503728
2.0240376 0.53405374 1.9317503 10766900
2.0430269 0.53405374 1.9317503 10831921
2.062016 0.53405374 1.9317503 10701366
2.0810053 0.53405374 1.9317503 10700337
2.0999944 0.53405374 1.9317503 10437163
2.1189837 0.53405374 1.9317503 10110253
2.2448716 0.5607565 2.028338 8668463
2.6644826 0.65971345 2.3862798 7946798
2.6879399 0.65971345 2.3862798 8473912
2.0951705 0.50977856 1.8439435 7620151
2.1132965 0.50977856 1.8439435 6502448
2.0387518 0.4876143 1.763772 5648168
2.2519081 0.53405374 1.9317503 6108715
2.9805527 0.70094556 2.5354223 7553586
0 0 0 9127731
0 0 0 10373170
0 0 0 10636085
0 0 0 10766129
0 0 0 10635314
0 0 0 10767156
0 0 0 10964279
0 0 0 11160888
0 0 0 10570809
0 0 0 10504244
0 0 0 10242099
0 0 0 10241842
0 0 0 6042401
0 0 0 3612698
-4.0346217 0.96782517 3.380563 3218970
-4.0013905 0.96782517 3.380563 3350040
-3.6629167 0.89337713 3.1205199 3612439
-3.3727958 0.82956439 2.8976254 4204059
-3.1213579 0.7742601 2.7044504 4927268
-2.9013498 0.72586888 2.5354223 5650991
-3.5402174 0.89337713 3.1205199 6110512
-3.8020041 0.96782517 3.380563 6700592
-4.1113887 1.0558093 3.687887 6765355
-3.7355418 0.96782517 3.380563 6502952
-4.0388846 1.0558093 3.687887 6569515
-4.0026326 1.0558093 3.687887 7159851
-3.3561683 0.89337713 3.1205199 7290923
-3.3254933 0.89337713 3.1205199 6503209
-2.855509 0.7742601 2.7044504 5518373
-1.6320719 0.44668856 1.5602599 4993575
-1.6167344 0.44668856 1.5602599 4270626
-1.9826819 0.55304295 1.9317503 3481623
-1.9636927 0.55304295 1.9317503 2693137
-1.633551 0.4645561 1.6226703 2102029
-1.6176001 0.4645561 1.6226703 2101519
-1.6016492 0.4645561 1.6226703 2101777
-1.4158019 0.4147822 1.4488127 1904401
-1.1212481 0.33182579 1.1590502 2232083
-1.0498624 0.31388924 1.0963988 1970194
-1.0390848 0.31388924 1.0963988 2101780
-1.0283071 0.31388924 1.0963988 2758935
-0.99075234 0.30562901 1.0675462 3351587
-0.98025835 0.30562901 1.0675462 2890778
-1.052887 0.33182579 1.1590502 2429714
-1.0414934 0.33182579 1.1590502 2825242
-1.0301 0.33182579 1.1590502 3942183
-1.3205453 0.43014452 1.5024725 2099981
-1.468998 0.48391259 1.6902815 1838099
-1.6598656 0.55304295 1.9317503 3679532
-1.4357668 0.48391259 1.6902815 6177083
0 0 0 7421230
0 0 0 6961452
0 0 0 7355181
0 0 0 7486253
0 0 0 7945517
0 0 0 7748653
0 0 0 7552558
0 0 0 7354409
0 0 0 6960421
-0.35431018 0.13504538 0.47170648 6631715
-0.34565404 0.13349313 0.46628457 5777694
-0.34909564 0.13663414 0.47725597 5580576
-0.35270309 0.13992654 0.48875612 5382940
-0.3478986 0.13992654 0.48875612 4660248
-0.33900964 0.13826074 0.48293757 4200982
-0.33426234 0.13826074 0.48293757 3478546
-0.33755198 0.14163296 0.49471655 3150353
-0.34100616 0.14517379 0.50708449 2493711
-0.34463742 0.14889619 0.52008665 2033934
-0.34393433 0.1508299 0.52684098 1968143
-0.33441246 0.14889619 0.52008665 983559
0 0 0 984076
-0.32418752 0.14889619 0.52008665 1180938
0 0 0 1049352
0 0 0 1312267
0 0 0 918282
0 0 0 983305
-0.45672077 0.22772357 0.79542661 1312267
-0.44890171 0.22772357 0.79542661 1114888
0 0 0 1049352
0 0 0 1115145
0 0 0 1377804
-0.21957624 0.11973095 0.41821399 3282974
-0.20490316 0.11386178 0.3977133 11168586
-0.20099361 0.11386178 0.3977133 9456682
-0.20305631 0.11731214 0.40976521 7747116
0 0 0 9122854
0 0 0 10171427
-0.19292098 0.1185092 0.41394651 10827296
-0.18507484 0.11613902 0.40566757 10760991
-0.18478276 0.1185092 0.41394651 10498849
-0.17534591 0.11498912 0.40165105 10367775
-0.18032463 0.12097815 0.42257038 10629663
-0.17435455 0.11973095 0.41821399 10695455
-0.17382756 0.1222516 0.42701849 10695711
-0.16962995 0.1222516 0.42701849 10695712
-0.16719225 0.12355214 0.43156123 10760990
-0.16470215 0.12488066 0.43620169 10826782
-0.16215789 0.12623806 0.440943 10367775
-0.1578234 0.12623806 0.440943 10368029
-0.15866269 0.13049328 0.45580626 10695710
-0.15593417 0.13197616 0.46098587 11023392
-0.16248091 0.14163296 0.49471655 11220001
-0.15761781 0.14163296 0.49471655 11285793
-0.15464059 0.14338151 0.50082415 11089698
-0.14971747 0.14338151 0.50082415 10958368
-0.14479433 0.14338151 0.50082415 10827296
-0.13987121 0.14338151 0.50082415 11154976
-0.13494809 0.14338151 0.50082415 11154208
-0.13165028 0.14517379 0.50708449 10957600
-0.12666562 0.14517379 0.50708449 11089442
-0.12168096 0.14517379 0.50708449 10958368
-0.11525559 0.14338151 0.50082415 11023392
-0.11033247 0.14338151 0.50082415 11285792
-0.10540935 0.14338151 0.50082415 11286560
-0.10048622 0.14338151 0.50082415 11286564
-0.096757643 0.14517379 0.50708449 11417378
-0.091772981 0.14517379 0.50708449 11352097
-0.086788319 0.14517379 0.50708449 11221026
-0.080793723 0.14338151 0.50082415 11287075
-0.075870603 0.14338151 0.50082415 11155746
-0.070947476 0.14338151 0.50082415 11286560
-0.066024356 0.14338151 0.50082415 11679521
-0.062648095 0.14701141 0.51350325 11811109
-0.057600338 0.14701141 0.51350325 11548449
-0.053226329 0.14889619 0.52008665 11614242
-0.048738707 0.1508299 0.52684098 11680037
-0.043559838 0.1508299 0.52684098 11745314
-0.039404459 0.15485203 0.5408901 11745568
-0.034087487 0.15485203 0.5408901 11942180
-0.028023226 0.1508299 0.52684098 11811107
-0.02314494 0.15281451 0.53377312 11876641
-0.017665485 0.1508299 0.52684098 11352355
-0.012650913 0.15281451 0.53377312 11287332
-0.0074038985 0.15281451 0.53377312 11221539
-0.0021568846 0.15281451 0.53377312 11680548
0.0031736461 0.15694462 0.54819942 11221539
0.0085624708 0.15694462 0.54819942 11024673
0.013951296 0.15694462 0.54819942 11548964
0.019605054 0.15909454 0.555709 11745828
0 0 0 11418148
0 0 0 11877154
0 0 0 11877927
0 0 0 12206117
0 0 0 12008740
0 0 0 12271397
0 0 0 12205606
0 0 0 12074533
0 0 0 11877154
0 0 0 12008740
0 0 0 11943461
0 0 0 12402213
0 0 0 12008739
0 0 0 12271398
0.43604496 0.68317068 2.3862798 12206118
0.37197798 0.55304295 1.9317503 12271397
0.39096716 0.55304295 1.9317503 12403239
0.40995637 0.55304295 1.9317503 12403240
0.47409773 0.61125803 2.1350925 12665127
