# .PCD v0.7 - Point Cloud Data file format
VERSION 0.7
FIELDS x y z rgb
SIZE 4 4 4 4
TYPE F F F U
COUNT 1 1 1 1
WIDTH 1303
HEIGHT 1
VIEWPOINT 0 0 0 1 0 0 0
POINTS 1303
DATA ascii
-0.36228016 -0.071313418 0.56342721 13601112
-0.35674167 -0.071313418 0.56342721 13536090
0 0 0 13601110
0 0 0 13799261
0 0 0 13930079
0 0 0 13733211
-0.22563365 -0.048900627 0.38635007 13995868
-0.22183581 -0.048900627 0.38635007 13996126
-0.21803796 -0.048900627 0.38635007 13733722
-0.22495213 -0.051345658 0.40566757 7884853
-0.21877664 -0.050837286 0.40165105 6371373
-0.21697667 -0.051345658 0.40566757 5057062
-0.21514034 -0.0518643 0.40976521 4004633
-0.21111234 -0.0518643 0.40976521 3479318
-0.20501348 -0.051345658 0.40566757 3346963
-0.20102575 -0.051345658 0.40566757 3019539
-0.19703802 -0.051345658 0.40566757 3150355
-0.1930503 -0.051345658 0.40566757 3018769
-0.18906257 -0.051345658 0.40566757 3019282
-0.18694428 -0.0518643 0.40976521 3215376
-0.18291625 -0.0518643 0.40976521 2953232
-0.18071365 -0.05239353 0.41394651 2887696
-0.1784656 -0.052933667 0.41821399 2821905
-0.17435455 -0.052933667 0.41821399 2821392
-0.17024349 -0.052933667 0.41821399 2690319
-0.16962995 -0.054048061 0.42701849 2625039
-0.16719225 -0.054623038 0.43156123 2427662
-0.16294998 -0.054623038 0.43156123 2427917
-0.17551208 -0.060406659 0.47725597 2427663
-0.1728542 -0.061125781 0.48293757 2558733
-0.1681069 -0.061125781 0.48293757 2231053
-0.1633596 -0.061125781 0.48293757 2362125
-0.1586123 -0.061125781 0.48293757 2757139
-0.15956371 -0.063389704 0.50082415 3019282
-0.16267386 -0.066682674 0.52684098 2756880
-0.15749499 -0.066682674 0.52684098 3346964
-0.15432028 -0.067560077 0.53377312 3281169
-0.15310228 -0.069386028 0.54819942 3346962
-0.14771345 -0.069386028 0.54819942 3544595
-0.14427428 -0.070336521 0.555709 3412755
-0.13881163 -0.070336521 0.555709 3412497
-0.13520107 -0.071313418 0.56342721 3281427
-0.13148879 -0.072317831 0.57136279 3281169
-0.12587225 -0.072317831 0.57136279 3544084
-0.1237414 -0.074413992 0.587924 3281168
-0.11796208 -0.074413992 0.587924 3150096
-0.11218277 -0.074413992 0.587924 2887696
-0.10640345 -0.074413992 0.587924 2165518
-0.099186644 -0.073350944 0.57952511 720903
-0.094844811 -0.074413992 0.587924 852743
-0.089065492 -0.074413992 0.587924 918282
-0.083286174 -0.074413992 0.587924 983305
-0.081029885 -0.077796452 0.61464781 852743
-0.077331245 -0.080227591 0.63385558 983559
-0.074597158 -0.08417321 0.66502881 1049352
-0.075484611 -0.093355738 0.73757738 918536
0 0 0 1509903
0 0 0 1707024
0 0 0 2560016
0 0 0 10119231
0 0 0 14784353
0 0 0 14916964
0 0 0 14718308
0 0 0 1443334
0 0 0 984329
0 0 0 918282
0 0 0 918282
0 0 0 918282
0.073742561 -0.36675468 2.8976254 918284
0.095411256 -0.34230438 2.7044504 1181708
0.13071014 -0.36675468 2.8976254 1312524
0.18572626 -0.42788047 3.380563 1575438
0.21895733 -0.42788047 3.380563 1707022
0.43232301 -0.73350936 5.7952509 2955034
0.4892906 -0.73350936 5.7952509 2035217
0.54625815 -0.73350936 5.7952509 1707025
0.52782255 -0.64182073 5.0708447 3086100
0.57766914 -0.64182073 5.0708447 5451809
0.62751579 -0.64182073 5.0708447 7883574
0.67736244 -0.64182073 5.0708447 9856839
0.72720903 -0.64182073 5.0708447 11431501
0.77705568 -0.64182073 5.0708447 12418644
0.94503123 -0.73350936 5.7952509 13076315
1.0019988 -0.73350936 5.7952509 13404508
0.82364053 -0.57050735 4.5074177 13536091
0.86794865 -0.57050735 4.5074177 13930077
0.82103109 -0.51345658 4.0566759 14191966
0.86090839 -0.51345658 4.0566759 14258272
0.90078574 -0.51345658 4.0566759 14259040
0.78388578 -0.42788047 3.380563 14389857
0.81711692 -0.42788047 3.380563 14455651
0.78493661 -0.3949666 3.1205199 14521443
0.75735348 -0.36675468 2.8976254 14521953
0.84628636 -0.3949666 3.1205199 14586722
0.87696117 -0.3949666 3.1205199 14850148
0.90763605 -0.3949666 3.1205199 14785126
0.76237756 -0.32091036 2.5354223 14653027
0.78730088 -0.32091036 2.5354223 14719844
0.81222421 -0.32091036 2.5354223 14718309
0.95674002 -0.36675468 2.8976254 14916198
1.0610102 -0.3949666 3.1205199 15046757
1.1826588 -0.42788047 3.380563 14784355
1.2158899 -0.42788047 3.380563 14522466
1.2491211 -0.42788047 3.380563 14653798
1.2823521 -0.42788047 3.380563 14588004
1.3155832 -0.42788047 3.380563 14587490
1.3488142 -0.42788047 3.380563 14848867
1.3820454 -0.42788047 3.380563 14652515
1.4152764 -0.42788047 3.380563 14586722
1.4485075 -0.42788047 3.380563 14389856
1.4817386 -0.42788047 3.380563 14717536
1.5149697 -0.42788047 3.380563 14586724
1.5482008 -0.42788047 3.380563 14192477
1.5814319 -0.42788047 3.380563 14127456
1.614663 -0.42788047 3.380563 14258786
1.4124806 -0.36675468 2.8976254 10904642
1.1866766 -0.30203328 2.3862798 2231054
1.2101338 -0.30203328 2.3862798 2035470
1.2335911 -0.30203328 2.3862798 1510930
1.1872123 -0.28525367 2.2537088 1378833
1.2805055 -0.30203328 2.3862798 1312783
1.3039628 -0.30203328 2.3862798 1247247
1.735857 -0.3949666 3.1205199 1182223
1.7665318 -0.3949666 3.1205199 1378317
1.9469738 -0.42788047 3.380563 1313294
1.9802049 -0.42788047 3.380563 1247247
2.0134361 -0.42788047 3.380563 1247247
2.7288897 -0.57050735 4.5074177 1312782
2.7731977 -0.57050735 4.5074177 1313040
2.8175058 -0.57050735 4.5074177 1313040
2.5756326 -0.51345658 4.0566759 1181454
2.61551 -0.51345658 4.0566759 1116175
2.2128224 -0.42788047 3.380563 1247504
1.9251888 -0.36675468 2.8976254 1247505
1.4395483 -0.27024031 2.1350925 1181456
1.4605364 -0.27024031 2.1350925 1181456
1.4815243 -0.27024031 2.1350925 1181456
1.4273869 -0.25672829 2.028338 1049868
1.4473255 -0.25672829 2.028338 1050638
1.4672642 -0.25672829 2.028338 1181454
1.4872029 -0.25672829 2.028338 1181454
1.5071415 -0.25672829 2.028338 1115659
1.4543619 -0.24450313 1.9317503 1115401
1.4063807 -0.23338935 1.8439435 1115660
1.4245067 -0.23338935 1.8439435 1050122
1.3224133 -0.21394023 1.6902815 1181454
1.3390288 -0.21394023 1.6902815 1247247
1.4145855 -0.22324198 1.763772 9332554
1.4319234 -0.22324198 1.763772 11368018
0 0 0 11433298
0 0 0 11499093
1.7065281 -0.25672829 2.028338 11367250
1.7264667 -0.25672829 2.028338 11367507
1.8383213 -0.27024031 2.1350925 11105618
2.7174523 -0.3949666 3.1205199 11171157
2.9771376 -0.42788047 3.380563 11104851
3.0103686 -0.42788047 3.380563 11039572
3.0435996 -0.42788047 3.380563 10974292
3.0768309 -0.42788047 3.380563 10974291
3.1100619 -0.42788047 3.380563 10841679
3.1432929 -0.42788047 3.380563 11039573
3.1765239 -0.42788047 3.380563 10973778
3.2097552 -0.42788047 3.380563 10777171
3.2429862 -0.42788047 3.380563 10841940
3.2762172 -0.42788047 3.380563 10843734
3.3094485 -0.42788047 3.380563 10776914
3.3426795 -0.42788047 3.380563 10710864
3.3759105 -0.42788047 3.380563 10580050
3.1469002 -0.3949666 3.1205199 10841940
3.1775749 -0.3949666 3.1205199 10710866
3.2082498 -0.3949666 3.1205199 10645587
3.2389247 -0.3949666 3.1205199 10711378
2.5002818 -0.30203328 2.3862798 10841938
2.3835316 -0.28525367 2.2537088 10710098
2.4056857 -0.28525367 2.2537088 10644818
2.7313194 -0.32091036 2.5354223 10644818
2.7562428 -0.32091036 2.5354223 10578768
2.9665771 -0.34230438 2.7044504 10578768
3.2069592 -0.36675468 2.8976254 10644818
3.2354431 -0.36675468 2.8976254 10579538
3.2639267 -0.36675468 2.8976254 11039060
3.2924106 -0.36675468 2.8976254 10711634
3.5763481 -0.3949666 3.1205199 10973526
3.607023 -0.3949666 3.1205199 11104596
3.377862 -0.36675468 2.8976254 11104852
3.4063458 -0.36675468 2.8976254 11104082
3.4348295 -0.36675468 2.8976254 10381902
2.8521404 -0.30203328 2.3862798 9592645
3.2590106 -0.34230438 2.7044504 10578769
3.7910719 -0.3949666 3.1205199 11104340
4.1402254 -0.42788047 3.380563 10907987
0 0 0 11039058
0 0 0 11039058
0 0 0 10776916
0 0 0 10776662
0 0 0 10776405
0 0 0 10972754
0 0 0 10841682
0 0 0 8738619
0 0 0 8344377
0 0 0 8410168
-4.0013905 -0.39464939 3.380563 8410429
-3.6629167 -0.36429176 3.1205199 8147257
-3.6322417 -0.36429176 3.1205199 8212536
-3.9016974 -0.39464939 3.380563 8409658
-3.8684664 -0.39464939 3.380563 8475452
-3.8352351 -0.39464939 3.380563 8213563
-3.8020041 -0.39464939 3.380563 8673084
-3.7687731 -0.39464939 3.380563 8673085
-4.0751367 -0.43052661 3.687887 9067584
-4.9364147 -0.52619922 4.5074177 9528133
-4.8921065 -0.52619922 4.5074177 9987653
-4.8477983 -0.52619922 4.5074177 10709575
-4.3231416 -0.47357929 4.0566759 10973515
-4.7591825 -0.52619922 4.5074177 11366987
-4.2433867 -0.47357929 4.0566759 11301707
-3.5029244 -0.39464939 3.380563 11235916
-1.9826819 -0.22551394 1.9317503 11301710
-4.123755 -0.47357929 4.0566759 11301453
-4.0838776 -0.47357929 4.0566759 11301708
-4.0440001 -0.47357929 4.0566759 11301707
-1.906725 -0.22551394 1.9317503 11366987
-3.3035378 -0.39464939 3.380563 11498829
-3.2703068 -0.39464939 3.380563 11564109
-4.3161011 -0.52619922 4.5074177 11367500
0 0 0 11564879
0 0 0 11433296
0 0 0 11827279
0 0 0 11761486
0 0 0 11827279
0 0 0 11827279
0 0 0 12024145
0 0 0 12090196
0 0 0 12024658
0 0 0 11893072
-0.70323277 -0.096648835 0.82789302 12024401
-0.69509453 -0.096648835 0.82789302 12156502
-0.6473242 -0.091072939 0.78012997 12221525
0 0 0 12090451
0 0 0 12286545
0 0 0 12549717
0 0 0 12418131
0 0 0 12484437
-0.33621743 -0.050922502 0.43620169 12681816
-0.32839838 -0.050380774 0.43156123 12681044
-0.32764167 -0.050922502 0.43620169 12878421
-0.32335377 -0.050922502 0.43620169 12878423
-0.32253399 -0.051476009 0.440943 12812372
-0.32527062 -0.052619919 0.45074174 12878679
-0.32444474 -0.053211153 0.45580626 12812628
-0.32360011 -0.053815827 0.46098587 13075801
-0.3646498 -0.061503801 0.52684098 12747348
0 0 0 13273176
-0.37370536 -0.064873874 0.555709 13076312
-0.37335721 -0.065774903 0.56342721 13338458
-0.36278006 -0.064873874 0.555709 13338713
-0.36228016 -0.065774903 0.56342721 13470296
0 0 0 13470296
0 0 0 13601371
0 0 0 13930078
0 0 0 13666904
-0.22726703 -0.044677287 0.38270524 13864283
-0.22350502 -0.044677287 0.38270524 13864795
-0.21974301 -0.044677287 0.38270524 13995868
-0.21598099 -0.044677287 0.38270524 13864282
-0.21221898 -0.044677287 0.38270524 7947047
-0.21663177 -0.04642934 0.3977133 5319973
-0.21482839 -0.046889037 0.40165105 4334111
-0.21298894 -0.047357928 0.40566757 3611162
-0.21111234 -0.047836289 0.40976521 3281941
-0.20708433 -0.047836289 0.40976521 3281939
-0.20102575 -0.047357928 0.40566757 3019282
-0.19703802 -0.047357928 0.40566757 3019284
-0.1930503 -0.047357928 0.40566757 3018769
-0.19097228 -0.047836289 0.40976521 3019282
-0.18694428 -0.047836289 0.40976521 3018768
-0.18478276 -0.048324417 0.41394651 3084305
-0.18071365 -0.048324417 0.41394651 2887696
-0.1784656 -0.048822608 0.41821399 2952976
-0.17435455 -0.048822608 0.41821399 2690319
-0.17567678 -0.050380774 0.43156123 2756112
-0.17143452 -0.050380774 0.43156123 2559249
-0.16899002 -0.050922502 0.43620169 2362124
-0.18234879 -0.056378484 0.48293757 2428174
-0.1776015 -0.056378484 0.48293757 2362381
-0.1728542 -0.056378484 0.48293757 2230541
-0.1681069 -0.056378484 0.48293757 2165261
-0.1633596 -0.056378484 0.48293757 2362127
-0.1586123 -0.056378484 0.48293757 2691087
-0.15956371 -0.058466576 0.50082415 2952976
-0.16267386 -0.061503801 0.52684098 2821905
-0.15749499 -0.061503801 0.52684098 3150355
-0.1584911 -0.063997202 0.54819942 3084562
-0.15310228 -0.063997202 0.54819942 3216148
-0.14771345 -0.063997202 0.54819942 3413268
-0.14427428 -0.064873874 0.555709 3412241
-0.13881163 -0.064873874 0.555709 3675157
-0.13520107 -0.065774903 0.56342721 3346962
-0.12966256 -0.065774903 0.56342721 3281427
-0.12587225 -0.066701308 0.57136279 3346705
-0.12197368 -0.067654185 0.57952511 3412240
-0.11627692 -0.067654185 0.57952511 3215376
-0.11058016 -0.067654185 0.57952511 3149583
-0.1048834 -0.067654185 0.57952511 2427917
-0.097789653 -0.066701308 0.57136279 590089
-0.092173129 -0.066701308 0.57136279 720903
-0.087793127 -0.067654185 0.57952511 524296
-0.083286174 -0.068634674 0.587924 852491
-0.077506848 -0.068634674 0.587924 721673
-0.071727529 -0.068634674 0.587924 1115145
-0.072228998 -0.075171314 0.64391679 1114887
0 0 0 786950
0 0 0 787468
0 0 0 1115662
0 0 0 1247244
0 0 0 1707024
0 0 0 1706251
0 0 0 6566685
0 0 0 11038537
0 0 0 2823178
0 0 0 2758167
0 0 0 3874590
0 0 0 4859170
0 0 0 5056799
0 0 0 5057053
0.084186405 -0.27857605 2.3862798 4662554
0.10764365 -0.27857605 2.3862798 5384991
0.18572626 -0.39464939 3.380563 5055002
0 0 0 5319198
0 0 0 5648161
0 0 0 2493963
0.54625815 -0.67654181 5.7952509 1772815
0.52782255 -0.59197408 5.0708447 1575695
0.57766914 -0.59197408 5.0708447 1707022
0.62751579 -0.59197408 5.0708447 1707024
0.67736244 -0.59197408 5.0708447 9199434
0.64640808 -0.52619922 4.5074177 10316620
0.77705568 -0.59197408 5.0708447 11367246
0.94503123 -0.67654181 5.7952509 12485977
1.0019988 -0.67654181 5.7952509 13142106
1.2354608 -0.78929877 6.761126 13601114
0.86794865 -0.52619922 4.5074177 13470296
0.91225678 -0.52619922 4.5074177 13602141
0.9565649 -0.52619922 4.5074177 13799261
0.90078574 -0.47357929 4.0566759 14061663
0.85514814 -0.43052661 3.687887 14193249
0.81711692 -0.39464939 3.380563 14456163
0.850348 -0.39464939 3.380563 14389856
0.81561148 -0.36429176 3.1205199 14455651
0.84628636 -0.36429176 3.1205199 14520929
0.87696117 -0.36429176 3.1205199 14587232
0.90763605 -0.36429176 3.1205199 14521442
0.93831086 -0.36429176 3.1205199 14521441
0.96898574 -0.36429176 3.1205199 14849379
0.99966061 -0.36429176 3.1205199 14718565
1.1161966 -0.39464939 3.380563 14521957
1.1494278 -0.39464939 3.380563 14587750
1.1826588 -0.39464939 3.380563 14718821
1.12236 -0.36429176 3.1205199 14718821
1.1530348 -0.36429176 3.1205199 14849378
1.2823521 -0.39464939 3.380563 14586722
1.3155832 -0.39464939 3.380563 14456420
1.3488142 -0.39464939 3.380563 14521183
1.2757342 -0.36429176 3.1205199 14325603
1.3064091 -0.36429176 3.1205199 14521442
1.3370839 -0.36429176 3.1205199 14127713
1.4817386 -0.39464939 3.380563 14455393
1.5149697 -0.39464939 3.380563 14062433
1.5482008 -0.39464939 3.380563 13930077
1.5814319 -0.39464939 3.380563 13995872
1.4904583 -0.36429176 3.1205199 14193507
1.4124806 -0.3382709 2.8976254 10970181
1.1866766 -0.27857605 2.3862798 1379087
1.2101338 -0.27857605 2.3862798 1444623
1.1650583 -0.26309961 2.2537088 1378832
1.1872123 -0.26309961 2.2537088 1444113
1.2093664 -0.26309961 2.2537088 1313297
1.3039628 -0.27857605 2.3862798 1247247
1.32742 -0.27857605 2.3862798 1313296
1.7665318 -0.36429176 3.1205199 1313040
1.7972068 -0.36429176 3.1205199 1116431
1.8278816 -0.36429176 3.1205199 1181970
1.8585564 -0.36429176 3.1205199 1182226
2.0466671 -0.39464939 3.380563 1247247
2.0798981 -0.39464939 3.380563 1247249
1.950581 -0.36429176 3.1205199 1116174
1.8397374 -0.3382709 2.8976254 1116433
1.5385351 -0.27857605 2.3862798 1181455
1.3975722 -0.24925226 2.1350925 1116431
1.3476323 -0.23678964 2.028338 1181455
1.3675709 -0.23678964 2.028338 1050638
1.4605364 -0.24925226 2.1350925 1051152
1.4815243 -0.24925226 2.1350925 1115661
1.4273869 -0.23678964 2.028338 984847
1.4473255 -0.23678964 2.028338 919053
1.4672642 -0.23678964 2.028338 919052
1.4872029 -0.23678964 2.028338 918797
1.4353727 -0.22551394 1.9317503 1049868
1.4543619 -0.22551394 1.9317503 1114891
1.4733511 -0.22551394 1.9317503 984077
1.4923403 -0.22551394 1.9317503 1115661
1.5113295 -0.22551394 1.9317503 1115661
1.4607588 -0.21526331 1.8439435 1049610
1.4145855 -0.20590404 1.763772 9266245
1.4319234 -0.20590404 1.763772 11105105
1.4492614 -0.20590404 1.763772 11236691
1.533263 -0.21526331 1.8439435 11958102
1.551389 -0.21526331 1.8439435 11170896
1.5695151 -0.21526331 1.8439435 11236437
1.6632431 -0.22551394 1.9317503 11104853
1.8593093 -0.24925226 2.1350925 11169874
2.748127 -0.36429176 3.1205199 11039573
2.7788019 -0.36429176 3.1205199 11170644
3.0435996 -0.39464939 3.380563 10973779
3.0768309 -0.39464939 3.380563 10842707
2.8708265 -0.36429176 3.1205199 10842190
2.9015014 -0.36429176 3.1205199 10842450
2.9321761 -0.36429176 3.1205199 10842450
3.2097552 -0.39464939 3.380563 10711378
3.2429862 -0.39464939 3.380563 10776916
3.2762172 -0.39464939 3.380563 10645329
3.3094485 -0.39464939 3.380563 10907987
3.0855503 -0.36429176 3.1205199 10841939
3.1162252 -0.36429176 3.1205199 10711379
3.1469002 -0.36429176 3.1205199 10645842
3.1775749 -0.36429176 3.1205199 10776658
3.2082498 -0.36429176 3.1205199 10776401
3.2389247 -0.36429176 3.1205199 10447953
2.3613775 -0.26309961 2.2537088 10776404
2.2580824 -0.24925226 2.1350925 10579535
2.2790704 -0.24925226 2.1350925 10579793
2.3000586 -0.24925226 2.1350925 10514258
2.4499936 -0.26309961 2.2537088 10382415
2.4721477 -0.26309961 2.2537088 10579279
2.6410253 -0.27857605 2.3862798 10776658
2.8310127 -0.29598704 2.5354223 10514000
3.0463316 -0.31571952 2.7044504 10645330
3.0729165 -0.31571952 2.7044504 10907474
3.0995014 -0.31571952 2.7044504 10973267
2.930706 -0.29598704 2.5354223 10841940
2.7817688 -0.27857605 2.3862798 10907472
2.8052261 -0.27857605 2.3862798 11104081
2.6715343 -0.26309961 2.2537088 10185034
2.6936884 -0.26309961 2.2537088 9133890
2.8755977 -0.27857605 2.3862798 10119758
3.2855954 -0.31571952 2.7044504 10841939
3.8217468 -0.36429176 3.1205199 11039060
0 0 0 11301460
0 0 0 11104851
0 0 0 11039060
0 0 0 10907732
0 0 0 10841941
0 0 0 10841429
0 0 0 10711128
0 0 0 8410170
0 0 0 8213307
0 0 0 8081719
-3.6935916 -0.33361691 3.1205199 8081207
-3.6629167 -0.33361691 3.1205199 8080951
-3.6322417 -0.33361691 3.1205199 8081208
-3.9016974 -0.36141831 3.380563 8015673
-3.8684664 -0.36141831 3.380563 8146746
-3.8352351 -0.36141831 3.380563 8278843
-3.8020041 -0.36141831 3.380563 8541242
-3.7687731 -0.36141831 3.380563 8738108
-3.7355418 -0.36141831 3.380563 8541756
-4.0388846 -0.3942745 3.687887 8935998
-4.4028959 -0.43370199 4.0566759 9790276
-4.8477983 -0.4818911 4.5074177 10052931
-4.8034906 -0.4818911 4.5074177 10578246
-4.7591825 -0.4818911 4.5074177 10512707
-4.7148743 -0.4818911 4.5074177 9986368
-4.6705661 -0.4818911 4.5074177 10776139
-4.1636324 -0.43370199 4.0566759 11104588
-4.123755 -0.43370199 4.0566759 11169867
-4.0838776 -0.43370199 4.0566759 11170124
-4.0440001 -0.43370199 4.0566759 11170124
-3.6401114 -0.3942745 3.687887 11301710
-3.6038594 -0.3942745 3.687887 11498062
-3.5676074 -0.3942745 3.687887 11498062
-4.3161011 -0.4818911 4.5074177 11433296
-4.2717929 -0.4818911 4.5074177 11499086
-4.2274847 -0.4818911 4.5074177 11367246
-2.8960454 -0.33361691 3.1205199 11564111
-3.1041512 -0.36141831 3.380563 11629902
-4.0945606 -0.4818911 4.5074177 11630416
0 0 0 11498572
0 0 0 11696465
0 0 0 11564620
0 0 0 11761486
-0.711371 -0.08851061 0.82789302 11695693
-0.70323277 -0.08851061 0.82789302 12090451
-0.69509453 -0.08851061 0.82789302 12025173
-0.6473242 -0.083404228 0.78012997 12090196
-0.69296008 -0.090354577 0.84514076 12155474
0 0 0 12090451
0 0 0 12287060
0 0 0 12090450
0 0 0 12550484
-0.33621743 -0.046634622 0.43620169 12418388
-0.33192953 -0.046634622 0.43620169 12353621
-0.32764167 -0.046634622 0.43620169 12484435
-0.32335377 -0.046634622 0.43620169 12681300
-0.32253399 -0.047141518 0.440943 12549971
-0.32892534 -0.04873056 0.45580626 12682327
-0.32444474 -0.04873056 0.45580626 12813656
0 0 0 13009752
0 0 0 12813143
0 0 0 13010522
-0.37370536 -0.059411231 0.555709 13272922
-0.36824271 -0.059411231 0.555709 13338715
-0.36278006 -0.059411231 0.555709 13404505
-0.37803146 -0.062855355 0.587924 13600599
0 0 0 13732956
0 0 0 13732700
0 0 0 13798751
-0.23322932 -0.04130495 0.38635007 13535578
-0.22514305 -0.040532894 0.37912858 13863258
-0.21936604 -0.04015759 0.37561813 13929305
-0.21974301 -0.040915281 0.38270524 13929306
-0.21598099 -0.040915281 0.38270524 13403733
-0.21424013 -0.04130495 0.38635007 6764321
-0.21246578 -0.041702114 0.39006498 4728099
-0.21482839 -0.042940788 0.40165105 4070171
-0.21088015 -0.042940788 0.40165105 3544600
-0.21111234 -0.043808278 0.40976521 3019282
-0.20708433 -0.043808278 0.40976521 2821905
-0.20102575 -0.043370198 0.40566757 2953491
-0.19703802 -0.043370198 0.40566757 2888211
-0.1930503 -0.043370198 0.40566757 3084820
-0.19097228 -0.043808278 0.40976521 3018770
-0.18885188 -0.044255305 0.41394651 3084562
-0.18478276 -0.044255305 0.41394651 2822160
-0.18257667 -0.044711545 0.41821399 2756111
-0.1784656 -0.044711545 0.41821399 2952976
-0.17991905 -0.046138506 0.43156123 2690578
-0.17949584 -0.047141518 0.440943 2624526
-0.17516136 -0.047141518 0.440943 2362125
-0.18709609 -0.051631186 0.48293757 2362127
-0.18234879 -0.051631186 0.48293757 2362127
-0.1776015 -0.051631186 0.48293757 2165518
-0.1728542 -0.051631186 0.48293757 2296334
-0.1681069 -0.051631186 0.48293757 2230796
-0.1633596 -0.051631186 0.48293757 2165004
-0.16248091 -0.052890487 0.49471655 2230541
-0.15956371 -0.053543452 0.50082415 2493710
-0.16267386 -0.056324929 0.52684098 2821905
-0.1595673 -0.057066049 0.53377312 3084562
-0.1584911 -0.058608375 0.54819942 3084562
-0.15310228 -0.058608375 0.54819942 3085073
-0.14771345 -0.058608375 0.54819942 3281681
-0.14232463 -0.058608375 0.54819942 3216144
-0.13881163 -0.059411231 0.555709 3544084
-0.13520107 -0.060236387 0.56342721 3478291
-0.12966256 -0.060236387 0.56342721 3478289
-0.12587225 -0.061084788 0.57136279 3281169
-0.12025574 -0.061084788 0.57136279 3346962
-0.11463922 -0.061084788 0.57136279 3411985
-0.10902269 -0.061084788 0.57136279 3084818
-0.10340618 -0.061084788 0.57136279 1245443
-0.097789653 -0.061084788 0.57136279 590087
-0.092173129 -0.061084788 0.57136279 786696
-0.086556606 -0.061084788 0.57136279 786698
-0.082096368 -0.061957426 0.57952511 590089
-0.076399609 -0.061957426 0.57952511 786696
-0.070702858 -0.061957426 0.57952511 720905
-0.065948211 -0.062855355 0.587924 655880
0 0 0 787468
0 0 0 918282
0 0 0 1246477
0 0 0 984075
0 0 0 1115660
0 0 0 1575695
0 0 0 2035473
0 0 0 1969424
0 0 0 2823441
0 0 0 5581851
0 0 0 6566947
0 0 0 6239012
0 0 0 6501155
0 0 0 5975325
0.084186405 -0.25511882 2.3862798 4989979
0.10764365 -0.25511882 2.3862798 5713184
0 0 0 5253405
0 0 0 5515805
0 0 0 5976608
0 0 0 2493706
0 0 0 1837838
0.60322571 -0.61957425 5.7952509 1707281
0.66019332 -0.61957425 5.7952509 1641231
0.71716088 -0.61957425 5.7952509 1575438
0.67736244 -0.54212749 5.0708447 8674123
0.64640808 -0.4818911 4.5074177 9921608
0.77705568 -0.54212749 5.0708447 10709577
0.82690233 -0.54212749 5.0708447 11695440
0.87674892 -0.54212749 5.0708447 13076313
1.2354608 -0.72283661 6.761126 12879448
1.5623076 -0.86740398 8.1133518 13404251
1.6420622 -0.86740398 8.1133518 13667675
0.9565649 -0.4818911 4.5074177 13864286
1.000873 -0.4818911 4.5074177 13799520
0.94066304 -0.43370199 4.0566759 14259294
0.81711692 -0.36141831 3.380563 14127969
0.850348 -0.36141831 3.380563 14259552
0.81561148 -0.33361691 3.1205199 14324833
0.84628636 -0.33361691 3.1205199 14456165
0.87696117 -0.33361691 3.1205199 14587234
0.90763605 -0.33361691 3.1205199 14586977
0.93831086 -0.33361691 3.1205199 14456420
0.96898574 -0.33361691 3.1205199 14587490
0.99966061 -0.33361691 3.1205199 14652770
1.1161966 -0.36141831 3.380563 14652515
1.1494278 -0.36141831 3.380563 14718565
1.0916852 -0.33361691 3.1205199 14717792
1.12236 -0.33361691 3.1205199 14456419
1.1530348 -0.33361691 3.1205199 14653282
1.2823521 -0.36141831 3.380563 14586722
1.3155832 -0.36141831 3.380563 14521188
1.2450594 -0.33361691 3.1205199 14324835
1.2757342 -0.33361691 3.1205199 14390626
1.3064091 -0.33361691 3.1205199 14390628
1.3370839 -0.33361691 3.1205199 14324835
1.4817386 -0.36141831 3.380563 14127198
1.5149697 -0.36141831 3.380563 14192477
1.5482008 -0.36141831 3.380563 13865054
1.5814319 -0.36141831 3.380563 13667677
1.4904583 -0.33361691 3.1205199 13667420
1.4124806 -0.30978712 2.8976254 11561029
1.1866766 -0.25511882 2.3862798 1444367
1.1429043 -0.24094555 2.2537088 1313039
1.1650583 -0.24094555 2.2537088 1313298
1.1872123 -0.24094555 2.2537088 1575442
1.2093664 -0.24094555 2.2537088 1444369
1.2315204 -0.24094555 2.2537088 1313040
1.2536745 -0.24094555 2.2537088 1247247
1.2758286 -0.24094555 2.2537088 1443856
1.3743345 -0.25511882 2.3862798 1313040
1.8278816 -0.33361691 3.1205199 1181711
1.8585564 -0.33361691 3.1205199 1050640
1.7542861 -0.30978712 2.8976254 1050640
1.7827699 -0.30978712 2.8976254 1181454
1.8112537 -0.30978712 2.8976254 985103
1.2878163 -0.216851 2.028338 1181454
1.307755 -0.216851 2.028338 1115661
1.26447 -0.20652474 1.9317503 984847
1.3476323 -0.216851 2.028338 984333
1.3675709 -0.216851 2.028338 919052
1.4605364 -0.2282642 2.1350925 984590
1.4815243 -0.2282642 2.1350925 1050383
1.4273869 -0.216851 2.028338 984589
1.4473255 -0.216851 2.028338 853261
1.4672642 -0.216851 2.028338 919052
1.4872029 -0.216851 2.028338 1115661
1.4353727 -0.20652474 1.9317503 919052
1.4543619 -0.20652474 1.9317503 918282
1.4733511 -0.20652474 1.9317503 984331
1.5669575 -0.216851 2.028338 853259
1.5868961 -0.216851 2.028338 984077
1.5303187 -0.20652474 1.9317503 918535
1.4788848 -0.19713725 1.8439435 9330752
1.4319234 -0.18856607 1.763772 11105103
1.3333205 -0.17348079 1.6226703 11433554
1.533263 -0.19713725 1.8439435 11695443
1.551389 -0.19713725 1.8439435 11235920
1.5695151 -0.19713725 1.8439435 11170642
1.6632431 -0.20652474 1.9317503 11039825
1.766344 -0.216851 2.028338 11039312
1.9847585 -0.24094555 2.2537088 10974291
2.5803158 -0.30978712 2.8976254 11104851
2.8094769 -0.33361691 3.1205199 11039058
2.8401515 -0.33361691 3.1205199 11104083
2.8708265 -0.33361691 3.1205199 10907985
2.9015014 -0.33361691 3.1205199 10841681
2.9321761 -0.33361691 3.1205199 10709841
2.962851 -0.33361691 3.1205199 10907987
2.993526 -0.33361691 3.1205199 10711378
3.0242007 -0.33361691 3.1205199 10711121
3.0548756 -0.33361691 3.1205199 10645330
3.0855503 -0.33361691 3.1205199 10710865
2.8936377 -0.30978712 2.8976254 10777170
2.5568564 -0.27106375 2.5354223 10973524
2.4299102 -0.25511882 2.3862798 10448719
2.4533675 -0.25511882 2.3862798 10513745
2.2161064 -0.2282642 2.1350925 10317138
2.1252398 -0.216851 2.028338 10710098
2.2580824 -0.2282642 2.1350925 10579536
2.2790704 -0.2282642 2.1350925 10776401
2.3000586 -0.2282642 2.1350925 10382157
2.4499936 -0.24094555 2.2537088 10513999
2.4721477 -0.24094555 2.2537088 10382158
2.4943018 -0.24094555 2.2537088 10316366
2.5164559 -0.24094555 2.2537088 10513745
2.8559361 -0.27106375 2.5354223 10579024
2.8808594 -0.27106375 2.5354223 11038289
2.7348542 -0.25511882 2.3862798 10842707
2.7583115 -0.25511882 2.3862798 10711633
2.6272261 -0.24094555 2.2537088 10842962
2.6493802 -0.24094555 2.2537088 10907472
2.5309272 -0.2282642 2.1350925 10184782
2.5519152 -0.2282642 2.1350925 9133640
2.7158425 -0.24094555 2.2537088 10053710
2.899055 -0.25511882 2.3862798 10710866
4.1402254 -0.36141831 3.380563 11104853
0 0 0 11169619
0 0 0 11039060
0 0 0 11169622
0 0 0 10907731
0 0 0 10907988
0 0 0 10907733
0 0 0 10841684
0 0 0 7950648
0 0 0 7884857
-3.2276974 -0.26254976 2.7044504 8015673
-3.6935916 -0.30294207 3.1205199 8015673
-3.6629167 -0.30294207 3.1205199 8015673
-3.6322417 -0.30294207 3.1205199 8015673
-3.9016974 -0.32818723 3.380563 8015673
-3.8684664 -0.32818723 3.380563 7949880
-3.8352351 -0.32818723 3.380563 8016186
-3.8020041 -0.32818723 3.380563 8212280
-3.7687731 -0.32818723 3.380563 8278585
-3.7355418 -0.32818723 3.380563 8606779
-4.0388846 -0.35802242 3.687887 8475448
-4.4028959 -0.3938247 4.0566759 9001535
-4.3630185 -0.3938247 4.0566759 9460798
-4.3231416 -0.3938247 4.0566759 9855551
-4.7591825 -0.437583 4.5074177 8211759
-4.7148743 -0.437583 4.5074177 3938061
-4.6705661 -0.437583 4.5074177 7424315
-4.6262579 -0.437583 4.5074177 10579534
-4.5819497 -0.437583 4.5074177 10973003
-4.5376415 -0.437583 4.5074177 10841418
-4.4933338 -0.437583 4.5074177 10842189
-3.6401114 -0.35802242 3.687887 11039053
-3.6038594 -0.35802242 3.687887 10973515
-3.5676074 -0.35802242 3.687887 11498320
-3.5313554 -0.35802242 3.687887 11301454
-3.2038445 -0.32818723 3.380563 11432784
-2.9267204 -0.30294207 3.1205199 11301454
-2.8960454 -0.30294207 3.1205199 11563857
-3.1041512 -0.32818723 3.380563 11629648
-3.3500948 -0.35802242 3.687887 11499343
0 0 0 11367503
0 0 0 11695696
0 0 0 11695441
-3.9173281 -0.437583 4.5074177 11433037
-2.9047649 -0.32818723 3.380563 11827281
-0.70323277 -0.080372386 0.82789302 11696211
-0.69509453 -0.080372386 0.82789302 11828308
-0.68695635 -0.080372386 0.82789302 12090195
-0.67881811 -0.080372386 0.82789302 12221267
-0.68465233 -0.082046807 0.84514076 11828049
0 0 0 12090453
0 0 0 12352854
0 0 0 12221522
0 0 0 12352595
-0.33192953 -0.042346738 0.43620169 12681303
-0.32764167 -0.042346738 0.43620169 12616020
-0.32686847 -0.042807028 0.440943 12549969
-0.32970142 -0.043758295 0.45074174 12746578
-0.34440419 -0.046332315 0.47725597 12878424
-0.39555591 -0.053948585 0.555709 12615764
0 0 0 12747863
-0.40692806 -0.057076037 0.587924 12943959
-0.379168 -0.053948585 0.555709 13141336
-0.37370536 -0.053948585 0.555709 13010008
-0.36824271 -0.053948585 0.555709 13206872
-0.36781868 -0.054697875 0.56342721 13272664
-0.39521471 -0.0596704 0.61464781 13207897
0 0 0 13142103
0 0 0 13470556
0 0 0 13731930
-0.23102903 -0.03715327 0.38270524 13339482
-0.22514305 -0.036806043 0.37912858 13601882
-0.22141619 -0.036806043 0.37912858 13536089
-0.21974301 -0.03715327 0.38270524 13273169
-0.21598099 -0.03715327 0.38270524 8338197
-0.21424013 -0.037507109 0.38635007 5844779
-0.21663177 -0.038610261 0.3977133 4268064
-0.21272223 -0.038610261 0.3977133 3610905
-0.21088015 -0.038992543 0.40165105 3150868
-0.21111234 -0.03978027 0.40976521 3085075
-0.20708433 -0.03978027 0.40976521 2822418
-0.20102575 -0.039382469 0.40566757 2887698
-0.19703802 -0.039382469 0.40566757 2822162
-0.19500029 -0.03978027 0.40976521 2822161
-0.19292098 -0.040186193 0.41394651 2625296
-0.18885188 -0.040186193 0.41394651 2756112
-0.18668774 -0.040600482 0.41821399 2625039
-0.18257667 -0.040600482 0.41821399 2559246
-0.18614155 -0.042346738 0.43620169 2690319
-0.18383034 -0.042807028 0.440943 2690319
-0.18981171 -0.045267206 0.46628457 2427918
-0.19184339 -0.046883889 0.48293757 2427920
-0.18709609 -0.046883889 0.48293757 2362124
-0.18234879 -0.046883889 0.48293757 2099725
-0.1776015 -0.046883889 0.48293757 1902348
-0.1728542 -0.046883889 0.48293757 2164749
-0.17013229 -0.047448758 0.48875612 1836811
-0.16734399 -0.0480274 0.49471655 1705739
-0.16654293 -0.049228087 0.50708449 2099727
-0.16155827 -0.049228087 0.50708449 2427663
-0.16481431 -0.051819038 0.53377312 2690319
-0.1595673 -0.051819038 0.53377312 3085075
-0.16066222 -0.053948585 0.555709 3018771
-0.15519957 -0.053948585 0.555709 3019024
-0.14973693 -0.053948585 0.555709 3150353
-0.1462781 -0.054697875 0.56342721 3216147
-0.14073958 -0.054697875 0.56342721 3412497
-0.13520107 -0.054697875 0.56342721 3346704
-0.12966256 -0.054697875 0.56342721 3281682
-0.12767044 -0.056260668 0.57952511 3281424
-0.12025574 -0.055468265 0.57136279 3346962
-0.11463922 -0.055468265 0.57136279 3150355
-0.10902269 -0.055468265 0.57136279 3018256
-0.10340618 -0.055468265 0.57136279 786696
-0.097789653 -0.055468265 0.57136279 786953
-0.093489885 -0.056260668 0.57952511 524296
-0.086556606 -0.055468265 0.57136279 786696
-0.080940083 -0.055468265 0.57136279 721157
-0.075323559 -0.055468265 0.57136279 786696
-0.070702858 -0.056260668 0.57952511 720905
-0.065948211 -0.057076037 0.587924 721157
0 0 0 786950
0 0 0 852743
0 0 0 984329
0 0 0 1246731
0 0 0 1115658
0 0 0 1246987
0 0 0 1509902
0 0 0 2035217
0 0 0 2166804
0 0 0 2166801
0 0 0 3085583
0 0 0 5713693
0 0 0 6172704
0 0 0 5845022
0 0 0 4859160
0 0 0 5910045
0 0 0 5121819
0 0 0 5516577
0 0 0 5910563
0 0 0 2559499
0 0 0 1509902
0.70376337 -0.65637445 6.761126 1641231
0.66019332 -0.56260663 5.7952509 1575438
0.71716088 -0.56260663 5.7952509 1444110
0.9031499 -0.65637445 6.761126 8214342
0.72720903 -0.49228084 5.0708447 9921609
0.62164456 -0.3938247 4.0566759 10579020
0.50886297 -0.30294207 3.1205199 11105359
0.77933246 -0.437583 4.5074177 12351825
0.82364053 -0.437583 4.5074177 13076315
0.86794865 -0.437583 4.5074177 13404248
1.3683851 -0.65637445 6.761126 13798493
0.9565649 -0.437583 4.5074177 13733470
0.90078574 -0.3938247 4.0566759 13865056
0.85514814 -0.35802242 3.687887 13734501
0.70038593 -0.28130332 2.8976254 14259557
0.72886968 -0.28130332 2.8976254 14390113
0.81561148 -0.30294207 3.1205199 14325349
0.84628636 -0.30294207 3.1205199 14324578
0.87696117 -0.30294207 3.1205199 14390368
0.90763605 -0.30294207 3.1205199 14521955
0.93831086 -0.30294207 3.1205199 14653027
0.96898574 -0.30294207 3.1205199 14455907
0.99966061 -0.30294207 3.1205199 14390627
1.0303354 -0.30294207 3.1205199 14390370
1.0610102 -0.30294207 3.1205199 14783588
1.0916852 -0.30294207 3.1205199 14587234
1.12236 -0.30294207 3.1205199 14260071
1.1530348 -0.30294207 3.1205199 14587235
1.1837097 -0.30294207 3.1205199 14652517
1.1276428 -0.28130332 2.8976254 14455392
1.1561265 -0.28130332 2.8976254 14193762
1.2757342 -0.30294207 3.1205199 14324833
1.3064091 -0.30294207 3.1205199 14127458
1.3370839 -0.30294207 3.1205199 14127454
1.3677588 -0.30294207 3.1205199 13931104
1.3984337 -0.30294207 3.1205199 14324063
1.4291085 -0.30294207 3.1205199 14060895
1.355513 -0.28130332 2.8976254 13864802
1.3839968 -0.28130332 2.8976254 13733985
1.1632193 -0.23166157 2.3862798 11955785
1.1866766 -0.23166157 2.3862798 1378833
1.1429043 -0.2187915 2.2537088 1378320
1.1650583 -0.2187915 2.2537088 1247247
1.1872123 -0.2187915 2.2537088 1247247
1.2093664 -0.2187915 2.2537088 1247504
1.2315204 -0.2187915 2.2537088 1313040
1.2536745 -0.2187915 2.2537088 1247246
1.2758286 -0.2187915 2.2537088 1181969
1.3743345 -0.23166157 2.3862798 1181455
1.6973186 -0.28130332 2.8976254 1115918
1.7258023 -0.28130332 2.8976254 984845
1.4447062 -0.23166157 2.3862798 984847
1.4681635 -0.23166157 2.3862798 984845
1.334608 -0.20727615 2.1350925 1049870
1.2878163 -0.19691235 2.028338 918282
1.307755 -0.19691235 2.028338 918796
1.3276936 -0.19691235 2.028338 984077
1.3476323 -0.19691235 2.028338 918539
1.3675709 -0.19691235 2.028338 1115661
1.4605364 -0.20727615 2.1350925 1050380
1.4815243 -0.20727615 2.1350925 853259
1.5025125 -0.20727615 2.1350925 853002
1.4473255 -0.19691235 2.028338 853004
1.4672642 -0.19691235 2.028338 984076
1.4872029 -0.19691235 2.028338 852746
1.5071415 -0.19691235 2.028338 918282
1.4543619 -0.18753555 1.9317503 984075
1.5470188 -0.19691235 2.028338 984075
1.6494288 -0.20727615 2.1350925 1115661
1.6704168 -0.20727615 2.1350925 984075
1.6914049 -0.20727615 2.1350925 918278
1.4788848 -0.17901121 1.8439435 9725251
1.4970108 -0.17901121 1.8439435 11039310
1.5872862 -0.18753555 1.9317503 11236952
1.6062754 -0.18753555 1.9317503 10973520
1.6252646 -0.18753555 1.9317503 11169617
1.6442538 -0.18753555 1.9317503 10973519
1.6632431 -0.18753555 1.9317503 11039569
1.6822323 -0.18753555 1.9317503 11038802
1.8802974 -0.20727615 2.1350925 10842450
2.1249661 -0.23166157 2.3862798 10908242
2.8094769 -0.30294207 3.1205199 10777171
2.8401515 -0.30294207 3.1205199 10908244
2.8708265 -0.30294207 3.1205199 10907987
2.9015014 -0.30294207 3.1205199 11169874
2.9321761 -0.30294207 3.1205199 10907985
2.962851 -0.30294207 3.1205199 10973266
2.993526 -0.30294207 3.1205199 10907990
2.8081863 -0.28130332 2.8976254 10711124
2.8366699 -0.28130332 2.8976254 10842194
2.8651538 -0.28130332 2.8976254 10973522
2.5319331 -0.24614042 2.5354223 10972497
2.4064529 -0.23166157 2.3862798 10579540
2.4299102 -0.23166157 2.3862798 10514515
2.1951182 -0.20727615 2.1350925 10514258
2.2161064 -0.20727615 2.1350925 10579540
2.1252398 -0.19691235 2.028338 10644304
2.1451783 -0.19691235 2.028338 10514001
2.2790704 -0.20727615 2.1350925 10645331
2.4278398 -0.2187915 2.2537088 10841938
2.4499936 -0.2187915 2.2537088 10512974
2.4721477 -0.2187915 2.2537088 10512977
2.4943018 -0.2187915 2.2537088 10644561
2.5164559 -0.2187915 2.2537088 10644559
2.53861 -0.2187915 2.2537088 10776399
2.5607641 -0.2187915 2.2537088 10842193
2.5829182 -0.2187915 2.2537088 10842194
2.605072 -0.2187915 2.2537088 10973267
2.6272261 -0.2187915 2.2537088 10907985
2.3844423 -0.19691235 2.028338 10907474
2.4043808 -0.19691235 2.028338 9856335
2.4243195 -0.19691235 2.028338 8804421
2.5729032 -0.20727615 2.1350925 10053197
2.7379966 -0.2187915 2.2537088 10710866
0 0 0 10907985
0 0 0 11301201
0 0 0 10907987
0 0 0 11104083
0 0 0 10775890
0 0 0 10841682
0 0 0 10841682
0 0 0 10775634
0 0 0 7883572
0 0 0 7818039
-2.689748 -0.19663744 2.2537088 7883831
-3.4297633 -0.25281954 2.8976254 7883573
-3.6629167 -0.27226722 3.1205199 7751986
-3.9349284 -0.29495612 3.380563 7094313
-3.9016974 -0.29495612 3.380563 6370846
-3.8684664 -0.29495612 3.380563 6108192
-3.8352351 -0.29495612 3.380563 6371366
-3.8020041 -0.29495612 3.380563 6699561
-3.7687731 -0.29495612 3.380563 6897192
-4.0751367 -0.32177034 3.687887 7160110
-4.0388846 -0.32177034 3.687887 7488817
-4.4028959 -0.35394737 4.0566759 8081206
-4.3630185 -0.35394737 4.0566759 8476220
-4.3231416 -0.35394737 4.0566759 8212786
-4.7591825 -0.39327487 4.5074177 5318936
-4.7148743 -0.39327487 4.5074177 2625295
-4.6705661 -0.39327487 4.5074177 4008236
-4.1636324 -0.35394737 4.0566759 9135187
-4.123755 -0.35394737 4.0566759 10644554
-4.5376415 -0.39327487 4.5074177 10710603
-4.4933338 -0.39327487 4.5074177 10841419
-3.6401114 -0.32177034 3.687887 10775883
-3.6038594 -0.32177034 3.687887 10907980
-3.2703068 -0.29495612 3.380563 10974030
-2.98807 -0.27226722 3.1205199 10842446
-2.4028835 -0.22121711 2.5354223 11300685
-2.9267204 -0.27226722 3.1205199 11104331
-2.8960454 -0.27226722 3.1205199 11433039
-3.1041512 -0.29495612 3.380563 11301710
-3.3500948 -0.32177034 3.687887 11367503
-4.0502524 -0.39327487 4.5074177 11433039
-4.0059443 -0.39327487 4.5074177 11563855
-2.9712269 -0.29495612 3.380563 11432782
-2.7119963 -0.27226722 3.1205199 11760721
-2.6813214 -0.27226722 3.1205199 11433039
-2.4613147 -0.25281954 2.8976254 11498832
-2.4328308 -0.25281954 2.8976254 11564880
-0.68695635 -0.072234161 0.82789302 11630672
-0.67881811 -0.072234161 0.82789302 11630672
-0.67067987 -0.072234161 0.82789302 11828051
-0.67634457 -0.073739029 0.84514076 11958865
0 0 0 12090194
0 0 0 12352593
0 0 0 12090449
0 0 0 12418131
0 0 0 12484438
0 0 0 12352851
0 0 0 12550230
0 0 0 12681304
0 0 0 12681557
0 0 0 12878678
-0.38463065 -0.048485942 0.555709 12747350
-0.379168 -0.048485942 0.555709 12813143
-0.37889573 -0.049159359 0.56342721 13009750
-0.39531937 -0.052051082 0.59656996 13141592
-0.38945505 -0.052051082 0.59656996 13141593
0 0 0 13338969
0 0 0 13338967
0 0 0 13142360
0 0 0 13338967
0 0 0 13535832
-0.22726703 -0.03339126 0.38270524 13404760
-0.22350502 -0.03339126 0.38270524 13863512
0 0 0 12153664
0 0 0 2232596
-0.22054131 -0.034700722 0.3977133 5647141
-0.21663177 -0.034700722 0.3977133 4005662
-0.21482839 -0.035044294 0.40165105 3283226
-0.21298894 -0.035394736 0.40566757 3085077
-0.20900121 -0.035394736 0.40566757 2821903
-0.20708433 -0.035752259 0.40976521 2691089
-0.20102575 -0.035394736 0.40566757 2953490
-0.1990283 -0.035752259 0.40976521 2821905
-0.1969901 -0.036117081 0.41394651 2625040
-0.19292098 -0.036117081 0.41394651 2493711
-0.1907988 -0.03648942 0.41821399 2691089
-0.19264585 -0.037653975 0.43156123 2756112
-0.19249931 -0.038472541 0.440943 2559249
-0.18816483 -0.038472541 0.440943 2493456
-0.1943953 -0.040683605 0.46628457 2362124
-0.19659069 -0.042136591 0.48293757 2558733
-0.19184339 -0.042136591 0.48293757 2361870
-0.18709609 -0.042136591 0.48293757 1903116
-0.18234879 -0.042136591 0.48293757 1771530
-0.1776015 -0.042136591 0.48293757 1771532
-0.17493679 -0.042644262 0.48875612 1639689
-0.17433308 -0.043697204 0.50082415 1837068
-0.16940996 -0.043697204 0.50082415 1771532
-0.16654293 -0.044243421 0.50708449 2033934
-0.16360331 -0.044803463 0.51350325 2296336
-0.16267386 -0.045967188 0.52684098 2493710
-0.1595673 -0.046572022 0.53377312 2953491
-0.1584911 -0.047830723 0.54819942 2756112
-0.15519957 -0.048485942 0.555709 2822673
-0.14973693 -0.048485942 0.555709 3019024
-0.1462781 -0.049159359 0.56342721 2953489
-0.14073958 -0.049159359 0.56342721 3346707
-0.13520107 -0.049159359 0.56342721 3281169
-0.13148879 -0.049851742 0.57136279 3215631
-0.12587225 -0.049851742 0.57136279 3150354
-0.12197368 -0.050563909 0.57952511 3281169
-0.11627692 -0.050563909 0.57952511 3215633
-0.10902269 -0.049851742 0.57136279 1770501
-0.10340618 -0.049851742 0.57136279 720903
-0.099186644 -0.050563909 0.57952511 721157
-0.093489885 -0.050563909 0.57952511 786698
-0.087793127 -0.050563909 0.57952511 720903
-0.082096368 -0.050563909 0.57952511 655366
-0.076399609 -0.050563909 0.57952511 590087
-0.070702858 -0.050563909 0.57952511 786698
-0.067916818 -0.052827965 0.605474 786696
0 0 0 1049098
0 0 0 918282
0 0 0 983559
0 0 0 1049611
0 0 0 1049611
0 0 0 1115401
0 0 0 1246989
0 0 0 1115146
0 0 0 1575439
0 0 0 1707024
0 0 0 2035217
0 0 0 2035215
0 0 0 4070419
0 0 0 5713438
0 0 0 5253664
0 0 0 5844254
0 0 0 4991006
0 0 0 5515805
0 0 0 5975327
0 0 0 2756362
0 0 0 1707025
0 0 0 1641231
0.77022552 -0.58991224 6.761126 1509645
0.71716088 -0.50563908 5.7952509 1247247
0.9031499 -0.58991224 6.761126 7885637
0 0 0 9593413
0.47818813 -0.27226722 3.1205199 10250824
0.41345116 -0.22121711 2.5354223 11038540
0.43837446 -0.22121711 2.5354223 11826511
0.49418429 -0.23596489 2.7044504 13207897
0.60088754 -0.27226722 3.1205199 13272923
0.68419254 -0.29495612 3.380563 13667677
0.71742362 -0.29495612 3.380563 13798748
0.7506547 -0.29495612 3.380563 14192479
0.72358692 -0.27226722 3.1205199 14390113
0.6536935 -0.23596489 2.7044504 14127456
0.72886968 -0.25281954 2.8976254 14324836
0.81561148 -0.27226722 3.1205199 14061920
0.84628636 -0.27226722 3.1205199 14193761
0.87696117 -0.27226722 3.1205199 14455651
0.90763605 -0.27226722 3.1205199 14390628
0.93831086 -0.27226722 3.1205199 14521701
0.96898574 -0.27226722 3.1205199 14390627
0.99966061 -0.27226722 3.1205199 14456676
1.0303354 -0.27226722 3.1205199 14521953
1.0610102 -0.27226722 3.1205199 14456163
1.0916852 -0.27226722 3.1205199 14193760
1.12236 -0.27226722 3.1205199 14455651
1.1530348 -0.27226722 3.1205199 14128226
1.0991589 -0.25281954 2.8976254 14127456
1.1276428 -0.25281954 2.8976254 14259044
1.1561265 -0.25281954 2.8976254 14061920
1.1846102 -0.25281954 2.8976254 13931104
1.2130941 -0.25281954 2.8976254 14258272
1.2415779 -0.25281954 2.8976254 13930849
1.3677588 -0.27226722 3.1205199 13995870
1.2119757 -0.23596489 2.7044504 13864797
1.2385606 -0.23596489 2.7044504 13930077
1.1163049 -0.20820433 2.3862798 13864032
1.1397622 -0.20820433 2.3862798 13470814
1.1632193 -0.20820433 2.3862798 12285518
1.1866766 -0.20820433 2.3862798 1313040
1.0827513 -0.18628809 2.1350925 1116431
1.1037394 -0.18628809 2.1350925 1313042
1.0684911 -0.17697369 2.028338 1181967
1.1457155 -0.18628809 2.1350925 1181713
1.2315204 -0.19663744 2.2537088 1247247
1.2536745 -0.19663744 2.2537088 1115661
1.2758286 -0.19663744 2.2537088 984845
1.3743345 -0.20820433 2.3862798 1050382
1.3977917 -0.20820433 2.3862798 1115917
1.4212489 -0.20820433 2.3862798 918795
1.4447062 -0.20820433 2.3862798 853261
1.4681635 -0.20820433 2.3862798 984075
1.4916207 -0.20820433 2.3862798 1050640
1.2878163 -0.17697369 2.028338 853261
1.307755 -0.17697369 2.028338 787468
1.3276936 -0.17697369 2.028338 853261
1.3476323 -0.17697369 2.028338 984077
1.3675709 -0.17697369 2.028338 918284
1.4605364 -0.18628809 2.1350925 853261
1.4815243 -0.18628809 2.1350925 984075
1.4273869 -0.17697369 2.028338 853005
1.4473255 -0.17697369 2.028338 787468
1.4672642 -0.17697369 2.028338 721931
1.4872029 -0.17697369 2.028338 918539
1.5071415 -0.17697369 2.028338 918282
1.5270802 -0.17697369 2.028338 853259
1.5470188 -0.17697369 2.028338 1049868
1.6494288 -0.18628809 2.1350925 984075
1.6704168 -0.18628809 2.1350925 918282
1.6914049 -0.18628809 2.1350925 918278
1.5493079 -0.16854636 1.9317503 10184264
1.568297 -0.16854636 1.9317503 10973519
1.5872862 -0.16854636 1.9317503 11170644
1.6865894 -0.17697369 2.028338 11235667
1.7065281 -0.17697369 2.028338 10973778
1.7264667 -0.17697369 2.028338 10842192
1.6632431 -0.16854636 1.9317503 11039573
1.6822323 -0.16854636 1.9317503 11038799
1.7862827 -0.17697369 2.028338 10908242
1.9012855 -0.18628809 2.1350925 10580560
2.1484234 -0.20820433 2.3862798 10645583
2.8401515 -0.27226722 3.1205199 10579793
2.8708265 -0.27226722 3.1205199 10776658
2.9015014 -0.27226722 3.1205199 10842194
2.9321761 -0.27226722 3.1205199 10842194
2.962851 -0.27226722 3.1205199 10842451
2.2891667 -0.20820433 2.3862798 10842194
2.312624 -0.20820433 2.3862798 10907731
2.3360813 -0.20820433 2.3862798 10579537
2.8651538 -0.25281954 2.8976254 10777171
2.3829956 -0.20820433 2.3862798 10972497
2.4064529 -0.20820433 2.3862798 10645331
2.2949152 -0.19663744 2.2537088 10776147
2.3170693 -0.19663744 2.2537088 10317649
2.2161064 -0.18628809 2.1350925 10251856
2.2370944 -0.18628809 2.1350925 10579792
2.1451783 -0.17697369 2.028338 10186063
2.165117 -0.17697369 2.028338 10186065
2.1850557 -0.17697369 2.028338 10382929
2.3210466 -0.18628809 2.1350925 10381389
2.3420346 -0.18628809 2.1350925 10512975
2.3630228 -0.18628809 2.1350925 10513231
2.5164559 -0.19663744 2.2537088 10579537
2.53861 -0.19663744 2.2537088 10513744
2.5607641 -0.19663744 2.2537088 10776658
2.5829182 -0.19663744 2.2537088 10842193
2.605072 -0.19663744 2.2537088 10711123
2.3645036 -0.17697369 2.028338 10973265
2.2708972 -0.16854636 1.9317503 10776399
2.2898865 -0.16854636 1.9317503 10118217
2.3088756 -0.16854636 1.9317503 8870982
2.4442582 -0.17697369 2.028338 9921869
2.7379966 -0.19663744 2.2537088 10776147
0 0 0 10841938
0 0 0 10907987
0 0 0 10711378
0 0 0 10776147
0 0 0 10776147
0 0 0 10710099
0 0 0 10644305
0 0 0 10645585
0 0 0 6898732
0 0 0 6832687
-2.689748 -0.17448337 2.2537088 7029035
-3.4297633 -0.22433576 2.8976254 6699558
-3.9681594 -0.26172504 3.380563 6766122
-3.9349284 -0.26172504 3.380563 5451806
-3.9016974 -0.26172504 3.380563 2296588
-3.8684664 -0.26172504 3.380563 1574153
-3.8352351 -0.26172504 3.380563 1247498
-3.8020041 -0.26172504 3.380563 1378057
-3.7687731 -0.26172504 3.380563 1443849
-4.0751367 -0.28551823 3.687887 1443592
-4.0388846 -0.28551823 3.687887 1903116
-4.4028959 -0.31407008 4.0566759 3283737
-4.3630185 -0.31407008 4.0566759 7293755
-4.3231416 -0.31407008 4.0566759 7489327
-4.7591825 -0.34896675 4.5074177 3215108
-4.7148743 -0.34896675 4.5074177 1837067
-4.6705661 -0.34896675 4.5074177 1904148
-4.6262579 -0.34896675 4.5074177 5322034
-4.123755 -0.31407008 4.0566759 9725514
-4.5376415 -0.34896675 4.5074177 10185029
-3.6763637 -0.28551823 3.687887 10644298
-3.6401114 -0.28551823 3.687887 10447433
-3.3035378 -0.26172504 3.380563 10710347
-3.0187449 -0.24159236 3.1205199 10644812
-2.98807 -0.24159236 3.1205199 10841934
-2.4028835 -0.19629379 2.5354223 10710860
-2.9267204 -0.24159236 3.1205199 11039823
-3.1373823 -0.26172504 3.380563 10906953
-3.7249818 -0.31407008 4.0566759 11169868
-3.6851046 -0.31407008 4.0566759 10973516
-3.3138428 -0.28551823 3.687887 11104844
-2.5752497 -0.22433576 2.8976254 11104332
-2.7426713 -0.24159236 3.1205199 11367245
-2.7119963 -0.24159236 3.1205199 11367502
-2.6813214 -0.24159236 3.1205199 11498062
-2.8715336 -0.26172504 3.380563 11499086
0 0 0 11433296
0 0 0 11368018
-0.69296008 -0.06543126 0.84514076 11695953
-0.67067987 -0.064095929 0.82789302 11630677
0 0 0 11827281
0 0 0 11958867
0 0 0 12090452
0 0 0 12286547
0 0 0 12417363
0 0 0 12418901
0 0 0 12222548
0 0 0 12484694
0 0 0 12549973
-0.37500754 -0.040788319 0.52684098 12484179
-0.39009327 -0.043023296 0.555709 12616275
-0.37943292 -0.042441901 0.54819942 12747093
-0.379168 -0.043023296 0.555709 13009493
-0.39536941 -0.0455174 0.587924 13010520
-0.38959008 -0.0455174 0.587924 12812114
-0.38945505 -0.046186775 0.59656996 13272919
0 0 0 13404506
0 0 0 13469528
0 0 0 13207383
0 0 0 13338967
0 0 0 13338712
0 0 0 13338712
0 0 0 13338197
0 0 0 6366987
0 0 0 1970449
-0.22054131 -0.030791182 0.3977133 5253667
-0.21877664 -0.031096045 0.40165105 3940126
-0.21697667 -0.031407006 0.40566757 3348249
-0.21298894 -0.031407006 0.40566757 2954007
-0.20900121 -0.031407006 0.40566757 3019027
-0.20708433 -0.031724248 0.40976521 2953747
-0.20305631 -0.031724248 0.40976521 2822161
-0.20105921 -0.032047965 0.41394651 2822416
-0.19902092 -0.032378357 0.41821399 2953746
-0.19490986 -0.032378357 0.41821399 2690832
-0.19688812 -0.033411708 0.43156123 2625296
-0.1968338 -0.03413805 0.440943 2690576
-0.19249931 -0.03413805 0.440943 2756112
-0.19023257 -0.034513194 0.44578853 2624526
