# .PCD v0.7 - Point Cloud Data file format
VERSION 0.7
FIELDS x y z rgb
SIZE 4 4 4 4
TYPE F F F U
COUNT 1 1 1 1
WIDTH 1262
HEIGHT 1
VIEWPOINT 0 0 0 1 0 0 0
POINTS 1262
DATA ascii
0 0 0 11220256
0 0 0 11024161
0 0 0 10958111
0 0 0 11089697
0 0 0 11417120
-0.083852693 0.39004084 1.014169 11089698
-0.065674096 0.34670293 0.90148348 11155491
-0.06087051 0.37146744 0.96587515 11417378
-0.052628987 0.38052762 0.98943311 11417378
-0.043975387 0.39004084 1.014169 11417378
-0.034006059 0.39004084 1.014169 11548449
-0.02465306 0.40004188 1.0401733 11483171
-0.015208008 0.42166573 1.0963988 11548449
-0.0042031598 0.40004188 1.0401733 11417376
0.0053374954 0.35458255 0.92197174 11548964
0.014080508 0.34670293 0.90148348 11548962
0.022942131 0.34670293 0.90148348 11548451
0.032526568 0.35458255 0.92197174 11352355
0.041589592 0.35458255 0.92197174 11548964
0.050652612 0.35458255 0.92197174 11614242
0.064085074 0.38052762 0.98943311 11417376
0.075656533 0.39004084 1.014169 11089952
0.085625857 0.39004084 1.014169 11351841
0.10062651 0.41056928 1.0675462 11680804
0.10556451 0.39004084 1.014169 11745827
0.11271594 0.38052762 0.98943311 11811363
0.1224421 0.38052762 0.98943311 11745828
0.13894615 0.40004188 1.0401733 11548962
0 0 0 11680290
0 0 0 11745568
0 0 0 11877414
0.26976892 0.60006279 1.5602599 11811361
0.28510633 0.60006279 1.5602599 11876900
0.30044377 0.60006279 1.5602599 11811621
0.32841244 0.62406528 1.6226703 11877414
0.34436336 0.62406528 1.6226703 11877668
0.37532735 0.65006799 1.6902815 12074020
0.42757407 0.7091651 1.8439435 11877668
0.46692392 0.74293488 1.9317503 11877154
0.48591313 0.74293488 1.9317503 11877668
0.5049023 0.74293488 1.9317503 12074533
0.52389151 0.74293488 1.9317503 12271143
0.49567369 0.67833185 1.763772 12008738
0.49163616 0.65006799 1.6902815 12074533
0.48792166 0.62406528 1.6226703 12074279
0.34991151 0.4333787 1.1268544 12204836
0.35123208 0.42166573 1.0963988 12205350
0.36200973 0.42166573 1.0963988 11876899
0.37278739 0.42166573 1.0963988 12008740
0.417409 0.45887154 1.1931399 11877668
0.45595872 0.487551 1.2677112 11811623
0.51687765 0.53798729 1.3988537 11549476
0.53062844 0.53798729 1.3988537 11680548
0.56382138 0.55720115 1.4488127 11549734
0.57806325 0.55720115 1.4488127 11550506
0.61424243 0.57783824 1.5024725 11680805
0.62901175 0.57783824 1.5024725 11615269
0.79009503 0.7091651 1.8439435 11745828
0.6585505 0.57783824 1.5024725 11483941
0.64927274 0.55720115 1.4488127 11549220
0.64063483 0.53798729 1.3988537 11681320
0.65438563 0.53798729 1.3988537 11286821
0.69199842 0.55720115 1.4488127 11417636
0.7062403 0.55720115 1.4488127 11614242
0.72048217 0.55720115 1.4488127 11418146
0.70938879 0.53798729 1.3988537 11680550
0.74896598 0.55720115 1.4488127 11418148
0.82191622 0.60006279 1.5602599 11287076
0.90702474 0.65006799 1.6902815 11091238
0.8525911 0.60006279 1.5602599 10763046
0.94025582 0.65006799 1.6902815 10959142
0.91859657 0.62406528 1.6226703 10959652
0.93454748 0.62406528 1.6226703 10696482
0.91394079 0.60006279 1.5602599 10959138
0.96644932 0.62406528 1.6226703 11024675
1.0678263 0.67833185 1.763772 10893605
0.99835116 0.62406528 1.6226703 10893859
1.0565646 0.65006799 1.6902815 11024675
1.0731802 0.65006799 1.6902815 11089956
1.0897957 0.65006799 1.6902815 11220769
1.1064112 0.65006799 1.6902815 11156260
1.1230268 0.65006799 1.6902815 11286564
0.97683632 0.55720115 1.4488127 11156263
1.0277848 0.57783824 1.5024725 10958885
1.0425543 0.57783824 1.5024725 11089955
1.0979899 0.60006279 1.5602599 10959141
1.1578604 0.62406528 1.6226703 11090468
1.1738113 0.62406528 1.6226703 10959139
1.1897622 0.62406528 1.6226703 10696225
1.2057132 0.62406528 1.6226703 10893089
1.3882545 0.7091651 1.8439435 10368288
1.4063807 0.7091651 1.8439435 10434083
1.4245067 0.7091651 1.8439435 10499619
1.5113295 0.74293488 1.9317503 10500131
1.5303187 0.74293488 1.9317503 10107172
1.5493079 0.74293488 1.9317503 10107687
1.37226 0.65006799 1.6902815 10172966
1.3888755 0.65006799 1.6902815 10304039
1.405491 0.65006799 1.6902815 10501159
1.4839373 0.67833185 1.763772 10303780
1.5012753 0.67833185 1.763772 10370343
1.4553376 0.65006799 1.6902815 10566439
1.4719532 0.65006799 1.6902815 10369317
1.429026 0.62406528 1.6226703 10303781
1.3379416 0.57783824 1.5024725 10106919
1.4609278 0.62406528 1.6226703 10304298
1.6782713 0.7091651 1.8439435 10172711
1.6963974 0.7091651 1.8439435 9910310
1.7145234 0.7091651 1.8439435 10304555
1.8151566 0.74293488 1.9317503 10172199
2.0272138 0.82113856 2.1350925 10369832
2.2891667 0.91774309 2.3862798 10172710
0 0 0 10303779
0 0 0 10041894
0 0 0 10304298
8.1021862 3.1203268 8.1133518 10304040
1.9480809 0.74293488 1.9317503 10108201
1.9670701 0.74293488 1.9317503 9976101
2.0853624 0.78008169 2.028338 10370345
2.1053011 0.78008169 2.028338 10435368
2.1252398 0.78008169 2.028338 10107946
2.1451783 0.78008169 2.028338 10173481
2.165117 0.78008169 2.028338 10239786
2.1850557 0.78008169 2.028338 10173993
2.2049944 0.78008169 2.028338 10436138
2.1189837 0.74293488 1.9317503 10305323
2.2448716 0.78008169 2.028338 10305322
2.2648103 0.78008169 2.028338 10239532
2.284749 0.78008169 2.028338 10371888
2.3046875 0.78008169 2.028338 10569267
2.3246262 0.78008169 2.028338 10896174
0 0 0 10634800
0 0 0 10503728
0 0 0 10240043
0 0 0 10043179
0 0 0 9059114
0 0 0 6565923
0 0 0 5909541
0 0 0 6500903
0 0 0 6435878
0 0 0 5844258
0 0 0 5581603
0 0 0 5648168
0 0 0 5517352
0 0 0 5911594
0 0 0 6501157
0 0 0 1707281
0 0 0 2035989
-0.80692434 0.26667342 0.67611259 1904403
-0.80027813 0.26667342 0.67611259 2627095
-0.82099855 0.27586904 0.69942683 2166800
-0.81412315 0.27586904 0.69942683 1970195
-0.80724776 0.27586904 0.69942683 2496540
-0.81441402 0.28070888 0.71169752 2759969
-0.82183611 0.28572151 0.72440636 2431003
-0.82952815 0.29091644 0.73757738 1838866
-0.83750516 0.29630381 0.75123626 1904399
-0.83012044 0.29630381 0.75123626 2496536
-0.79335231 0.28572151 0.72440636 3352104
-0.77243787 0.28070888 0.71169752 3811623
-0.76544189 0.28070888 0.71169752 4073763
-0.77198946 0.28572151 0.72440636 4072990
-0.77877522 0.29091644 0.73757738 3875613
-0.75774759 0.28572151 0.72440636 4204578
-0.75062662 0.28572151 0.72440636 3875355
-0.78559089 0.30189443 0.76541048 3941662
-0.79302979 0.30770013 0.78012997 3940636
0 0 0 4336164
-0.91909093 0.36364558 0.92197174 4795689
-0.75549483 0.30189443 0.76541048 7025706
-0.74797082 0.30189443 0.76541048 8466980
-0.74044681 0.30189443 0.76541048 9647913
-0.73292279 0.30189443 0.76541048 9975847
-0.72539878 0.30189443 0.76541048 10172709
-0.7316801 0.30770013 0.78012997 10566181
-0.75297177 0.3200081 0.81133515 10631462
-0.71634263 0.30770013 0.78012997 10369060
-0.72256947 0.31373343 0.79542661 10435366
-0.70100522 0.30770013 0.78012997 10566439
-0.69333649 0.30770013 0.78012997 10565668
-0.68566781 0.30770013 0.78012997 10696226
-0.66520661 0.30189443 0.76541048 10762019
-0.67033035 0.30770013 0.78012997 10893605
-0.66266167 0.30770013 0.78012997 10893347
-0.65499294 0.30770013 0.78012997 11090724
-0.6473242 0.30770013 0.78012997 11286562
-0.65219778 0.31373343 0.79542661 11352355
-0.64437866 0.31373343 0.79542661 11155747
-0.6492908 0.3200081 0.81133515 10893604
-0.65440339 0.32653889 0.82789302 10828580
-0.64626521 0.32653889 0.82789302 10893859
-0.63812697 0.32653889 0.82789302 11025445
-0.62998873 0.32653889 0.82789302 10893860
-0.62185049 0.32653889 0.82789302 11024678
-0.61371231 0.32653889 0.82789302 10763046
-0.87273908 0.47060016 1.1931399 10959397
-0.97581184 0.53334683 1.3522252 11025445
-0.99570972 0.55173808 1.3988537 10959395
0 0 0 10828067
0 0 0 11221800
0 0 0 10827812
0 0 0 11156518
-0.67204297 0.40001017 1.014169 11089956
-0.66207361 0.40001017 1.014169 11155491
-0.79042941 0.48486075 1.2292956 11220769
-0.80266869 0.5000127 1.2677112 11089953
-0.79020703 0.5000127 1.2677112 11156006
-0.77774537 0.5000127 1.2677112 11090212
-0.78997028 0.51614213 1.3086051 10959140
-0.80301017 0.53334683 1.3522252 10893605
-0.78971773 0.53334683 1.3522252 11156261
-0.7764253 0.53334683 1.3522252 10959395
-0.76313287 0.53334683 1.3522252 11024676
-0.72565204 0.51614213 1.3086051 10958882
-0.55241102 0.40001017 1.014169 11220769
-0.49312881 0.36364558 0.92197174 11221541
-0.47330877 0.35556456 0.90148348 11286562
-0.4265331 0.32653889 0.82789302 11089954
-0.41839486 0.32653889 0.82789302 11155747
-0.37929386 0.30189443 0.76541048 11417378
-0.33972073 0.27586904 0.69942683 11286562
-0.3272039 0.27119333 0.68757218 11285790
-0.32044503 0.27119333 0.68757218 11286050
-0.31909454 0.27586904 0.69942683 11220769
-0.30181181 0.26667342 0.67611259 11351842
-0.30016842 0.27119333 0.68757218 11417378
-0.23393466 0.21622169 0.54819942 11219999
-0.23167659 0.21918364 0.555709 10826783
-0.223157 0.21622169 0.54819942 10629663
-0.21776818 0.21622169 0.54819942 10760733
-0.20410483 0.20779747 0.52684098 11023391
-0.19637564 0.20513341 0.52008665 10957599
-0.19126315 0.20513341 0.52008665 10892576
-0.18856822 0.20779747 0.52684098 11023392
-0.18338934 0.20779747 0.52684098 11285792
-0.17821047 0.20779747 0.52684098 11351072
-0.1730316 0.20779747 0.52684098 11089697
-0.16785273 0.20779747 0.52684098 11089697
-0.16267386 0.20779747 0.52684098 11154976
-0.15749499 0.20779747 0.52684098 11220769
-0.15231612 0.20779747 0.52684098 11219999
-0.15310228 0.21622169 0.54819942 10826783
-0.14771345 0.21622169 0.54819942 10826783
-0.13857925 0.21053165 0.53377312 10893093
-0.13160063 0.20779747 0.52684098 10695713
-0.12642176 0.20779747 0.52684098 10958112
-0.1212429 0.20779747 0.52684098 10827294
-0.11457603 0.20513341 0.52008665 10892574
-0.11234418 0.21053165 0.53377312 10892318
-0.10709716 0.21053165 0.53377312 11089183
-0.11218277 0.23188993 0.587924 10827296
-0.10640345 0.23188993 0.587924 11285792
-0.096431464 0.22222787 0.56342721 11154719
-0.087257229 0.21333875 0.5408901 11482914
-0.085354432 0.22222787 0.56342721 11351328
-0.083286174 0.23188993 0.587924 11153949
0 0 0 11285791
0 0 0 10892576
0 0 0 10826524
0 0 0 11024162
-0.10142921 0.43244338 1.0963988 11089954
-0.090651557 0.43244338 1.0963988 10892574
-0.079873905 0.43244338 1.0963988 11089441
-0.062355161 0.39025378 0.98943311 11286047
-0.053944714 0.40001017 1.014169 11220768
-0.043975387 0.40001017 1.014169 11417122
-0.034006059 0.40001017 1.014169 11286304
-0.02465306 0.41026682 1.0401733 11089439
-0.01442811 0.41026682 1.0401733 11548706
-0.003902934 0.38096201 0.96587515 11482911
0.0054616234 0.37210247 0.94341296 11548705
0.014735416 0.37210247 0.94341296 11483169
0.024580855 0.38096201 0.96587515 11351327
0.03407545 0.38096201 0.96587515 11286049
0.041589592 0.36364558 0.92197174 11221026
0.050652612 0.36364558 0.92197174 11286306
0.064085074 0.39025378 0.98943311 11155746
0.075656533 0.40001017 1.014169 11286562
0.090132482 0.4210633 1.0675462 11287075
0.10334614 0.43244338 1.0963988 11417891
0.11112054 0.4210633 1.0675462 11156002
0.11849624 0.41026682 1.0401733 11614241
0.12872119 0.41026682 1.0401733 11745826
0.13894615 0.41026682 1.0401733 11614241
0.15723439 0.43244338 1.0963988 11548703
0.16801204 0.43244338 1.0963988 11746082
0.23625781 0.57144302 1.4488127 11811361
0.25977746 0.59260762 1.5024725 11680035
0.28510633 0.61540025 1.5602599 11942947
0.30044377 0.61540025 1.5602599 11876900
0.32841244 0.6400162 1.6226703 12139813
0.34436336 0.6400162 1.6226703 11877154
0.37532735 0.66668355 1.6902815 12205607
0.42757407 0.72729117 1.8439435 12074790
0.46692392 0.76192403 1.9317503 12271653
0.51020885 0.80002034 2.028338 12206118
0.5049023 0.76192403 1.9317503 11878181
0.52389151 0.76192403 1.9317503 11878181
0.51820433 0.72729117 1.8439435 12009254
0.51301163 0.69566977 1.763772 11812388
0.50825173 0.66668355 1.6902815 12009254
0.50387257 0.6400162 1.6226703 11745828
0.41921249 0.51614213 1.3086051 12074279
0.37206557 0.44445574 1.1268544 12008999
0.40568039 0.47060016 1.1931399 11876900
0.417409 0.47060016 1.1931399 11877927
0.50312686 0.55173808 1.3988537 12074533
0.51687765 0.55173808 1.3988537 11877668
0.54957944 0.57144302 1.4488127 11943461
0.56382138 0.57144302 1.4488127 11745828
0.59947306 0.59260762 1.5024725 11549221
0.61424243 0.59260762 1.5024725 11746339
0.62901175 0.59260762 1.5024725 11746341
0.69528365 0.6400162 1.6226703 11812134
0.71123457 0.6400162 1.6226703 11221540
0.64927274 0.57144302 1.4488127 11352870
0.64063483 0.55173808 1.3988537 11221540
0.65438563 0.55173808 1.3988537 11418148
0.66813642 0.55173808 1.3988537 11417635
0.7062403 0.57144302 1.4488127 11221539
0.72048217 0.57144302 1.4488127 11548964
0.7347241 0.57144302 1.4488127 11483682
0.74896598 0.57144302 1.4488127 11418147
0.82191622 0.61540025 1.5602599 11418148
0.90702474 0.66668355 1.6902815 11548962
0.92364031 0.66668355 1.6902815 11286562
0.9811365 0.69566977 1.763772 11090469
0.95687139 0.66668355 1.6902815 10893861
0.93454748 0.6400162 1.6226703 10893602
0.91394079 0.61540025 1.5602599 10893089
0.96644932 0.6400162 1.6226703 10828067
1.0678263 0.69566977 1.763772 10565667
1.0851643 0.69566977 1.763772 10499619
1.1526159 0.72729117 1.8439435 10630948
1.1198401 0.69566977 1.763772 10827554
1.1371782 0.69566977 1.763772 11024675
1.26447 0.76192403 1.9317503 10958883
1.2834592 0.76192403 1.9317503 10959139
1.3024484 0.76192403 1.9317503 11090468
1.1562579 0.66668355 1.6902815 10762275
1.1259586 0.6400162 1.6226703 11024421
1.1419095 0.6400162 1.6226703 10958885
1.1578604 0.6400162 1.6226703 10827554
1.1738113 0.6400162 1.6226703 10827296
1.1440022 0.61540025 1.5602599 10958628
1.1593395 0.61540025 1.5602599 11023908
1.3882545 0.72729117 1.8439435 10696739
1.4733511 0.76192403 1.9317503 10696997
1.4923403 0.76192403 1.9317503 10631462
1.5113295 0.76192403 1.9317503 10434085
1.5303187 0.76192403 1.9317503 10303269
1.5493079 0.76192403 1.9317503 9975844
1.4970108 0.72729117 1.8439435 10107174
1.3888755 0.66668355 1.6902815 10303782
1.405491 0.66668355 1.6902815 10566696
1.4221066 0.66668355 1.6902815 10631719
1.5012753 0.69566977 1.763772 10435367
1.4553376 0.66668355 1.6902815 10238759
1.4719532 0.66668355 1.6902815 10304552
1.4885688 0.66668355 1.6902815 10500649
1.6420193 0.72729117 1.8439435 10435112
1.7391998 0.76192403 1.9317503 10041383
1.6782713 0.72729117 1.8439435 9976360
1.4928297 0.6400162 1.6226703 10106919
1.5716465 0.66668355 1.6902815 10107176
1.6573169 0.69566977 1.763772 10106918
1.8341458 0.76192403 1.9317503 10106149
1.853135 0.76192403 1.9317503 10237735
1.8721242 0.76192403 1.9317503 10106920
1.8911134 0.76192403 1.9317503 9910310
8.0224314 3.2000813 8.1133518 9975589
1.9290917 0.76192403 1.9317503 10172197
1.9480809 0.76192403 1.9317503 9975333
1.9670701 0.76192403 1.9317503 10107946
1.9860593 0.76192403 1.9317503 9910309
2.0050485 0.76192403 1.9317503 10107430
2.1252398 0.80002034 2.028338 10173480
2.0430269 0.76192403 1.9317503 10173480
2.062016 0.76192403 1.9317503 10304811
2.0810053 0.76192403 1.9317503 10107946
2.0999944 0.76192403 1.9317503 10370859
2.1189837 0.76192403 1.9317503 10370859
2.1379728 0.76192403 1.9317503 10568236
2.2648103 0.80002034 2.028338 10503215
2.284749 0.80002034 2.028338 10569009
2.3046875 0.80002034 2.028338 10371373
2.3246262 0.80002034 2.028338 10633516
0 0 0 10567210
0 0 0 10436396
0 0 0 10239789
0 0 0 10175022
0 0 0 9912620
0 0 0 8141867
0 0 0 6107172
0 0 0 6107172
0 0 0 6500901
0 0 0 6500900
0 0 0 6172452
0 0 0 5384226
0 0 0 5122081
0 0 0 4990494
0 0 0 5253664
0 0 0 2431004
0 0 0 2497053
-0.79369611 0.268839 0.66502881 2037014
-0.80027813 0.27331963 0.67611259 1708307
-0.79363191 0.27331963 0.67611259 1905430
-0.81412315 0.28274444 0.69942683 2234137
-0.80724776 0.28274444 0.69942683 3350559
-0.8003723 0.28274444 0.69942683 4335652
-0.80741799 0.28770489 0.71169752 5189418
-0.80042195 0.28770489 0.71169752 4993063
-0.77974612 0.28274444 0.69942683 4927268
-0.78642994 0.28770489 0.71169752 3941147
-0.76599532 0.28274444 0.69942683 3743770
-0.75911993 0.28274444 0.69942683 3678489
-0.76544189 0.28770489 0.71169752 3809820
-0.78602564 0.29816687 0.73757738 4007199
-0.79319704 0.3036885 0.75123626 4597536
-0.78581238 0.3036885 0.75123626 5516067
-0.76427442 0.29816687 0.73757738 5712932
-0.75702399 0.29816687 0.73757738 6698534
-0.72346574 0.28770489 0.71169752 7681578
-0.77054286 0.30941844 0.76541048 8927272
-0.80880004 0.32798356 0.81133515 9844515
-0.80082458 0.32798356 0.81133515 10107173
-0.74797082 0.30941844 0.76541048 9909794
-0.74044681 0.30941844 0.76541048 10172965
-0.73292279 0.30941844 0.76541048 10238244
-0.72539878 0.30941844 0.76541048 10237474
-0.71787477 0.30941844 0.76541048 10434596
-0.72401136 0.31536883 0.78012997 10434338
-0.71634263 0.31536883 0.78012997 10631975
-0.70867395 0.31536883 0.78012997 10631460
-0.70100522 0.31536883 0.78012997 10565667
-0.69333649 0.31536883 0.78012997 10697255
-0.68566781 0.31536883 0.78012997 10434339
-0.67799908 0.31536883 0.78012997 10368804
-0.68347406 0.32155252 0.79542661 10566184
-0.66266167 0.31536883 0.78012997 10631204
-0.66783589 0.32155252 0.79542661 11155748
-0.66001683 0.32155252 0.79542661 11090467
-0.65219778 0.32155252 0.79542661 11089955
-0.65726626 0.32798356 0.81133515 11025188
-0.6492908 0.32798356 0.81133515 11090468
-0.65440339 0.33467713 0.82789302 11155491
-0.64626521 0.33467713 0.82789302 10893605
-0.69484931 0.3644262 0.90148348 11090211
-0.68598771 0.3644262 0.90148348 11156004
-0.67712611 0.3644262 0.90148348 11090214
-0.91126972 0.49694479 1.2292956 10959397
-0.98910427 0.54663926 1.3522252 11090470
-1.0094606 0.56548887 1.3988537 11090214
-0.99570972 0.56548887 1.3988537 11090214
0 0 0 10828581
0 0 0 10894117
0 0 0 11024675
0 0 0 10828326
0 0 0 10762533
0 0 0 11221798
0 0 0 11089955
-0.80266869 0.51247436 1.2677112 11156004
-0.79020703 0.51247436 1.2677112 11155748
-0.77774537 0.51247436 1.2677112 11024162
-0.78997028 0.52900577 1.3086051 11089957
-0.77710664 0.52900577 1.3086051 11090212
-0.76424301 0.52900577 1.3086051 11287332
-0.7764253 0.54663926 1.3522252 11090466
-0.76313287 0.54663926 1.3522252 11155748
-0.74984044 0.54663926 1.3522252 11221539
-0.6695891 0.49694479 1.2292956 11155746
-0.54244173 0.40997949 1.014169 11221024
-0.47330877 0.3644262 0.90148348 11286560
-0.44468343 0.34891868 0.86312246 11024416
-0.41839486 0.33467713 0.82789302 11023646
-0.37929386 0.30941844 0.76541048 11220770
-0.34568074 0.28770489 0.71169752 11155234
-0.3272039 0.27795219 0.68757218 11089955
-0.32044503 0.27795219 0.68757218 11023908
-0.31368616 0.27795219 0.68757218 11221283
-0.30181181 0.27331963 0.67611259 10827038
-0.30016842 0.27795219 0.68757218 10958112
-0.28378958 0.268839 0.66502881 11023649
-0.23820271 0.23097435 0.57136279 10892576
-0.223157 0.22161052 0.54819942 10695456
-0.21776818 0.22161052 0.54819942 10827040
-0.20954762 0.21865572 0.5408901 11089440
-0.19892596 0.21297634 0.52684098 10629918
-0.19126315 0.21024589 0.52008665 10630175
-0.18379433 0.20758455 0.51350325 10892319
-0.17433308 0.20245899 0.50082415 10892322
-0.17369881 0.20758455 0.51350325 10958369
-0.1730316 0.21297634 0.52684098 10957599
-0.16785273 0.21297634 0.52684098 11023392
-0.16267386 0.21297634 0.52684098 11023649
-0.15749499 0.21297634 0.52684098 10958369
-0.15231612 0.21297634 0.52684098 11023648
-0.15310228 0.22161052 0.54819942 10957597
-0.14771345 0.22161052 0.54819942 10892576
-0.13857925 0.21577866 0.53377312 10761249
-0.13160063 0.21297634 0.52684098 10695713
-0.12480098 0.21024589 0.52008665 10892577
-0.1212429 0.21297634 0.52684098 10630430
-0.11606403 0.21297634 0.52684098 11023903
-0.11088516 0.21297634 0.52684098 10761504
-0.10570628 0.21297634 0.52684098 11089697
-0.10052741 0.21297634 0.52684098 10826783
-0.095348544 0.21297634 0.52684098 11154978
-0.090169676 0.21297634 0.52684098 11285790
-0.086109102 0.21577866 0.53377312 11220513
-0.089065492 0.23766924 0.587924 11286049
0 0 0 11154976
0 0 0 11286305
0 0 0 11220256
0 0 0 11417378
-0.10379135 0.40997949 1.014169 10892576
-0.093822017 0.40997949 1.014169 11285792
-0.090651557 0.44322103 1.0963988 11024160
-0.082092628 0.45553276 1.1268544 11089185
-0.06909626 0.44322103 1.0963988 11285792
-0.053944714 0.40997949 1.014169 10893087
-0.043975387 0.40997949 1.014169 11286049
-0.034006059 0.40997949 1.014169 11286049
-0.02465306 0.42049178 1.0401733 11024159
-0.01442811 0.42049178 1.0401733 11286048
-0.0039981278 0.39997998 0.98943311 11548193
0.0054616234 0.38137624 0.94341296 11482657
0.014735416 0.38137624 0.94341296 11286562
0.025180388 0.39997998 0.98943311 11351071
0.03407545 0.39045662 0.96587515 11483171
0.043570045 0.39045662 0.96587515 11680291
0.053064641 0.39045662 0.96587515 11417891
0.064085074 0.39997998 0.98943311 11286305
0.075656533 0.40997949 1.014169 11548707
0.090132482 0.43155733 1.0675462 11417378
0.11246492 0.48232877 1.1931399 11482913
0.11112054 0.43155733 1.0675462 11417890
0.12837093 0.45553276 1.1268544 11549221
0.13944796 0.45553276 1.1268544 11418146
0.15052499 0.45553276 1.1268544 11220769
0.16160202 0.45553276 1.1268544 11483941
0.16801204 0.44322103 1.0963988 11680289
0.18375608 0.45553276 1.1268544 11942947
0.2504997 0.58568496 1.4488127 11680289
0.2647416 0.58568496 1.4488127 11680548
0.30044377 0.63073766 1.5602599 12008227
0.31578118 0.63073766 1.5602599 11811107
0.34436336 0.65596712 1.6226703 12074277
0.36031428 0.65596712 1.6226703 12074020
0.39194289 0.68329906 1.6902815 11942693
0.44570011 0.74541718 1.8439435 11942947
0.48591313 0.78091323 1.9317503 12205091
0.5049023 0.78091323 1.9317503 12008740
0.52389151 0.78091323 1.9317503 12140326
0.51820433 0.74541718 1.8439435 11943461
0.51301163 0.71300775 1.763772 12271910
0.50825173 0.68329906 1.6902815 11747366
0.50387257 0.65596712 1.6226703 11812903
0.41921249 0.52900577 1.3086051 11877413
0.41857377 0.51247436 1.2677112 11876900
0.43103543 0.51247436 1.2677112 11812388
0.48937607 0.56548887 1.3988537 11877414
0.52109569 0.58568496 1.4488127 11811877
0.51687765 0.56548887 1.3988537 11943207
0.54957944 0.58568496 1.4488127 11811621
0.56382138 0.58568496 1.4488127 11877414
0.59947306 0.60737699 1.5024725 11681316
0.61424243 0.60737699 1.5024725 11549986
0.62901175 0.60737699 1.5024725 12008740
0.66854197 0.63073766 1.5602599 12008486
0.71123457 0.65596712 1.6226703 11483427
0.67331988 0.60737699 1.5024725 11417893
0.66351461 0.58568496 1.4488127 11287330
0.65438563 0.56548887 1.3988537 11222052
0.69199842 0.58568496 1.4488127 11286562
0.73239738 0.60737699 1.5024725 11221026
0.72048217 0.58568496 1.4488127 11483685
0.7347241 0.58568496 1.4488127 11352613
0.74896598 0.58568496 1.4488127 11548962
0.82191622 0.63073766 1.5602599 11352868
0.83725363 0.63073766 1.5602599 11090466
0.88669467 0.65596712 1.6226703 11417635
0.94025582 0.68329906 1.6902815 11286820
0.95687139 0.68329906 1.6902815 10958882
0.9734869 0.68329906 1.6902815 11024673
0.9504984 0.65596712 1.6226703 11024673
1.006718 0.68329906 1.6902815 11024418
1.0678263 0.71300775 1.763772 11089955
1.1344899 0.74541718 1.8439435 11024421
1.2075025 0.78091323 1.9317503 10958882
1.170742 0.74541718 1.8439435 10893344
1.2454808 0.78091323 1.9317503 10368802
1.26447 0.78091323 1.9317503 10237474
1.2834592 0.78091323 1.9317503 10368545
1.3024484 0.78091323 1.9317503 10696228
1.20653 0.71300775 1.763772 10499619
1.2238679 0.71300775 1.763772 10499617
1.2412059 0.71300775 1.763772 10958885
1.1578604 0.65596712 1.6226703 10892836
1.1738113 0.65596712 1.6226703 10696480
1.1897622 0.65596712 1.6226703 10892837
1.2057132 0.65596712 1.6226703 11024421
1.3882545 0.74541718 1.8439435 10827814
1.4063807 0.74541718 1.8439435 10499620
1.4923403 0.78091323 1.9317503 10434083
1.5113295 0.78091323 1.9317503 10631206
1.5303187 0.78091323 1.9317503 10369062
1.5493079 0.78091323 1.9317503 10106660
1.4970108 0.74541718 1.8439435 10237476
1.3888755 0.68329906 1.6902815 10434083
1.405491 0.68329906 1.6902815 10369574
1.4221066 0.68329906 1.6902815 10566181
1.5012753 0.71300775 1.763772 10370088
1.5186132 0.71300775 1.763772 10435366
1.6057671 0.74541718 1.8439435 10566954
1.6238931 0.74541718 1.8439435 10172969
1.7202107 0.78091323 1.9317503 10304041
1.7391998 0.78091323 1.9317503 10435111
1.758189 0.78091323 1.9317503 10435112
1.622641 0.71300775 1.763772 10173225
1.6399789 0.71300775 1.763772 10237735
1.6573169 0.71300775 1.763772 10041640
1.8341458 0.78091323 1.9317503 10303782
1.853135 0.78091323 1.9317503 10172711
1.8721242 0.78091323 1.9317503 10303526
1.8911134 0.78091323 1.9317503 9975847
1.9101025 0.78091323 1.9317503 9975590
1.9290917 0.78091323 1.9317503 10106663
1.9480809 0.78091323 1.9317503 10040870
1.8776579 0.74541718 1.8439435 9975334
1.8957839 0.74541718 1.8439435 9910051
1.9139099 0.74541718 1.8439435 9713444
1.932036 0.74541718 1.8439435 9648165
2.0430269 0.78091323 1.9317503 9976358
2.062016 0.78091323 1.9317503 10041640
2.0810053 0.78091323 1.9317503 10107433
2.0999944 0.78091323 1.9317503 10370348
2.1189837 0.78091323 1.9317503 10435882
2.1379728 0.78091323 1.9317503 10567724
2.1569622 0.78091323 1.9317503 10436651
2.1759512 0.78091323 1.9317503 10568750
2.3046875 0.81995898 2.028338 10635314
2.3246262 0.81995898 2.028338 10437423
2.3445649 0.81995898 2.028338 10372401
2.7817688 0.96465755 2.3862798 10502445
0 0 0 10633777
0 0 0 10305582
0 0 0 9781547
0 0 0 8863789
0 0 0 7289387
0 0 0 6369574
0 0 0 6435111
0 0 0 6960426
0 0 0 6303011
0 0 0 5580578
0 0 0 4858908
0 0 0 5122593
0 0 0 5122594
0 0 0 1969682
0 0 0 3351077
-0.79369611 0.27537626 0.66502881 4730922
-0.78715885 0.27537626 0.66502881 5321004
-0.79363191 0.27996585 0.67611259 5321258
-0.8003245 0.28471106 0.68757218 5387305
-0.80724776 0.28961986 0.69942683 4927525
-0.78680676 0.28471106 0.68757218 4927783
-0.78004789 0.28471106 0.68757218 5058855
-0.77328902 0.28471106 0.68757218 5124134
-0.74139798 0.27537626 0.66502881 4664353
-0.72300816 0.2709347 0.65430254 4006429
-0.72832346 0.27537626 0.66502881 4138533
-0.75911993 0.28961986 0.69942683 4466724
-0.76544189 0.29470092 0.71169752 5975848
-0.83137333 0.32303753 0.78012997 8008230
0 0 0 8664615
0 0 0 8664102
-0.80836719 0.32303753 0.78012997 9123110
-0.75702399 0.3054173 0.73757738 9122850
-0.72346574 0.29470092 0.71169752 9581602
-0.74252313 0.3054173 0.73757738 9778722
-0.76301885 0.31694248 0.76541048 9975587
-0.80082458 0.33595905 0.81133515 10172196
-0.79284912 0.33595905 0.81133515 9976101
-0.74044681 0.31694248 0.76541048 9909794
-0.73292279 0.31694248 0.76541048 10041123
-0.73934877 0.32303753 0.78012997 10171937
-0.7316801 0.32303753 0.78012997 10302753
-0.72401136 0.32303753 0.78012997 10434853
-0.71634263 0.32303753 0.78012997 10237472
-0.70867395 0.32303753 0.78012997 10762787
-0.70100522 0.32303753 0.78012997 10565410
-0.69333649 0.32303753 0.78012997 10696740
-0.68566781 0.32303753 0.78012997 10500645
-0.67799908 0.32303753 0.78012997 10565926
-0.68347406 0.3293716 0.79542661 10565668
-0.67565501 0.3293716 0.79542661 10696997
-0.66783589 0.3293716 0.79542661 11090468
-0.67321718 0.33595905 0.81133515 11090468
-0.66524172 0.33595905 0.81133515 11090212
-0.65726626 0.33595905 0.81133515 10827813
-0.6492908 0.33595905 0.81133515 10894373
-0.65440339 0.34281534 0.82789302 10893859
-0.659729 0.34995732 0.84514076 10959652
0 0 0 10696995
0 0 0 10697251
0 0 0 11024675
-1.0369622 0.57923973 1.3988537 11024933
-0.95719773 0.5418694 1.3086051 10827812
-0.91482359 0.52493596 1.2677112 11090726
-0.90236193 0.52493596 1.2677112 11090725
-0.88990027 0.52493596 1.2677112 10828326
-0.90574312 0.5418694 1.3086051 10893859
0 0 0 10958882
0 0 0 11090467
0 0 0 11155234
0 0 0 11155748
0 0 0 11089955
-0.80266869 0.52493596 1.2677112 10958882
-0.79020703 0.52493596 1.2677112 11155748
-0.77774537 0.52493596 1.2677112 11352096
-0.78997028 0.5418694 1.3086051 11090468
-0.80301017 0.5599317 1.3522252 11090211
-0.78971773 0.5599317 1.3522252 11155747
-0.7764253 0.5599317 1.3522252 10958625
-0.73851573 0.5418694 1.3086051 11090466
-0.68167311 0.50902879 1.2292956 11287075
-0.6695891 0.50902879 1.2292956 11287332
-0.65750504 0.50902879 1.2292956 11024673
-0.48406577 0.38177162 0.92197174 11155233
-0.46444714 0.3732878 0.90148348 11024673
-0.42711142 0.34995732 0.84514076 11024674
-0.41025665 0.34281534 0.82789302 11220771
-0.36488524 0.31107318 0.75123626 11286821
-0.33868474 0.29470092 0.71169752 11155490
-0.32044503 0.28471106 0.68757218 11089698
-0.31368616 0.28471106 0.68757218 11417891
-0.30181181 0.27996585 0.67611259 11220767
-0.30016842 0.28471106 0.68757218 11154978
-0.28378958 0.27537626 0.66502881 11155233
0 0 0 11089440
-0.22621395 0.23010893 0.555709 11220256
0 0 0 11154976
0 0 0 10695966
-0.19892596 0.21815521 0.52684098 10761503
-0.18648158 0.20997441 0.50708449 10433568
-0.18149692 0.20997441 0.50708449 10695455
-0.17651226 0.20997441 0.50708449 10498848
-0.17152759 0.20997441 0.50708449 10695710
-0.16865106 0.2126323 0.51350325 10760990
-0.16785273 0.21815521 0.52684098 10826783
-0.16481431 0.22102568 0.53377312 10891805
-0.1595673 0.22102568 0.53377312 11024161
-0.15231612 0.21815521 0.52684098 11024161
-0.14713725 0.21815521 0.52684098 11089184
-0.14382626 0.22102568 0.53377312 11285535
-0.13857925 0.22102568 0.53377312 11154206
-0.12991346 0.21535836 0.52008665 10760992
-0.12480098 0.21535836 0.52008665 11089442
-0.1196885 0.21535836 0.52008665 10761502
-0.11606403 0.21815521 0.52684098 10760990
-0.11088516 0.21815521 0.52684098 10695710
-0.10570628 0.21815521 0.52684098 10958624
-0.10052741 0.21815521 0.52684098 10761503
-0.095348544 0.21815521 0.52684098 10827040
-0.090169676 0.21815521 0.52684098 10892574
-0.094844811 0.24344857 0.587924 11024674
0 0 0 11154976
0 0 0 11220257
0 0 0 11286308
0 0 0 11220769
0 0 0 11417378
0 0 0 11351583
-0.10142921 0.45399868 1.0963988 11351583
0 0 0 11220769
0 0 0 11351583
-0.088157289 0.57923973 1.3988537 11351583
-0.074406497 0.57923973 1.3988537 11024162
-0.043975387 0.41994882 1.014169 11286562
-0.034006059 0.41994882 1.014169 10958369
0 0 0 10958369
-0.014067408 0.41994882 1.014169 11417376
-0.0039981278 0.40970615 0.98943311 11482656
0.0054616234 0.39065003 0.94341296 11548449
0.015454216 0.40970615 0.98943311 11483941
0.025180388 0.40970615 0.98943311 11483169
0.034906559 0.40970615 0.98943311 11483171
0.044632733 0.40970615 0.98943311 11548703
0 0 0 11352355
0 0 0 11548707
0.075656533 0.41994882 1.014169 11417378
0.085625857 0.41994882 1.014169 11286306
0.11587294 0.50902879 1.2292956 11482913
0.12795697 0.50902879 1.2292956 11417377
0.12837093 0.46660978 1.1268544 11679778
0.13944796 0.46660978 1.1268544 11614497
0.15052499 0.46660978 1.1268544 11352355
0.16160202 0.46660978 1.1268544 11417378
0.17267905 0.46660978 1.1268544 11221541
0.18375608 0.46660978 1.1268544 11680291
0.24186178 0.57923973 1.3988537 11483683
0.25561255 0.57923973 1.3988537 11549219
0.26936337 0.57923973 1.3988537 11548706
0.31578118 0.64607507 1.5602599 12073507
0.34436336 0.67191809 1.6226703 12008486
0.36031428 0.67191809 1.6226703 11614497
0.3762652 0.67191809 1.6226703 11942436
0.39221612 0.67191809 1.6226703 11745828
0.40816703 0.67191809 1.6226703 12204836
0.44178954 0.69991463 1.6902815 12073766
0.50007826 0.76354325 1.8439435 12139811
0.51820433 0.76354325 1.8439435 12074533
0.51301163 0.73034573 1.763772 12075302
0.48792166 0.67191809 1.6226703 12140070
0.4498862 0.59992683 1.4488127 12008995
0.43318623 0.5599317 1.3522252 11878181
0.43207613 0.5418694 1.3086051 11943461
0.44493979 0.5418694 1.3086051 12140072
0.48937607 0.57923973 1.3988537 11680803
0.56118 0.64607507 1.5602599 11877669
0.53533757 0.59992683 1.4488127 11877415
0.54957944 0.59992683 1.4488127 11943461
0.56382138 0.59992683 1.4488127 12008740
0.62252969 0.64607507 1.5602599 11745315
0.63786709 0.64607507 1.5602599 11811621
0.65320456 0.64607507 1.5602599 11746084
0.66854197 0.64607507 1.5602599 11482913
0.6585505 0.62214637 1.5024725 11680037
0.67331988 0.62214637 1.5024725 11548964
0.68808925 0.62214637 1.5024725 11680035
0.70285863 0.62214637 1.5024725 11287332
0.717628 0.62214637 1.5024725 11418146
0.76056653 0.64607507 1.5602599 11221026
0.77590394 0.64607507 1.5602599 11483172
0.76193613 0.62214637 1.5024725 11483173
0.7767055 0.62214637 1.5024725 11352355
0.79147488 0.62214637 1.5024725 10893346
0.83725363 0.64607507 1.5602599 10762531
0.8525911 0.64607507 1.5602599 10827552
0.90264559 0.67191809 1.6226703 11089953
0.91859657 0.67191809 1.6226703 11155747
0.9734869 0.69991463 1.6902815 10828066
0.99010247 0.69991463 1.6902815 11024675
1.006718 0.69991463 1.6902815 11024162
1.0678263 0.73034573 1.763772 11024163
1.1344899 0.76354325 1.8439435 11155748
1.1526159 0.76354325 1.8439435 11089954
1.170742 0.76354325 1.8439435 11287074
1.188868 0.76354325 1.8439435 10828327
1.2069941 0.76354325 1.8439435 10762019
1.2251202 0.76354325 1.8439435 10696739
1.1891921 0.73034573 1.763772 10433826
1.2613722 0.76354325 1.8439435 10499617
1.2238679 0.73034573 1.763772 10630944
1.2412059 0.73034573 1.763772 10434083
1.2585438 0.73034573 1.763772 10433825
1.3973943 0.79990244 1.9317503 10631203
1.4163835 0.79990244 1.9317503 10565156
1.4353727 0.79990244 1.9317503 10696484
1.3882545 0.76354325 1.8439435 10368288
1.4063807 0.76354325 1.8439435 10762017
1.4923403 0.79990244 1.9317503 10630434
1.5113295 0.79990244 1.9317503 10565156
1.5303187 0.79990244 1.9317503 10303269
1.5493079 0.79990244 1.9317503 10566696
1.4970108 0.76354325 1.8439435 10369061
1.3888755 0.69991463 1.6902815 10302499
1.405491 0.69991463 1.6902815 10303015
1.4221066 0.69991463 1.6902815 10631464
1.4387221 0.69991463 1.6902815 10237732
1.5186132 0.73034573 1.763772 10172452
1.6057671 0.76354325 1.8439435 10106919
1.7012215 0.79990244 1.9317503 10041126
1.7202107 0.79990244 1.9317503 10106917
1.7391998 0.79990244 1.9317503 10107173
1.6782713 0.76354325 1.8439435 10172967
1.622641 0.73034573 1.763772 10107174
1.6399789 0.73034573 1.763772 10370345
1.6573169 0.73034573 1.763772 10172968
1.7507756 0.76354325 1.8439435 10500648
1.7689016 0.76354325 1.8439435 10237735
1.7870276 0.76354325 1.8439435 10172712
1.8911134 0.79990244 1.9317503 10303784
1.9101025 0.79990244 1.9317503 10107176
1.9290917 0.79990244 1.9317503 10172453
1.8595318 0.76354325 1.8439435 9975845
1.8776579 0.76354325 1.8439435 10172197
1.8957839 0.76354325 1.8439435 10041382
1.9139099 0.76354325 1.8439435 9910308
1.932036 0.76354325 1.8439435 9910308
2.0430269 0.79990244 1.9317503 10041894
1.9682881 0.76354325 1.8439435 10042151
2.0810053 0.79990244 1.9317503 10042152
2.0999944 0.79990244 1.9317503 10041895
2.1189837 0.79990244 1.9317503 10173223
2.1379728 0.79990244 1.9317503 10371115
2.1569622 0.79990244 1.9317503 10436137
2.1759512 0.79990244 1.9317503 10042151
2.1949403 0.79990244 1.9317503 10305579
2.3246262 0.83989763 2.028338 10568749
2.3445649 0.83989763 2.028338 10766385
2.3645036 0.83989763 2.028338 10634290
0 0 0 10700083
0 0 0 10241585
0 0 0 10305582
0 0 0 9912365
0 0 0 8994861
0 0 0 7353638
0 0 0 6369319
0 0 0 6631976
0 0 0 6631973
0 0 0 6303526
0 0 0 5515553
0 0 0 5121824
0 0 0 5254180
0 0 0 2166803
0 0 0 2889239
-0.79369611 0.28191352 0.66502881 5189676
-0.80027813 0.28661206 0.67611259 5452844
-0.79363191 0.28661206 0.67611259 5320484
-0.7869857 0.28661206 0.67611259 4663328
-0.78033948 0.28661206 0.67611259 5255205
-0.77369326 0.28661206 0.67611259 5714730
-0.75447249 0.28191352 0.66502881 5976616
-0.74793524 0.28191352 0.66502881 6042151
-0.74139798 0.28191352 0.66502881 6304809
-0.72300816 0.27736652 0.65430254 7091754
-0.72832346 0.28191352 0.66502881 8205864
-0.75911993 0.29649526 0.69942683 9057574
-0.77911043 0.30708435 0.72440636 9319974
-0.83137333 0.33070627 0.78012997 9253922
0 0 0 9451045
0 0 0 9319202
-0.79311496 0.3244665 0.76541048 9515811
-0.75702399 0.3126677 0.73757738 9450788
-0.74977356 0.3126677 0.73757738 9712674
-0.75627363 0.31845787 0.75123626 9844258
-0.76301885 0.3244665 0.76541048 9909794
-0.75549483 0.3244665 0.76541048 9975587
-0.74797082 0.3244665 0.76541048 9909794
-0.76948392 0.33719069 0.79542661 9909794
-0.73292279 0.3244665 0.76541048 9843487
-0.75384581 0.33719069 0.79542661 10368290
-0.74602669 0.33719069 0.79542661 10499876
-0.73820764 0.33719069 0.79542661 10369060
-0.73038858 0.33719069 0.79542661 10630948
-0.70867395 0.33070627 0.78012997 10696742
-0.70100522 0.33070627 0.78012997 10827814
-0.69333649 0.33070627 0.78012997 10630947
-0.68566781 0.33070627 0.78012997 10565154
-0.67799908 0.33070627 0.78012997 10106146
-0.68347406 0.33719069 0.79542661 10171681
-0.67565501 0.33719069 0.79542661 10828066
-0.66783589 0.33719069 0.79542661 10893347
-0.67321718 0.34393451 0.81133515 10959140
-0.66524172 0.34393451 0.81133515 11024675
-0.65726626 0.34393451 0.81133515 10762533
-0.6492908 0.34393451 0.81133515 10762787
-0.66803682 0.3582651 0.84514076 11090468
0 0 0 10959395
0 0 0 10696994
0 0 0 10631714
0 0 0 10893859
-0.97006136 0.55473304 1.3086051 10630690
-0.92728525 0.53739762 1.2677112 11024421
-0.91482359 0.53739762 1.2677112 10894119
-0.90236193 0.53739762 1.2677112 10828580
-0.88990027 0.53739762 1.2677112 10696740
-0.87743866 0.53739762 1.2677112 10893861
-0.89287949 0.55473304 1.3086051 10894373
-0.88001579 0.55473304 1.3086051 10894119
0 0 0 11024674
0 0 0 10762273
0 0 0 10959396
-0.80266869 0.53739762 1.2677112 10828066
-0.79020703 0.53739762 1.2677112 11090466
-0.77774537 0.53739762 1.2677112 11155747
-0.8163026 0.57322413 1.3522252 11024162
-0.80301017 0.57322413 1.3522252 11155748
-0.78971773 0.57322413 1.3522252 11024675
-0.7764253 0.57322413 1.3522252 11286562
-0.73851573 0.55473304 1.3086051 11089698
-0.68167311 0.52111286 1.2292956 11155746
-0.6695891 0.52111286 1.2292956 11024417
-0.65750504 0.52111286 1.2292956 10499361
-0.50711656 0.40944582 0.96587515 10827554
-0.46444714 0.38214943 0.90148348 11155234
-0.44568148 0.37384182 0.88188601 11089698
-0.41880363 0.3582651 0.84514076 11089955
-0.37176985 0.3244665 0.76541048 11220771
-0.33868474 0.30169693 0.71169752 11220513
-0.31510425 0.28661206 0.67611259 11089185
-0.31368616 0.29146993 0.68757218 11155234
-0.30181181 0.28661206 0.67611259 10892575
-0.30016842 0.29146993 0.68757218 11089183
-0.28378958 0.28191352 0.66502881 10958369
-0.23489434 0.23884341 0.56342721 11220513
0 0 0 11154207
0 0 0 10760990
0 0 0 10892576
-0.19892596 0.22333407 0.52684098 10827042
-0.18417934 0.21230523 0.50082415 10696226
-0.18149692 0.21495907 0.50708449 10761249
-0.17651226 0.21495907 0.50708449 10761249
-0.17369881 0.21768005 0.51350325 10695455
-0.16865106 0.21768005 0.51350325 10696224
-0.16570078 0.22047083 0.52008665 10761249
-0.16481431 0.22627269 0.53377312 10695456
-0.1595673 0.22627269 0.53377312 10892832
-0.15231612 0.22333407 0.52684098 10957599
-0.14713725 0.22333407 0.52684098 11023390
-0.14382626 0.22627269 0.53377312 10957855
-0.14232463 0.23238817 0.54819942 11023392
-0.1369358 0.23238817 0.54819942 10892576
-0.12480098 0.22047083 0.52008665 11154208
-0.1196885 0.22047083 0.52008665 10826526
-0.11606403 0.22333407 0.52684098 10761249
-0.11088516 0.22333407 0.52684098 10761246
-0.10570628 0.22333407 0.52684098 10564894
-0.099238604 0.22047083 0.52008665 10826783
-0.094126135 0.22047083 0.52008665 10826783
-0.089013658 0.22047083 0.52008665 10893089
-0.084990799 0.22333407 0.52684098 10827296
0 0 0 10892833
0 0 0 11220000
0 0 0 11220512
0 0 0 11286047
0 0 0 11417121
0 0 0 11220255
0 0 0 11548449
0 0 0 11679008
-0.067166694 0.39083466 0.92197174 11745316
-0.058103669 0.39083466 0.92197174 11351585
-0.052628987 0.41943231 0.98943311 11417378
-0.053303495 0.52111286 1.2292956 11417378
-0.041219465 0.52111286 1.2292956 11417380
-0.029135432 0.52111286 1.2292956 11220771
-0.014067408 0.42991814 1.014169 11220769
-0.0039981278 0.41943231 0.98943311 11417378
0.0054616234 0.39992383 0.94341296 11286562
0.015454216 0.41943231 0.98943311 11286562
0.025180388 0.41943231 0.98943311 11417378
0.034906559 0.41943231 0.98943311 11024160
0.049457893 0.46477634 1.0963988 11548451
0 0 0 11745314
0 0 0 11483169
0.073811248 0.41943231 0.98943311 11614753
0.083537422 0.41943231 0.98943311 11614498
0.11246492 0.505786 1.1931399 11483169
0.11112054 0.45254537 1.0675462 11548704
0.12837093 0.47768682 1.1268544 11483169
0.13210858 0.45254537 1.0675462 11548706
0.15052499 0.47768682 1.1268544 11352098
0.16160202 0.47768682 1.1268544 11482912
0.17267905 0.47768682 1.1268544 11287332
0.23625781 0.6141687 1.4488127 11614755
0.2504997 0.6141687 1.4488127 11680035
0.25561255 0.59299052 1.3988537 11222052
0.26936337 0.59299052 1.3988537 11548962
0.29322538 0.6141687 1.4488127 11614242
0.34436336 0.68786901 1.6226703 11876900
0.36031428 0.68786901 1.6226703 11614499
0.3762652 0.68786901 1.6226703 11615268
0.39221612 0.68786901 1.6226703 11614757
0.425174 0.7165302 1.6902815 11811621
0.44178954 0.7165302 1.6902815 11680549
0.45840508 0.7165302 1.6902815 11745825
0.51820433 0.78166932 1.8439435 11876641
0.47197074 0.68786901 1.6226703 11548962
0.43564433 0.6141687 1.4488127 11745827
0.4343729 0.59299052 1.3988537 11746341
0.43318623 0.57322413 1.3522252 12074018
0.43207613 0.55473304 1.3086051 11943207
0.44493979 0.55473304 1.3086051 12140071
0.54584259 0.66141254 1.5602599 11811365
0.56118 0.66141254 1.5602599 11942695
0.5765174 0.66141254 1.5602599 11877414
0.56993431 0.63691574 1.5024725 11876900
0.58470368 0.63691574 1.5024725 11680292
0.59947306 0.63691574 1.5024725 11811621
0.63786709 0.66141254 1.5602599 11483427
0.65320456 0.66141254 1.5602599 11548964
0.66854197 0.66141254 1.5602599 11745827
0.6585505 0.63691574 1.5024725 11548449
0.67331988 0.63691574 1.5024725 11418148
0.68808925 0.63691574 1.5024725 11483682
0.72989166 0.66141254 1.5602599 11483683
0.717628 0.63691574 1.5024725 11221539
0.76056653 0.66141254 1.5602599 11286817
0.77590394 0.66141254 1.5602599 11483171
0.79124135 0.66141254 1.5602599 11156261
0.7767055 0.63691574 1.5024725 11024674
0.79147488 0.63691574 1.5024725 11220770
0.83725363 0.66141254 1.5602599 10566180
0.8525911 0.66141254 1.5602599 9844515
0.8679285 0.66141254 1.5602599 10172196
0.91859657 0.68786901 1.6226703 10828324
0.9734869 0.7165302 1.6902815 10630944
0.99010247 0.7165302 1.6902815 10762019
1.0504884 0.74768364 1.763772 10958882
1.0678263 0.74768364 1.763772 11024675
1.1344899 0.78166932 1.8439435 11089954
1.2075025 0.81889164 1.9317503 11155234
1.2264916 0.81889164 1.9317503 10893089
1.188868 0.78166932 1.8439435 11155235
1.2069941 0.78166932 1.8439435 11221026
1.171854 0.74768364 1.763772 10827554
1.1891921 0.74768364 1.763772 10958628
1.20653 0.74768364 1.763772 10828066
1.2794983 0.78166932 1.8439435 10630431
1.2412059 0.74768364 1.763772 10499361
1.3784052 0.81889164 1.9317503 10499361
1.3973943 0.81889164 1.9317503 10368289
1.4163835 0.81889164 1.9317503 10630433
1.4353727 0.81889164 1.9317503 10499363
1.4543619 0.81889164 1.9317503 10368546
1.4733511 0.81889164 1.9317503 10368288
1.4923403 0.81889164 1.9317503 10566437
1.5113295 0.81889164 1.9317503 10566438
1.5303187 0.81889164 1.9317503 10565671
1.5493079 0.81889164 1.9317503 10631464
1.37226 0.7165302 1.6902815 10434855
1.3888755 0.7165302 1.6902815 10172966
1.405491 0.7165302 1.6902815 10369062
1.4221066 0.7165302 1.6902815 10369575
1.5012753 0.74768364 1.763772 10237476
1.5186132 0.74768364 1.763772 10107173
1.6057671 0.78166932 1.8439435 10238244
1.7012215 0.81889164 1.9317503 10238246
1.7202107 0.81889164 1.9317503 10107173
1.7391998 0.81889164 1.9317503 10041892
1.758189 0.81889164 1.9317503 10172964
1.6963974 0.78166932 1.8439435 10106918
1.7145234 0.78166932 1.8439435 10041381
1.7326494 0.78166932 1.8439435 10238245
1.7507756 0.78166932 1.8439435 10041125
1.7689016 0.78166932 1.8439435 10172709
1.7870276 0.78166932 1.8439435 10238246
1.8051536 0.78166932 1.8439435 10237989
1.9101025 0.81889164 1.9317503 9844263
1.9290917 0.81889164 1.9317503 9975848
1.9480809 0.81889164 1.9317503 10238502
1.9670701 0.81889164 1.9317503 9975587
1.9860593 0.81889164 1.9317503 9844261
2.0050485 0.81889164 1.9317503 9975847
2.0240376 0.81889164 1.9317503 10041894
2.0430269 0.81889164 1.9317503 9911849
1.9682881 0.78166932 1.8439435 9912104
1.9864142 0.78166932 1.8439435 10304552
2.0999944 0.81889164 1.9317503 10173480
2.1189837 0.81889164 1.9317503 10107688
2.1379728 0.81889164 1.9317503 10566954
2.1569622 0.81889164 1.9317503 10173993
2.1759512 0.81889164 1.9317503 10304812
2.1949403 0.81889164 1.9317503 10502188
2.1132965 0.78166932 1.8439435 10501929
2.1314225 0.78166932 1.8439435 10437163
2.3645036 0.85983628 2.028338 10371372
0 0 0 10371118
0 0 0 10306351
0 0 0 10372143
0 0 0 10240556
0 0 0 10305325
0 0 0 9058855
0 0 0 6630946
0 0 0 6172452
0 0 0 6304038
0 0 0 6172711
0 0 0 5712161
0 0 0 5449503
0 0 0 4991010
0 0 0 2035732
0 0 0 3479835
-0.8645618 0.31420532 0.72440636 4861226
-0.90597522 0.33199051 0.76541048 4467235
-0.80708337 0.2982288 0.68757218 4334624
-0.7869857 0.29325828 0.67611259 5383200
-0.78033948 0.29325828 0.67611259 7550247
-0.77369326 0.29325828 0.67611259 7943718
-0.75447249 0.28845078 0.66502881 8533029
-0.74793524 0.28845078 0.66502881 8992037
-0.74139798 0.28845078 0.66502881 9187875
-0.7471084 0.29325828 0.67611259 9253668
-0.76599532 0.30337065 0.69942683 9384225
-0.75911993 0.30337065 0.69942683 9383967
-0.75224453 0.30337065 0.69942683 9450019
-0.78602564 0.31991813 0.73757738 9450020
-0.79319704 0.32584256 0.75123626 9318691
-0.74445379 0.30869296 0.71169752 9384226
-0.73745781 0.30869296 0.71169752 9449760
-0.75702399 0.31991813 0.73757738 9515552
-0.77806687 0.33199051 0.76541048 9712160
-0.78536105 0.33837497 0.78012997 9909282
-0.76301885 0.33199051 0.76541048 9975587
-0.75549483 0.33199051 0.76541048 9909794
-0.74797082 0.33199051 0.76541048 10041380
-0.75468624 0.33837497 0.78012997 10106403
-0.7470175 0.33837497 0.78012997 10172194
-0.75384581 0.34500974 0.79542661 10237730
-0.76094723 0.35190997 0.81133515 10368288
-0.75297177 0.35190997 0.81133515 10762021
-0.74499631 0.35190997 0.81133515 10827814
-0.72256947 0.34500974 0.79542661 10696742
-0.71475041 0.34500974 0.79542661 10631204
-0.70693129 0.34500974 0.79542661 10631460
-0.68566781 0.33837497 0.78012997 10696740
-0.67799908 0.33837497 0.78012997 10303780
-0.67033035 0.33837497 0.78012997 10433826
-0.67565501 0.34500974 0.79542661 10499876
-0.66783589 0.34500974 0.79542661 10828070
-0.67321718 0.35190997 0.81133515 11024678
-0.66524172 0.35190997 0.81133515 10762533
-0.65726626 0.35190997 0.81133515 10827811
-0.6492908 0.35190997 0.81133515 10828066
-0.69708186 0.38251081 0.88188601 10828066
-0.70371097 0.39101106 0.90148348 10958882
0 0 0 10565410
0 0 0 10696740
0 0 0 10696484
-0.93974692 0.54985929 1.2677112 10958882
-0.92728525 0.54985929 1.2677112 11090213
-0.91482359 0.54985929 1.2677112 10893861
-0.90236193 0.54985929 1.2677112 10959398
-0.88990027 0.54985929 1.2677112 10893605
-0.87743866 0.54985929 1.2677112 11156004
-0.864977 0.54985929 1.2677112 11156259
-0.85251534 0.54985929 1.2677112 11024675
-0.81459743 0.53319687 1.2292956 11024675
-0.80251342 0.53319687 1.2292956 11024673
-0.81513035 0.54985929 1.2677112 11155490
-0.80266869 0.54985929 1.2677112 11351840
-0.79020703 0.54985929 1.2677112 11023904
-0.80283391 0.56759667 1.3086051 11220771
-0.8163026 0.58651656 1.3522252 11089955
-0.80301017 0.58651656 1.3522252 11024160
-0.78971773 0.58651656 1.3522252 11023647
-0.7764253 0.58651656 1.3522252 11090466
-0.71543711 0.54985929 1.2677112 10959140
-0.68167311 0.53319687 1.2292956 10958625
-0.6695891 0.53319687 1.2292956 10696224
-0.63816667 0.51751465 1.1931399 10827296
-0.50711656 0.41894042 0.96587515 11089955
-0.46444714 0.39101106 0.90148348 11089955
-0.44568148 0.38251081 0.88188601 11221026
-0.41880363 0.36657286 0.84514076 11090212
-0.37176985 0.33199051 0.76541048 11154978
-0.32175046 0.29325828 0.67611259 11155491
-0.31510425 0.29325828 0.67611259 11220769
-0.30845803 0.29325828 0.67611259 10958880
-0.29686409 0.28845078 0.66502881 11089955
-0.24597137 0.24438192 0.56342721 11089441
-0.23081553 0.23460664 0.5408901 11089955
-0.22549854 0.23460664 0.5408901 11023648
0 0 0 10761503
0 0 0 11285794
-0.20410483 0.22851294 0.52684098 10958112
-0.19892596 0.22851294 0.52684098 10761503
-0.18417934 0.21722837 0.50082415 11351585
-0.18149692 0.21994373 0.50708449 11023392
-0.17651226 0.21994373 0.50708449 10957597
-0.17369881 0.22272782 0.51350325 10761505
-0.16865106 0.22272782 0.51350325 10760992
-0.16570078 0.22558331 0.52008665 10564127
