# .PCD v0.7 - Point Cloud Data file format
VERSION 0.7
FIELDS x y z rgb
SIZE 4 4 4 4
TYPE F F F U
COUNT 1 1 1 1
WIDTH 1219
HEIGHT 1
VIEWPOINT 0 0 0 1 0 0 0
POINTS 1219
DATA ascii
0.13656454 -0.46821523 1.4488127 11826508
0.15080643 -0.46821523 1.4488127 12154959
0.16504833 -0.46821523 1.4488127 12023374
0.20080505 -0.52440107 1.6226703 11958093
0.27094498 -0.65550137 2.028338 12155729
0.29088363 -0.65550137 2.028338 12155219
0.31082228 -0.65550137 2.028338 12614997
0.27563411 -0.54625112 1.6902815 12286800
0.28055966 -0.52440107 1.6226703 12484180
0.29651058 -0.52440107 1.6226703 12549716
0.3124615 -0.52440107 1.6226703 12353623
0.37319595 -0.59591031 1.8439435 12616023
0.39132199 -0.59591031 1.8439435 12812371
0.34645605 -0.50423181 1.5602599 12747092
0.3762652 -0.52440107 1.6226703 12944724
0.44570011 -0.59591031 1.8439435 13009495
0.46382618 -0.59591031 1.8439435 13141338
0.42411795 -0.52440107 1.6226703 13601113
0.44006887 -0.52440107 1.6226703 13469782
0.45601982 -0.52440107 1.6226703 13601883
0.47197074 -0.52440107 1.6226703 13733468
0.46915543 -0.50423181 1.5602599 14126688
0.50387257 -0.52440107 1.6226703 13865056
0.54148281 -0.54625112 1.6902815 14061916
0.55809832 -0.54625112 1.6902815 14127455
0.57471389 -0.54625112 1.6902815 14390370
0.94612706 -0.87400174 2.7044504 14653027
0.97271192 -0.87400174 2.7044504 14586722
0.74947268 -0.65550137 2.028338 14652515
0.64117604 -0.54625112 1.6902815 14784614
0.65779161 -0.54625112 1.6902815 14783840
0.67440712 -0.54625112 1.6902815 14784357
0.69102269 -0.54625112 1.6902815 14981736
0.80872941 -0.62428695 1.9317503 14916711
0.96567178 -0.72833484 2.2537088 15178342
1.3677588 -1.0084636 3.1205199 14982249
1.3984337 -1.0084636 3.1205199 15178595
0.71455425 -0.50423181 1.5602599 14785638
0.82509488 -0.57000113 1.763772 14982247
0.84243286 -0.57000113 1.763772 14916966
0.94165373 -0.62428695 1.9317503 14981992
0.96064293 -0.62428695 1.9317503 14981221
0.97963214 -0.62428695 1.9317503 14784614
1.0485525 -0.65550137 2.028338 14915941
1.0684911 -0.65550137 2.028338 15112807
1.0884298 -0.65550137 2.028338 14456423
1.1667036 -0.69000143 2.1350925 14521445
1.2536745 -0.72833484 2.2537088 14718563
1.3508773 -0.77117807 2.3862798 14586722
1.2979827 -0.72833484 2.2537088 14390628
1.4851537 -0.81937665 2.5354223 14128483
1.8585564 -1.0084636 3.1205199 13864799
1.8892312 -1.0084636 3.1205199 14192736
1.5599236 -0.81937665 2.5354223 14061410
1.2678777 -0.65550137 2.028338 13865060
1.5150779 -0.77117807 2.3862798 13601887
1.307755 -0.65550137 2.028338 13667423
1.3276936 -0.65550137 2.028338 13601889
1.2834592 -0.62428695 1.9317503 13536096
1.3675709 -0.65550137 2.028338 13470046
1.3214376 -0.62428695 1.9317503 13404253
1.3404268 -0.62428695 1.9317503 13207649
1.359416 -0.62428695 1.9317503 13010525
1.3784052 -0.62428695 1.9317503 12945247
1.5444885 -0.69000143 2.1350925 12944989
1.5654767 -0.69000143 2.1350925 12813147
1.5071415 -0.65550137 2.028338 12747613
1.5270802 -0.65550137 2.028338 12747611
2.380029 -1.0084636 3.1205199 12616025
2.8490133 -1.1918206 3.687887 12615770
0 0 0 12812893
2.4720535 -1.0084636 3.1205199 12418905
1.6267734 -0.65550137 2.028338 12090453
1.6467121 -0.65550137 2.028338 12221785
1.9607655 -0.77117807 2.3862798 11893844
2.1082366 -0.81937665 2.5354223 11827796
2.6254277 -1.0084636 3.1205199 12090197
1.9182963 -0.72833484 2.2537088 12221015
1.8383213 -0.69000143 2.1350925 12155476
1.8593093 -0.69000143 2.1350925 11828054
1.8802974 -0.69000143 2.1350925 11696212
2.0069125 -0.72833484 2.2537088 11762519
2.1484234 -0.77117807 2.3862798 11696468
2.1718805 -0.77117807 2.3862798 11368788
2.1953378 -0.77117807 2.3862798 11434581
2.2187951 -0.77117807 2.3862798 11564115
2.3823931 -0.81937665 2.5354223 11498839
2.4073164 -0.81937665 2.5354223 11301717
2.4322398 -0.81937665 2.5354223 11302230
2.4571631 -0.81937665 2.5354223 11302227
2.4820864 -0.81937665 2.5354223 11039825
2.5070097 -0.81937665 2.5354223 11170387
2.5319331 -0.81937665 2.5354223 11235921
2.5568564 -0.81937665 2.5354223 11039571
2.9506052 -0.93643045 2.8976254 11104083
2.780483 -0.87400174 2.7044504 10907985
2.8070679 -0.87400174 2.7044504 11038797
2.5002818 -0.77117807 2.3862798 10842447
2.5237391 -0.77117807 2.3862798 10776917
2.5471964 -0.77117807 2.3862798 11039060
2.4278398 -0.72833484 2.2537088 10973778
2.594111 -0.77117807 2.3862798 11105105
3.4229739 -1.0084636 3.1205199 11367508
4.0815845 -1.1918206 3.687887 11237462
4.1178365 -1.1918206 3.687887 11368790
4.5694981 -1.3110027 4.0566759 11434581
4.609375 -1.3110027 4.0566759 11434323
4.6492524 -1.3110027 4.0566759 11827541
5.210144 -1.4566697 4.5074177 11695957
5.2544522 -1.4566697 4.5074177 11959387
5.2987604 -1.4566697 4.5074177 11893593
5.3430686 -1.4566697 4.5074177 11959385
5.3873768 -1.4566697 4.5074177 11828056
5.431685 -1.4566697 4.5074177 11827031
4.9283938 -1.3110027 4.0566759 11893595
4.5166097 -1.1918206 3.687887 11958875
4.5528617 -1.1918206 3.687887 11564628
0 0 0 11762777
0 0 0 11368790
0 0 0 11631195
0 0 0 11368023
0 0 0 11433558
0 0 0 11565145
0 0 0 11959642
0 0 0 12418646
0 0 0 12353621
0 0 0 12222035
-3.9681594 -1.0592711 3.380563 12483926
-3.6322417 -0.97778875 3.1205199 12024660
-1.8728148 -0.50845015 1.6226703 12155989
-1.7193184 -0.4707872 1.5024725 12221524
-1.6436722 -0.45397332 1.4488127 12155731
-1.6897796 -0.4707872 1.5024725 11958866
-1.6151885 -0.45397332 1.4488127 11893587
-1.6602409 -0.4707872 1.5024725 11958866
-1.6454716 -0.4707872 1.5024725 12090196
-1.5724628 -0.45397332 1.4488127 12222036
-1.5582209 -0.45397332 1.4488127 11828049
-1.441047 -0.42370844 1.3522252 12090451
-1.5297371 -0.45397332 1.4488127 11893842
-1.5154952 -0.45397332 1.4488127 11828047
-1.5012532 -0.45397332 1.4488127 11762258
-1.4870114 -0.45397332 1.4488127 11630417
-1.4727695 -0.45397332 1.4488127 11892050
-1.633551 -0.50845015 1.6226703 11629902
-1.6176001 -0.50845015 1.6226703 11696463
-1.6016492 -0.50845015 1.6226703 11828051
-1.5247098 -0.48889437 1.5602599 11827281
-1.5093725 -0.48889437 1.5602599 11433294
0 0 0 11301964
0 0 0 11433549
0 0 0 11367756
-1.5686911 -0.52963555 1.6902815 11301710
-1.5520756 -0.52963555 1.6902815 11236431
-1.4740417 -0.50845015 1.6226703 11367503
-1.4580908 -0.50845015 1.6226703 11301710
-1.4421399 -0.50845015 1.6226703 11367246
-1.4261889 -0.50845015 1.6226703 11433296
-2.0738795 -0.74772078 2.3862798 11366732
-2.0504222 -0.74772078 2.3862798 11235917
-1.4357668 -0.52963555 1.6902815 11104074
-1.3623853 -0.50845015 1.6226703 11366478
-1.2946484 -0.48889437 1.5602599 11170894
-1.3304834 -0.50845015 1.6226703 11170637
-1.3145325 -0.50845015 1.6226703 11301709
-1.9096788 -0.74772078 2.3862798 11104331
0 0 0 11301453
-1.8627644 -0.74772078 2.3862798 11170121
-1.0782145 -0.43831909 1.3988537 11367500
-1.1872865 -0.48889437 1.5602599 11236172
-1.218827 -0.50845015 1.6226703 11432269
-1.2028761 -0.50845015 1.6226703 11367501
-1.1869252 -0.50845015 1.6226703 11235917
-1.1709743 -0.50845015 1.6226703 11302480
-1.1550233 -0.50845015 1.6226703 11367760
-1.1390724 -0.50845015 1.6226703 11498832
-1.1231215 -0.50845015 1.6226703 11499089
-0.98854512 -0.45397332 1.4488127 11498574
-1.0492496 -0.48889437 1.5602599 11958095
-1.0339122 -0.48889437 1.5602599 11827279
-1.0593178 -0.50845015 1.6226703 11695950
-1.0032374 -0.48889437 1.5602599 11893073
-0.98789996 -0.48889437 1.5602599 11761488
-0.389025 -0.19555776 0.62410396 12089681
-0.38289005 -0.19555776 0.62410396 11827795
-0.37675506 -0.19555776 0.62410396 12089937
-0.40150508 -0.21185422 0.67611259 11761999
-0.39485887 -0.21185422 0.67611259 11958609
-0.38821265 -0.21185422 0.67611259 12154961
-0.38156644 -0.21185422 0.67611259 12023888
-0.37492022 -0.21185422 0.67611259 11958867
-0.368274 -0.21185422 0.67611259 12221008
-0.36162779 -0.21185422 0.67611259 12221009
0 0 0 12024401
0 0 0 12023888
0 0 0 11959380
0 0 0 12155730
-0.32301316 -0.20838121 0.66502881 11630670
-0.3164759 -0.20838121 0.66502881 12155984
-0.29086548 -0.19555776 0.62410396 11760970
-0.28473052 -0.19555776 0.62410396 11957580
-0.26630455 -0.18693019 0.59656996 11695693
-0.25666574 -0.18422106 0.587924 11367500
-0.24043284 -0.1765452 0.56342721 11236171
-0.22854583 -0.1717737 0.54819942 11235914
-0.22621395 -0.17412676 0.555709 11366988
-0.2207513 -0.17412676 0.555709 11169352
-0.21528865 -0.17412676 0.555709 10972231
-0.21274027 -0.1765452 0.56342721 10906954
-0.2131218 -0.18158934 0.57952511 8474933
-0.21352577 -0.18693019 0.59656996 7488302
-0.21076089 -0.18972021 0.605474 5713702
-0.20480905 -0.18972021 0.605474 5647913
-0.19885722 -0.18972021 0.605474 5384482
-0.19006854 -0.18693019 0.59656996 3938327
-0.18420424 -0.18693019 0.59656996 3412497
-0.17833991 -0.18693019 0.59656996 3411212
-0.17247561 -0.18693019 0.59656996 1639174
-0.1666113 -0.18693019 0.59656996 1772047
-0.1631462 -0.18972021 0.605474 3937041
-0.15719436 -0.18972021 0.605474 3872277
-0.15124252 -0.18972021 0.605474 4266517
-0.14529069 -0.18972021 0.605474 4332569
-0.13933885 -0.18972021 0.605474 4529176
-0.13540803 -0.19259474 0.61464781 5185561
-0.12936601 -0.19259474 0.61464781 4989210
-0.123324 -0.19259474 0.61464781 4923161
-0.12094705 -0.19861335 0.63385558 4726552
-0.11471622 -0.19861335 0.63385558 4726809
-0.11020738 -0.20176594 0.64391679 4070421
-0.10728347 -0.20838121 0.66502881 3610388
-0.10242531 -0.21185422 0.67611259 3675927
-0.095779091 -0.21185422 0.67611259 4134422
-0.092206426 -0.21915954 0.69942683 4529432
-0.08533103 -0.21915954 0.69942683 5447963
-0.079832047 -0.22300446 0.71169752 11038538
-0.072836034 -0.22300446 0.71169752 11236171
-0.065840013 -0.22300446 0.71169752 11498573
-0.059894778 -0.22698666 0.72440636 11761486
-0.05277383 -0.22698666 0.72440636 11957580
-0.047343731 -0.2353936 0.75123626 12351825
-0.039959047 -0.2353936 0.75123626 12220754
-0.032574359 -0.2353936 0.75123626 12351823
-0.027760049 -0.25941333 0.82789302 12089933
-0.02003061 -0.26481777 0.84514076 12417614
-0.011722839 -0.26481777 0.84514076 11958861
-0.0034877283 -0.2704522 0.86312246 12089933
0 0 0 12287058
0 0 0 12286542
0 0 0 12286801
0 0 0 12155472
0 0 0 12023372
0 0 0 12024143
0.090603031 -0.43831909 1.3988537 12024656
0.10435383 -0.43831909 1.3988537 11893584
0.11810462 -0.43831909 1.3988537 12024143
0.13656454 -0.45397332 1.4488127 12286802
0.15080643 -0.45397332 1.4488127 12221777
0.16504833 -0.45397332 1.4488127 12024657
0.17929022 -0.45397332 1.4488127 12418133
0.19353212 -0.45397332 1.4488127 12418643
0.2327069 -0.50845015 1.6226703 12286800
0.25901857 -0.52963555 1.6902815 12352851
0.26460874 -0.50845015 1.6226703 12418642
0.28055966 -0.50845015 1.6226703 12550484
0.29651058 -0.50845015 1.6226703 12549202
0.3124615 -0.50845015 1.6226703 12747094
0.32841244 -0.50845015 1.6226703 13206102
0.34436336 -0.50845015 1.6226703 12943957
0.34645605 -0.48889437 1.5602599 13010267
0.3762652 -0.50845015 1.6226703 13207128
0.40855846 -0.52963555 1.6902815 13273178
0.40816703 -0.50845015 1.6226703 13601627
0.40780574 -0.48889437 1.5602599 13601114
0.42314318 -0.48889437 1.5602599 13929306
0.45601982 -0.50845015 1.6226703 13930589
0.45381802 -0.48889437 1.5602599 13864796
0.46915543 -0.48889437 1.5602599 14324063
0.48449287 -0.48889437 1.5602599 14259042
0.51982349 -0.50845015 1.6226703 14324065
0.55809832 -0.52963555 1.6902815 14390115
0.57471389 -0.52963555 1.6902815 14389599
0.61703938 -0.55266321 1.763772 14586722
0.60794497 -0.52963555 1.6902815 14587235
0.62456053 -0.52963555 1.6902815 14654050
0.64117604 -0.52963555 1.6902815 14719075
0.65779161 -0.52963555 1.6902815 14850405
0.67440712 -0.52963555 1.6902815 14850918
0.69102269 -0.52963555 1.6902815 14916454
0.7076382 -0.52963555 1.6902815 15112549
0.82771862 -0.6052978 1.9317503 15178342
0.88904321 -0.63556272 2.028338 15113833
1.2119757 -0.84741688 2.7044504 15178338
0.92892057 -0.63556272 2.028338 14981734
0.82509488 -0.55266321 1.763772 15112808
0.8073315 -0.52963555 1.6902815 15309924
0.85977083 -0.55266321 1.763772 14915939
0.91697735 -0.57778424 1.8439435 14915942
0.93510342 -0.57778424 1.8439435 15112296
0.99862134 -0.6052978 1.9317503 14916202
1.0684911 -0.63556272 2.028338 14784614
1.0884298 -0.63556272 2.028338 14784614
1.1083684 -0.63556272 2.028338 15046757
1.1876916 -0.66901338 2.1350925 14586723
1.2086797 -0.66901338 2.1350925 14717796
1.0619857 -0.57778424 1.8439435 14521701
1.1315457 -0.6052978 1.9317503 14194021
1.1505349 -0.6052978 1.9317503 14062181
1.1695241 -0.6052978 1.9317503 14324067
1.5599236 -0.79445338 2.5354223 13668451
1.4916207 -0.74772078 2.3862798 13798754
1.5150779 -0.74772078 2.3862798 13733473
1.5385351 -0.74772078 2.3862798 13865313
1.3276936 -0.63556272 2.028338 13601888
1.3476323 -0.63556272 2.028338 13667680
1.3675709 -0.63556272 2.028338 13601374
1.3214376 -0.6052978 1.9317503 13272668
1.3404268 -0.6052978 1.9317503 13208419
1.359416 -0.6052978 1.9317503 13075806
1.3784052 -0.6052978 1.9317503 13010781
1.4672642 -0.63556272 2.028338 12944989
1.5654767 -0.66901338 2.1350925 12747611
1.5864646 -0.66901338 2.1350925 12878940
1.5270802 -0.63556272 2.028338 12747613
2.380029 -0.97778875 3.1205199 12615516
2.4107037 -0.97778875 3.1205199 12288602
2.4413786 -0.97778875 3.1205199 12288091
2.4720535 -0.97778875 3.1205199 12353111
1.9138509 -0.74772078 2.3862798 12549460
1.9373082 -0.74772078 2.3862798 12353623
1.6666507 -0.63556272 2.028338 12222039
2.5947528 -0.97778875 3.1205199 11959383
1.7065281 -0.63556272 2.028338 12024660
1.9182963 -0.70618081 2.2537088 12090454
1.7464054 -0.63556272 2.028338 12025176
1.8593093 -0.66901338 2.1350925 11893334
1.8802974 -0.66901338 2.1350925 11631450
1.9012855 -0.66901338 2.1350925 11500374
2.0290666 -0.70618081 2.2537088 11499603
2.1718805 -0.74772078 2.3862798 11631188
2.0733747 -0.70618081 2.2537088 11498836
2.0955288 -0.70618081 2.2537088 11630936
2.2422523 -0.74772078 2.3862798 11368791
2.4073164 -0.79445338 2.5354223 11302998
2.4322398 -0.79445338 2.5354223 11302230
2.4571631 -0.79445338 2.5354223 11105618
2.4820864 -0.79445338 2.5354223 11235921
2.3595386 -0.74772078 2.3862798 11497812
2.3829956 -0.74772078 2.3862798 11235667
2.4064529 -0.74772078 2.3862798 11039568
2.7538981 -0.84741688 2.7044504 11236178
2.780483 -0.84741688 2.7044504 10974032
2.6316261 -0.79445338 2.5354223 11235667
2.2370944 -0.66901338 2.1350925 10776147
2.3835316 -0.70618081 2.2537088 10842192
2.4056857 -0.70618081 2.2537088 11039571
2.4278398 -0.70618081 2.2537088 11104848
2.4499936 -0.70618081 2.2537088 11367253
3.1784754 -0.90794665 2.8976254 11302484
3.4536486 -0.97778875 3.1205199 11236437
3.4843235 -0.97778875 3.1205199 11302484
3.5149984 -0.97778875 3.1205199 11695699
3.8411458 -1.0592711 3.380563 11696726
3.8743768 -1.0592711 3.380563 11893849
4.6891298 -1.2711254 4.0566759 11630422
4.7290072 -1.2711254 4.0566759 11762008
4.7688847 -1.2711254 4.0566759 11499605
4.8087616 -1.2711254 4.0566759 11894106
4.848639 -1.2711254 4.0566759 11959129
4.8885164 -1.2711254 4.0566759 11828056
4.4803576 -1.1555685 3.687887 11762265
4.5166097 -1.1555685 3.687887 11696472
4.5528617 -1.1555685 3.687887 11564886
0 0 0 11695957
0 0 0 11893337
0 0 0 11631193
0 0 0 11433816
0 0 0 11368023
0 0 0 11366998
0 0 0 11040343
0 0 0 12221785
-6.0519328 -1.5390601 5.0708447 12418646
-6.0020862 -1.5390601 5.0708447 12222033
-5.9522395 -1.5390601 5.0708447 12353108
-3.9349284 -1.0260401 3.380563 12353368
-3.1213579 -0.82083201 2.7044504 12222551
-1.8568639 -0.49249923 1.6226703 12025428
-1.6436722 -0.43973145 1.4488127 12222550
-1.6897796 -0.45601782 1.5024725 12352853
-1.6151885 -0.43973145 1.4488127 12222294
-1.6009465 -0.43973145 1.4488127 11959378
-1.6454716 -0.45601782 1.5024725 11893847
-1.6307021 -0.45601782 1.5024725 11762513
-1.6159328 -0.45601782 1.5024725 11958865
-1.441047 -0.41041601 1.3522252 12024658
-1.4769875 -0.4245683 1.3988537 12024146
-1.5154952 -0.43973145 1.4488127 12024660
-1.5012532 -0.43973145 1.4488127 11630929
-1.4870114 -0.43973145 1.4488127 11762515
-1.4727695 -0.43973145 1.4488127 11695695
-1.5125473 -0.45601782 1.5024725 11958867
-1.6176001 -0.49249923 1.6226703 11762257
-1.6016492 -0.49249923 1.6226703 11696722
-1.5856982 -0.49249923 1.6226703 11499343
-1.5697473 -0.49249923 1.6226703 11696465
0 0 0 11629900
0 0 0 11630670
0 0 0 11564879
-1.5686911 -0.51302004 1.6902815 11367502
-1.5520756 -0.51302004 1.6902815 11433040
-1.4740417 -0.49249923 1.6226703 11301710
-1.4580908 -0.49249923 1.6226703 11367503
-1.4421399 -0.49249923 1.6226703 11301710
-1.4261889 -0.49249923 1.6226703 11433294
-1.468998 -0.51302004 1.6902815 11302734
-2.0504222 -0.72426355 2.3862798 11498316
-1.9143559 -0.68402672 2.2537088 11433038
-1.3623853 -0.49249923 1.6226703 11171151
-1.2946484 -0.47355697 1.5602599 11170380
-1.3304834 -0.49249923 1.6226703 11170126
0 0 0 11432783
0 0 0 11301710
0 0 0 11170124
-1.5833498 -0.61562407 2.028338 11302482
-1.0782145 -0.4245683 1.3988537 11564364
-1.0644637 -0.4245683 1.3988537 11236169
-1.218827 -0.49249923 1.6226703 11367757
-1.2529958 -0.51302004 1.6902815 11498829
-1.1869252 -0.49249923 1.6226703 11499086
-1.1709743 -0.49249923 1.6226703 11695951
-1.1550233 -0.49249923 1.6226703 11760459
-1.1390724 -0.49249923 1.6226703 11760460
-1.1231215 -0.49249923 1.6226703 11630672
-0.98854512 -0.43973145 1.4488127 11630157
-1.0492496 -0.47355697 1.5602599 11630413
-0.99561918 -0.45601782 1.5024725 11959121
-0.9808498 -0.45601782 1.5024725 11893329
-0.96608043 -0.45601782 1.5024725 11958097
-0.39515999 -0.18942279 0.62410396 12089682
-0.389025 -0.18942279 0.62410396 11893072
-0.38289005 -0.18942279 0.62410396 12089936
-0.37675506 -0.18942279 0.62410396 12287060
-0.3706201 -0.18942279 0.62410396 12155731
-0.3883858 -0.20184395 0.66502881 12091221
-0.38821265 -0.205208 0.67611259 12549717
-0.37531126 -0.20184395 0.66502881 12746578
-0.368774 -0.20184395 0.66502881 12418386
-0.36223674 -0.20184395 0.66502881 12287570
-0.35569948 -0.20184395 0.66502881 12549975
-0.35498157 -0.205208 0.67611259 12418646
0 0 0 12614740
0 0 0 12615251
0 0 0 12680785
-0.31780326 -0.1985884 0.65430254 12353876
-0.29700047 -0.18942279 0.62410396 12352594
-0.2864584 -0.18655273 0.61464781 12353366
-0.2804164 -0.18655273 0.61464781 12286545
-0.26244506 -0.17844175 0.587924 12417875
-0.24943574 -0.17341523 0.57136279 12286545
-0.23393466 -0.16638488 0.54819942 11761484
-0.22854583 -0.16638488 0.54819942 11629900
-0.22621395 -0.16866411 0.555709 11760974
-0.2238173 -0.17100668 0.56342721 11433036
-0.2182788 -0.17100668 0.56342721 11629132
-0.21573661 -0.17341523 0.57136279 11432523
-0.21621051 -0.17844175 0.587924 10184774
-0.21352577 -0.18106589 0.59656996 7356214
-0.20766146 -0.18106589 0.59656996 6895661
-0.20480905 -0.18376838 0.605474 6830897
-0.19885722 -0.18376838 0.605474 5450277
-0.19290538 -0.18376838 0.605474 2558734
-0.18420424 -0.18106589 0.59656996 3085079
-0.17833991 -0.18106589 0.59656996 2821390
-0.17247561 -0.18106589 0.59656996 2953491
-0.1666113 -0.18106589 0.59656996 2821905
-0.1631462 -0.18376838 0.605474 2952208
-0.15488268 -0.18106589 0.59656996 4069143
-0.14901838 -0.18106589 0.59656996 4397849
-0.14315407 -0.18106589 0.59656996 4660761
-0.14145005 -0.18655273 0.61464781 4727323
-0.13540803 -0.18655273 0.61464781 4923674
-0.12936601 -0.18655273 0.61464781 5120026
-0.1252213 -0.18942279 0.62410396 5120280
-0.12286685 -0.19543621 0.64391679 4793115
-0.11653712 -0.19543621 0.64391679 4201494
-0.11382074 -0.20184395 0.66502881 3938581
-0.10907153 -0.205208 0.67611259 3939351
-0.10242531 -0.205208 0.67611259 3939351
-0.097402476 -0.20868611 0.68757218 4332566
-0.093824089 -0.21600844 0.71169752 4659478
-0.086828068 -0.21600844 0.71169752 6567462
-0.078455634 -0.21228415 0.69942683 11826507
-0.071580231 -0.21228415 0.69942683 11760714
-0.065840013 -0.21600844 0.71169752 12089679
-0.059894778 -0.21986572 0.72440636 12287312
-0.05277383 -0.21986572 0.72440636 12286799
-0.047343731 -0.22800891 0.75123626 12548944
-0.039959047 -0.22800891 0.75123626 12614992
-0.032574359 -0.22800891 0.75123626 12681299
-0.028338382 -0.25651002 0.84514076 12418384
-0.02003061 -0.25651002 0.84514076 12681042
-0.011722839 -0.25651002 0.84514076 12681298
-0.0034877283 -0.26196766 0.86312246 12549458
0.006180258 -0.32401264 1.0675462 12483664
0 0 0 12352333
0 0 0 12287055
0 0 0 12352594
0 0 0 12155472
0 0 0 12286800
0 0 0 12089935
0.10435383 -0.4245683 1.3988537 12352849
0.11810462 -0.4245683 1.3988537 12417872
0.13656454 -0.43973145 1.4488127 12286542
0.15080643 -0.43973145 1.4488127 12352082
0.15935701 -0.4245683 1.3988537 12746582
0.1731078 -0.4245683 1.3988537 12286547
0.18685859 -0.4245683 1.3988537 12548947
0.20777401 -0.43973145 1.4488127 12746835
0.23023872 -0.45601782 1.5024725 12615509
0.26460874 -0.49249923 1.6226703 12877911
0.28055966 -0.49249923 1.6226703 12812372
0.29651058 -0.49249923 1.6226703 12747606
0.3124615 -0.49249923 1.6226703 12813655
0.32841244 -0.49249923 1.6226703 13009750
0.34436336 -0.49249923 1.6226703 13207383
0.36031428 -0.49249923 1.6226703 13404762
0.3762652 -0.49249923 1.6226703 13469274
0.39221612 -0.49249923 1.6226703 13536092
0.3924683 -0.47355697 1.5602599 13470299
0.39270183 -0.45601782 1.5024725 13864286
0.40747118 -0.45601782 1.5024725 14126685
0.42224056 -0.45601782 1.5024725 13864542
0.42140242 -0.43973145 1.4488127 14126942
0.46915543 -0.47355697 1.5602599 14324320
0.48449287 -0.47355697 1.5602599 14127454
0.54148281 -0.51302004 1.6902815 14128226
0.58236349 -0.53532523 1.763772 14521444
0.59970146 -0.53532523 1.763772 14653282
0.61703938 -0.53532523 1.763772 14586976
0.63437736 -0.53532523 1.763772 14916194
0.62456053 -0.51302004 1.6902815 15178855
0.64117604 -0.51302004 1.6902815 15112804
0.65779161 -0.51302004 1.6902815 14981732
0.67440712 -0.51302004 1.6902815 15048039
0.69102269 -0.51302004 1.6902815 14917225
0.7076382 -0.51302004 1.6902815 15047525
0.82771862 -0.5863086 1.9317503 15243879
0.88904321 -0.61562407 2.028338 15047528
0 0 0 15178854
1.6889464 -1.1193165 3.687887 15178343
1.7251984 -1.1193165 3.687887 15310958
0.8073315 -0.51302004 1.6902815 15244652
0.82394701 -0.51302004 1.6902815 15178341
0.87710875 -0.53532523 1.763772 15243625
0.93510342 -0.55965823 1.8439435 15047014
0.99862134 -0.5863086 1.9317503 15047271
1.0176105 -0.5863086 1.9317503 14784870
1.0365998 -0.5863086 1.9317503 14851176
1.1083684 -0.61562407 2.028338 14784614
1.1283071 -0.61562407 2.028338 14718308
1.0935673 -0.5863086 1.9317503 14586722
1.0619857 -0.55965823 1.8439435 14390628
1.0801117 -0.55965823 1.8439435 14259043
1.1505349 -0.5863086 1.9317503 14062438
1.1695241 -0.5863086 1.9317503 13995872
1.247939 -0.61562407 2.028338 13733473
1.2678777 -0.61562407 2.028338 13929825
1.5150779 -0.72426355 2.3862798 13864799
1.5385351 -0.72426355 2.3862798 13536864
1.3975722 -0.64802527 2.1350925 13470817
1.3476323 -0.61562407 2.028338 13667680
1.3675709 -0.61562407 2.028338 13535839
1.3214376 -0.5863086 1.9317503 13338463
1.3404268 -0.5863086 1.9317503 13338718
1.359416 -0.5863086 1.9317503 13207389
1.3784052 -0.5863086 1.9317503 13207388
1.3973943 -0.5863086 1.9317503 13075545
1.4163835 -0.5863086 1.9317503 13272922
1.5071415 -0.61562407 2.028338 13338717
1.0180533 -0.41041601 1.3522252 12747098
1.0313457 -0.41041601 1.3522252 12813407
1.0109402 -0.3971768 1.3086051 12683104
1.8669364 -0.72426355 2.3862798 12550748
1.8903937 -0.72426355 2.3862798 12221785
0 0 0 12419416
0 0 0 12090967
1.6666507 -0.61562407 2.028338 12222554
1.6865894 -0.61562407 2.028338 12222809
1.7065281 -0.61562407 2.028338 12156246
1.6442538 -0.5863086 1.9317503 12156246
1.7464054 -0.61562407 2.028338 11762262
1.8593093 -0.64802527 2.1350925 11827541
1.8802974 -0.64802527 2.1350925 11762005
2.0069125 -0.68402672 2.2537088 11958615
2.0290666 -0.68402672 2.2537088 11828054
2.0512207 -0.68402672 2.2537088 11630422
2.0733747 -0.68402672 2.2537088 11499093
2.2187951 -0.72426355 2.3862798 11367507
2.2422523 -0.72426355 2.3862798 11367507
2.4073164 -0.76953006 2.5354223 11367507
2.2891667 -0.72426355 2.3862798 11433300
2.312624 -0.72426355 2.3862798 11367507
2.3360813 -0.72426355 2.3862798 11236689
2.3595386 -0.72426355 2.3862798 11170897
2.3829956 -0.72426355 2.3862798 11433300
2.4064529 -0.72426355 2.3862798 11301462
2.5817795 -0.76953006 2.5354223 10777171
2.6067028 -0.76953006 2.5354223 10974032
2.4768248 -0.72426355 2.3862798 10907729
2.3613775 -0.68402672 2.2537088 11039316
2.2580824 -0.64802527 2.1350925 11104853
2.4056857 -0.68402672 2.2537088 11170898
2.4278398 -0.68402672 2.2537088 11039312
2.4499936 -0.68402672 2.2537088 11236691
2.7811661 -0.76953006 2.5354223 11236693
3.4536486 -0.94711393 3.1205199 11302230
3.4843235 -0.94711393 3.1205199 11827799
3.5149984 -0.94711393 3.1205199 11631195
3.8411458 -1.0260401 3.380563 11368536
3.8743768 -1.0260401 3.380563 11434070
4.6891298 -1.2312481 4.0566759 11827287
5.2544522 -1.3680534 4.5074177 11630420
5.2987604 -1.3680534 4.5074177 11893594
5.3430686 -1.3680534 4.5074177 11695700
4.0405321 -1.0260401 3.380563 11958873
4.0737634 -1.0260401 3.380563 11630936
4.1069946 -1.0260401 3.380563 11368280
4.5166097 -1.1193165 3.687887 11696727
5.0081482 -1.2312481 4.0566759 11630677
0 0 0 11958615
0 0 0 11696730
0 0 0 11499097
0 0 0 11498841
0 0 0 11498840
0 0 0 11499096
0 0 0 10579791
0 0 0 12156762
-5.3794961 -1.3237454 4.5074177 12615512
-5.3351879 -1.3237454 4.5074177 12352851
-5.9522395 -1.4892135 5.0708447 12484692
-3.1479428 -0.79424715 2.7044504 12550486
-3.1213579 -0.79424715 2.7044504 12287831
-2.9013498 -0.74460673 2.5354223 12287317
-1.7701087 -0.45821953 1.5602599 12287058
-1.7547712 -0.45821953 1.5602599 12418646
-1.6750103 -0.44124845 1.5024725 12156244
-1.6602409 -0.44124845 1.5024725 12418644
-1.6454716 -0.44124845 1.5024725 12287830
-1.6307021 -0.44124845 1.5024725 12155987
-1.6159328 -0.44124845 1.5024725 12090452
-1.3945616 -0.38431314 1.3086051 11958865
-1.4277545 -0.39712358 1.3522252 12155474
-2.6521165 -0.74460673 2.5354223 12024660
0 0 0 12089683
-1.4870114 -0.42548954 1.4488127 11892819
-1.4727695 -0.42548954 1.4488127 12025173
-1.4585276 -0.42548954 1.4488127 12023890
-1.6176001 -0.47654831 1.6226703 11892302
-1.6016492 -0.47654831 1.6226703 11958865
-1.5856982 -0.47654831 1.6226703 11893844
-1.5697473 -0.47654831 1.6226703 11498829
0 0 0 11826512
0 0 0 11761488
-1.5853068 -0.49640447 1.6902815 11564879
-1.5686911 -0.49640447 1.6902815 11433296
-1.5520756 -0.49640447 1.6902815 11630675
-1.5354601 -0.49640447 1.6902815 11498575
-1.4580908 -0.47654831 1.6226703 11433039
-1.4421399 -0.47654831 1.6226703 11367503
-1.4261889 -0.47654831 1.6226703 11630418
-1.468998 -0.49640447 1.6902815 11564625
-1.93651 -0.66187268 2.2537088 11433295
-2.0269649 -0.70080632 2.3862798 11761231
-1.8922019 -0.66187268 2.2537088 11367243
0 0 0 11564877
0 0 0 11629900
0 0 0 11499343
0 0 0 11564365
0 0 0 11301707
-1.2666798 -0.47654831 1.6226703 11433293
-1.0782145 -0.4108175 1.3988537 11695695
-1.0644637 -0.4108175 1.3988537 11630670
-1.0507129 -0.4108175 1.3988537 11760714
-1.2529958 -0.49640447 1.6902815 11564878
-1.1869252 -0.47654831 1.6226703 11630414
-1.1709743 -0.47654831 1.6226703 11892302
-1.1550233 -0.47654831 1.6226703 12023375
-1.1390724 -0.47654831 1.6226703 11761229
-1.1231215 -0.47654831 1.6226703 11958352
-0.98854512 -0.42548954 1.4488127 12024658
-0.97430319 -0.42548954 1.4488127 11828049
-0.96006131 -0.42548954 1.4488127 12024656
-0.94581944 -0.42548954 1.4488127 12155473
-0.38359076 -0.17520158 0.59656996 12024658
-0.37225214 -0.17266242 0.587924 12221778
-0.36647281 -0.17266242 0.587924 12352595
-0.3714605 -0.17781654 0.605474 12418644
-0.36550865 -0.17781654 0.605474 12549971
-0.35955682 -0.17781654 0.605474 12878166
-0.36448511 -0.18328781 0.62410396 12747350
-0.37568969 -0.19215657 0.65430254 12878167
-0.36925787 -0.19215657 0.65430254 13074774
-0.36282602 -0.19215657 0.65430254 12681813
-0.36223674 -0.19530669 0.66502881 12943959
-0.35569948 -0.19530669 0.66502881 12615763
-0.35498157 -0.19856179 0.67611259 12943954
-0.34833536 -0.19856179 0.67611259 13010004
0 0 0 12878676
-0.32423508 -0.19215657 0.65430254 12943956
-0.29854244 -0.18051071 0.61464781 12813142
-0.29250044 -0.18051071 0.61464781 13074774
-0.28218293 -0.17781654 0.605474 12615764
-0.27216887 -0.17520158 0.59656996 12681812
-0.26244506 -0.17266242 0.587924 12485456
-0.24943574 -0.1677987 0.57136279 12614992
-0.23713924 -0.16320148 0.555709 12549459
-0.23167659 -0.16320148 0.555709 12418386
-0.23932779 -0.17266242 0.587924 12023888
-0.23354848 -0.17266242 0.587924 12154961
-0.22776915 -0.17266242 0.587924 11826761
-0.2252544 -0.17520158 0.59656996 11629900
-0.21939008 -0.17520158 0.59656996 11563595
-0.21352577 -0.17520158 0.59656996 8538925
-0.20766146 -0.17520158 0.59656996 7027247
-0.20480905 -0.17781654 0.605474 6829870
-0.19885722 -0.17781654 0.605474 5646887
-0.19290538 -0.17781654 0.605474 5056550
-0.18695354 -0.17781654 0.605474 2428690
-0.17833991 -0.17520158 0.59656996 2756885
-0.17247561 -0.17520158 0.59656996 2428690
-0.1666113 -0.17520158 0.59656996 2166288
-0.16074699 -0.17520158 0.59656996 2757137
-0.15488268 -0.17520158 0.59656996 3479062
-0.14901838 -0.17520158 0.59656996 4135960
-0.14107937 -0.17266242 0.587924 4530202
-0.14145005 -0.18051071 0.61464781 4595223
-0.13540803 -0.18051071 0.61464781 4595225
-0.13135627 -0.18328781 0.62410396 4857627
-0.1252213 -0.18328781 0.62410396 4923418
-0.12286685 -0.18910646 0.64391679 4464150
-0.11841674 -0.19215657 0.65430254 4070421
-0.11382074 -0.19530669 0.66502881 3807765
-0.10907153 -0.19856179 0.67611259 3939605
-0.10242531 -0.19856179 0.67611259 3873558
-0.10082011 -0.20901242 0.71169752 4200213
-0.093824089 -0.20901242 0.71169752 3017999
-0.086828068 -0.20901242 0.71169752 11499340
-0.078455634 -0.20540875 0.69942683 12286800
-0.071580231 -0.20540875 0.69942683 12549457
-0.065840013 -0.20901242 0.71169752 12747091
-0.059894778 -0.21274477 0.72440636 12747350
-0.05277383 -0.21274477 0.72440636 12943956
-0.046482936 -0.21661286 0.73757738 12943954
-0.039232515 -0.21661286 0.73757738 13075286
-0.033188969 -0.22478692 0.76541048 12944468
-0.027760049 -0.2431369 0.82789302 12878162
-0.02003061 -0.24820223 0.84514076 13075539
-0.011722839 -0.24820223 0.84514076 12943954
-0.0035635484 -0.25899363 0.88188601 12812882
0.006180258 -0.31351861 1.0675462 12746322
0.01624674 -0.30547971 1.0401733 12747091
0.031284723 -0.36102143 1.2292956 12812114
0 0 0 12812627
0 0 0 12812370
0 0 0 12549457
0 0 0 12484435
0.10435383 -0.4108175 1.3988537 12484437
0.11810462 -0.4108175 1.3988537 12550484
0.13185541 -0.4108175 1.3988537 12615250
0.15080643 -0.42548954 1.4488127 12419157
0.14004101 -0.36102143 1.2292956 12616023
0.14765078 -0.35040316 1.1931399 12484179
0.16420907 -0.36102143 1.2292956 12746579
0.20060939 -0.4108175 1.3988537 12746580
0.23023872 -0.44124845 1.5024725 12878422
0.26460874 -0.47654831 1.6226703 12812114
0.30495614 -0.51798725 1.763772 13141336
0.29651058 -0.47654831 1.6226703 12747605
0.3124615 -0.47654831 1.6226703 13207127
0.32841244 -0.47654831 1.6226703 13207383
0.34436336 -0.47654831 1.6226703 13470041
0.37532735 -0.49640447 1.6902815 13404505
0.3762652 -0.47654831 1.6226703 13404505
0.39221612 -0.47654831 1.6226703 13535321
0.40816703 -0.47654831 1.6226703 13601629
0.40780574 -0.45821953 1.5602599 13798234
0.40747118 -0.44124845 1.5024725 14126942
0.40716052 -0.42548954 1.4488127 14192736
0.42140242 -0.42548954 1.4488127 14258528
0.43564433 -0.42548954 1.4488127 14258271
0.52486724 -0.49640447 1.6902815 14717794
0.59070849 -0.54153216 1.8439435 14652769
0.60883456 -0.54153216 1.8439435 14653282
0.62696058 -0.54153216 1.8439435 15112548
0.64508665 -0.54153216 1.8439435 14718562
0.69479424 -0.56731939 1.9317503 15047013
0.71378344 -0.56731939 1.9317503 15047015
0.66905326 -0.51798725 1.763772 15178341
0.68639123 -0.51798725 1.763772 15047784
0.70372921 -0.51798725 1.763772 15047786
0.69102269 -0.49640447 1.6902815 15112807
0.7076382 -0.49640447 1.6902815 15179365
0.79009503 -0.54153216 1.8439435 15178341
0.88904321 -0.59568542 2.028338 15244134
1.2119757 -0.79424715 2.7044504 15244394
1.6889464 -1.0830643 3.687887 15178601
1.7251984 -1.0830643 3.687887 15309930
0.96879786 -0.59568542 2.028338 15113833
0.89885128 -0.54153216 1.8439435 15178342
0.91697735 -0.54153216 1.8439435 15048040
0.97963214 -0.56731939 1.9317503 14981734
0.99862134 -0.56731939 1.9317503 15113320
1.0176105 -0.56731939 1.9317503 14849636
1.0365998 -0.56731939 1.9317503 14849635
1.0555888 -0.56731939 1.9317503 14981993
1.2536745 -0.66187268 2.2537088 14652773
1.0935673 -0.56731939 1.9317503 14653028
1.1125565 -0.56731939 1.9317503 14652515
1.0801117 -0.54153216 1.8439435 14520932
1.1505349 -0.56731939 1.9317503 14192480
1.1695241 -0.56731939 1.9317503 13996643
1.1885133 -0.56731939 1.9317503 13930595
1.2075025 -0.56731939 1.9317503 13668192
1.2264916 -0.56731939 1.9317503 13864282
1.3765841 -0.62703723 2.1350925 13536094
1.5619924 -0.70080632 2.3862798 13667682
1.3476323 -0.59568542 2.028338 13535837
1.3675709 -0.59568542 2.028338 13273440
1.3214376 -0.56731939 1.9317503 13667425
1.3404268 -0.56731939 1.9317503 13076830
1.2976243 -0.54153216 1.8439435 13141854
1.3157504 -0.54153216 1.8439435 13338461
1.3338765 -0.54153216 1.8439435 13010010
1.2393357 -0.49640447 1.6902815 13141854
1.3701285 -0.54153216 1.8439435 12616281
0.98521292 -0.38431314 1.3086051 12747611
0.99807662 -0.38431314 1.3086051 12616027
1.0109402 -0.38431314 1.3086051 12419418
1.8669364 -0.70080632 2.3862798 12353369
0 0 0 12485211
0 0 0 12353625
0 0 0 12353625
2.777751 -0.99280894 3.380563 12352601
1.6865894 -0.59568542 2.028338 12221526
1.6252646 -0.56731939 1.9317503 12091223
1.6442538 -0.56731939 1.9317503 11893846
1.7464054 -0.59568542 2.028338 11893851
2.2079298 -0.74460673 2.5354223 11630422
0 0 0 11893594
0 0 0 12025178
2.0290666 -0.66187268 2.2537088 11630677
2.0512207 -0.66187268 2.2537088 11565396
2.0733747 -0.66187268 2.2537088 11499862
2.2187951 -0.70080632 2.3862798 11564886
2.2422523 -0.70080632 2.3862798 11236437
2.2657096 -0.70080632 2.3862798 11236949
2.2891667 -0.70080632 2.3862798 11564629
2.312624 -0.70080632 2.3862798 11433046
2.3360813 -0.70080632 2.3862798 11433300
2.3595386 -0.70080632 2.3862798 11236691
2.3829956 -0.70080632 2.3862798 11105874
2.4064529 -0.70080632 2.3862798 11040082
2.4299102 -0.70080632 2.3862798 11039826
2.4533675 -0.70080632 2.3862798 10908498
2.3392234 -0.66187268 2.2537088 10842705
2.3613775 -0.66187268 2.2537088 10842707
2.2580824 -0.62703723 2.1350925 10842452
2.2790704 -0.62703723 2.1350925 10907986
2.3000586 -0.62703723 2.1350925 11105107
2.3210466 -0.62703723 2.1350925 11170901
2.7811661 -0.74460673 2.5354223 11302227
3.4536486 -0.91643906 3.1205199 11367505
3.4843235 -0.91643906 3.1205199 11564627
3.8079147 -0.99280894 3.380563 11696472
3.8411458 -0.99280894 3.380563 11762006
3.8743768 -0.99280894 3.380563 11828056
3.907608 -0.99280894 3.380563 11631447
4.7290072 -1.1913708 4.0566759 11761236
5.2987604 -1.3237454 4.5074177 11696218
4.0073013 -0.99280894 3.380563 11695699
4.0405321 -0.99280894 3.380563 11762007
4.0737634 -0.99280894 3.380563 11696472
4.1069946 -0.99280894 3.380563 11828058
4.5166097 -1.0830643 3.687887 11827799
5.0081482 -1.1913708 4.0566759 11696213
0 0 0 11499093
0 0 0 11368282
0 0 0 11499866
0 0 0 11367767
0 0 0 11498839
0 0 0 11368023
0 0 0 10381641
0 0 0 11827797
-4.8415465 -1.1514935 4.0566759 12681045
-4.8016691 -1.1514935 4.0566759 12484437
-6.8025594 -1.6449906 5.7952509 12484693
-6.7455916 -1.6449906 5.7952509 12550484
-5.8525462 -1.4393668 5.0708447 12550484
-3.0947731 -0.76766229 2.7044504 12418646
-3.0681882 -0.76766229 2.7044504 12353623
-2.2812026 -0.57574677 2.028338 12287060
-1.8090111 -0.4605974 1.6226703 11893842
-1.7930602 -0.4605974 1.6226703 12025428
-1.6454716 -0.42647907 1.5024725 12090451
-1.6307021 -0.42647907 1.5024725 12222035
-1.6159328 -0.42647907 1.5024725 12352853
-1.5439789 -0.41124764 1.4488127 12090196
-1.4277545 -0.38383114 1.3522252 12024660
-1.5154952 -0.41124764 1.4488127 12024660
-1.4494859 -0.39706671 1.3988537 12155732
-1.4870114 -0.41124764 1.4488127 11892817
-1.4727695 -0.41124764 1.4488127 12222039
-1.5125473 -0.42647907 1.5024725 12024402
0 0 0 12090194
-2.3553662 -0.67734909 2.3862798 11828050
0 0 0 12155476
0 0 0 11761488
0 0 0 11893074
-0.57382292 -0.1718647 0.605474 11958097
-0.56787109 -0.1718647 0.605474 11893332
-0.62747645 -0.19191557 0.67611259 11499088
-1.5520756 -0.47978893 1.6902815 11499086
-1.4740417 -0.4605974 1.6226703 11498832
-1.4580908 -0.4605974 1.6226703 11827281
-1.4421399 -0.4605974 1.6226703 11826766
-1.4261889 -0.4605974 1.6226703 11630159
-1.410238 -0.4605974 1.6226703 11629904
-1.3942871 -0.4605974 1.6226703 11695695
-1.3783362 -0.4605974 1.6226703 11893074
-1.3623853 -0.4605974 1.6226703 11499086
-1.3464344 -0.4605974 1.6226703 11565137
-1.3304834 -0.4605974 1.6226703 11761486
0 0 0 11696465
-1.2985816 -0.4605974 1.6226703 11696468
-1.145206 -0.41124764 1.4488127 11630158
-1.130964 -0.41124764 1.4488127 11761488
-0.46668985 -0.1718647 0.605474 11762258
-0.46771887 -0.1744687 0.61464781 11761487
-0.4914625 -0.18572475 0.65430254 11893329
-0.492982 -0.18876942 0.66502881 11696463
-0.92728525 -0.3598417 1.2677112 11958865
-0.48790592 -0.19191557 0.67611259 12023632
-0.48125967 -0.19191557 0.67611259 11958350
-0.46683294 -0.18876942 0.66502881 12023887
-0.45287156 -0.18572475 0.65430254 12089680
-0.98854512 -0.41124764 1.4488127 12352340
-0.40717149 -0.1718647 0.605474 12221266
-0.40121967 -0.1718647 0.605474 12352338
-0.39526781 -0.1718647 0.605474 12352851
-0.38359076 -0.16933727 0.59656996 12483153
-0.37772644 -0.16933727 0.59656996 12681556
-0.37186214 -0.16933727 0.59656996 12222035
-0.3714605 -0.1718647 0.605474 12288598
-0.37104663 -0.1744687 0.61464781 12878421
-0.36500463 -0.1744687 0.61464781 13140309
-0.36448511 -0.17715284 0.62410396 13075285
-0.35835016 -0.17715284 0.62410396 12878679
-0.35221517 -0.17715284 0.62410396 12944216
-0.36282602 -0.18572475 0.65430254 13075287
-0.36223674 -0.18876942 0.66502881 13403735
-0.35569948 -0.18876942 0.66502881 13207386
-0.34916222 -0.18876942 0.66502881 13273176
-0.34262493 -0.18876942 0.66502881 13141849
-0.33608767 -0.18876942 0.66502881 13404761
-0.32423508 -0.18572475 0.65430254 13076823
-0.29854244 -0.1744687 0.61464781 13076568
-0.28813478 -0.1718647 0.605474 13207124
-0.27803317 -0.16933727 0.59656996 13599829
-0.27216887 -0.16933727 0.59656996 13600342
-0.26244506 -0.16688311 0.587924 13273176
-0.25666574 -0.16688311 0.587924 12944471
-0.25088644 -0.16688311 0.587924 12812630
-0.24510711 -0.16688311 0.587924 12549201
-0.24284732 -0.16933727 0.59656996 12812373
-0.23698302 -0.16933727 0.59656996 12484178
-0.23111871 -0.16933727 0.59656996 12548947
-0.23208028 -0.1744687 0.61464781 12024400
-0.24456599 -0.18876942 0.66502881 11892301
-0.21999624 -0.1744687 0.61464781 11036736
-0.21395423 -0.1744687 0.61464781 6961710
-0.20480905 -0.1718647 0.605474 6304042
-0.19885722 -0.1718647 0.605474 6370607
-0.19290538 -0.1718647 0.605474 5121046
-0.18695354 -0.1718647 0.605474 4137761
-0.17833991 -0.16933727 0.59656996 3413527
-0.17247561 -0.16933727 0.59656996 4267035
-0.1666113 -0.16933727 0.59656996 4266521
-0.16074699 -0.16933727 0.59656996 3741718
-0.15488268 -0.16933727 0.59656996 3085074
-0.14901838 -0.16933727 0.59656996 2624781
-0.14529069 -0.1718647 0.605474 3019538
-0.14145005 -0.1744687 0.61464781 3348244
-0.13749124 -0.17715284 0.62410396 4398359
-0.13135627 -0.17715284 0.62410396 4595738
-0.1252213 -0.17715284 0.62410396 4595738
-0.12484857 -0.18572475 0.65430254 4333080
-0.11841674 -0.18572475 0.65430254 4070167
-0.11382074 -0.18876942 0.66502881 3807767
-0.10907153 -0.19191557 0.67611259 4202007
-0.10416134 -0.19516839 0.68757218 3611158
-0.099081822 -0.19853336 0.69942683 4464152
-0.092206426 -0.19853336 0.69942683 7425848
-0.08533103 -0.19853336 0.69942683 12614995
-0.078455634 -0.19853336 0.69942683 12746579
-0.071580231 -0.19853336 0.69942683 12747093
-0.064704835 -0.19853336 0.69942683 13075541
-0.058843996 -0.2020164 0.71169752 13075029
-0.05277383 -0.20562382 0.72440636 13206870
-0.046482936 -0.20936243 0.73757738 13403735
-0.039232515 -0.20936243 0.73757738 13141589
-0.035898276 -0.23499867 0.82789302 13272920
-0.027760049 -0.23499867 0.82789302 13141074
-0.02003061 -0.23989446 0.84514076 13272660
-0.012232527 -0.25032467 0.88188601 13272662
0 0 0 13076310
0 0 0 13075029
0.01624674 -0.29525474 1.0401733 12878164
0.026471691 -0.29525474 1.0401733 13205589
0 0 0 12944212
0 0 0 12614992
0 0 0 12813141
0.093838856 -0.41124764 1.4488127 12615507
0.10435383 -0.39706671 1.3988537 12812372
0.11810462 -0.39706671 1.3988537 12418898
0.13185541 -0.39706671 1.3988537 12812629
0.1456062 -0.39706671 1.3988537 12747094
0.14441729 -0.3598417 1.2677112 12550227
0.15687895 -0.3598417 1.2677112 12878419
0.16934061 -0.3598417 1.2677112 12746577
0.20777401 -0.41124764 1.4488127 12812882
0.24865782 -0.4605974 1.6226703 12813141
0.27563411 -0.47978893 1.6902815 12682581
0.30495614 -0.50064933 1.763772 12944470
0.29651058 -0.4605974 1.6226703 13075797
0.3124615 -0.4605974 1.6226703 13076054
0.35697001 -0.50064933 1.763772 13338969
0.37430799 -0.50064933 1.763772 13470041
0.37532735 -0.47978893 1.6902815 13732698
0.3762652 -0.4605974 1.6226703 13404510
0.40855846 -0.47978893 1.6902815 13733725
0.40816703 -0.4605974 1.6226703 14060893
0.44178954 -0.47978893 1.6902815 13930591
0.44006887 -0.4605974 1.6226703 13930592
0.40716052 -0.41124764 1.4488127 14127198
0.42140242 -0.41124764 1.4488127 13996127
0.46915543 -0.44288212 1.5602599 14455137
0.54768759 -0.50064933 1.763772 14455907
0.61883748 -0.54833019 1.9317503 14653026
0.63782668 -0.54833019 1.9317503 14784101
0.68965667 -0.57574677 2.028338 15112291
0.88699412 -0.71968341 2.5354223 15046757
0.91191745 -0.71968341 2.5354223 14719591
0.8327474 -0.63971859 2.2537088 15113576
0.76941133 -0.57574677 2.028338 15113318
0.71759081 -0.52340609 1.8439435 15309926
0.70372921 -0.50064933 1.763772 15309668
0.72106713 -0.50064933 1.763772 15179111
0.73840511 -0.50064933 1.763772 15376234
0.82771862 -0.54833019 1.9317503 15375720
0.93583494 -0.60604918 2.1350925 14786154
1.1362273 -0.71968341 2.5354223 15441000
2.0642679 -1.2794372 4.5074177 15112804
0.94885921 -0.57574677 2.028338 15179624
0.96879786 -0.57574677 2.028338 15244394
0.98873651 -0.57574677 2.028338 15047786
1.0086751 -0.57574677 2.028338 15244136
0.97963214 -0.54833019 1.9317503 15308902
0.99862134 -0.54833019 1.9317503 15047271
1.0176105 -0.54833019 1.9317503 15047527
1.0365998 -0.54833019 1.9317503 14784357
1.0555888 -0.54833019 1.9317503 14522728
1.074578 -0.54833019 1.9317503 14850922
1.1482457 -0.57574677 2.028338 14587496
1.1125565 -0.54833019 1.9317503 14521444
1.1315457 -0.54833019 1.9317503 14587238
1.0982379 -0.52340609 1.8439435 13996642
1.1163639 -0.52340609 1.8439435 14127455
1.0851643 -0.50064933 1.763772 13995871
1.2075025 -0.54833019 1.9317503 13865569
1.2264916 -0.54833019 1.9317503 13536864
1.307755 -0.57574677 2.028338 13733472
1.3975722 -0.60604918 2.1350925 13667680
1.3476323 -0.57574677 2.028338 13404509
1.3675709 -0.57574677 2.028338 13601633
1.3214376 -0.54833019 1.9317503 13338459
1.3404268 -0.54833019 1.9317503 13272924
1.359416 -0.54833019 1.9317503 13338463
1.3157504 -0.52340609 1.8439435 13010526
1.2758818 -0.50064933 1.763772 12879449
1.0256571 -0.39706671 1.3988537 12813402
0.97234929 -0.3714495 1.3086051 12747354
0.98521292 -0.3714495 1.3086051 12812891
0.99807662 -0.3714495 1.3086051 12748383
1.5669575 -0.57574677 2.028338 12681819
2.4413786 -0.88576424 3.1205199 12286808
0 0 0 12484185
0 0 0 12550235
0 0 0 12155988
1.9607655 -0.67734909 2.3862798 12352340
1.6062754 -0.54833019 1.9317503 12090199
2.8442132 -0.95957786 3.380563 12024920
1.6442538 -0.54833019 1.9317503 11630934
2.1830065 -0.71968341 2.5354223 11828568
2.2079298 -0.71968341 2.5354223 11893592
0 0 0 11827799
0 0 0 11237976
0 0 0 11369044
2.0512207 -0.63971859 2.2537088 11696468
2.1953378 -0.67734909 2.3862798 11630163
2.3574698 -0.71968341 2.5354223 11499609
2.9321761 -0.88576424 3.1205199 11696468
2.4073164 -0.71968341 2.5354223 11433298
2.2891667 -0.67734909 2.3862798 11235921
2.312624 -0.67734909 2.3862798 11367762
2.3360813 -0.67734909 2.3862798 11170900
2.3595386 -0.67734909 2.3862798 11302485
2.5319331 -0.71968341 2.5354223 11367763
2.5568564 -0.71968341 2.5354223 11170898
2.5817795 -0.71968341 2.5354223 11170385
2.3170693 -0.63971859 2.2537088 11104849
2.3392234 -0.63971859 2.2537088 10907729
2.3613775 -0.63971859 2.2537088 10776658
2.3835316 -0.63971859 2.2537088 10973779
2.4056857 -0.63971859 2.2537088 11104338
2.3000586 -0.60604918 2.1350925 11104849
2.4499936 -0.63971859 2.2537088 11302483
2.617568 -0.67734909 2.3862798 11433554
3.4536486 -0.88576424 3.1205199 11433299
3.7746835 -0.95957786 3.380563 11433556
4.154089 -1.0468122 3.687887 11368278
3.8411458 -0.95957786 3.380563 11368536
3.8743768 -0.95957786 3.380563 11302482
3.907608 -0.95957786 3.380563 11696471
4.7290072 -1.1514935 4.0566759 11761494
4.7688847 -1.1514935 4.0566759 11762008
4.3716011 -1.0468122 3.687887 11762006
4.0405321 -0.95957786 3.380563 11695443
4.0737634 -0.95957786 3.380563 11630165
4.4803576 -1.0468122 3.687887 11761751
4.1402254 -0.95957786 3.380563 11695702
5.0081482 -1.1514935 4.0566759 11828058
0 0 0 11630168
0 0 0 11696472
0 0 0 11368023
0 0 0 11302232
0 0 0 11302230
0 0 0 11301716
0 0 0 10117955
0 0 0 10250053
-4.8415465 -1.1116163 4.0566759 12155735
-6.0020862 -1.3895202 5.0708447 12549719
-5.9522395 -1.3895202 5.0708447 12287832
-5.9023929 -1.3895202 5.0708447 12156246
-5.8525462 -1.3895202 5.0708447 12419156
-5.1579552 -1.2351291 4.5074177 12353109
-3.0681882 -0.74107742 2.7044504 12222037
-3.0416033 -0.74107742 2.7044504 12157014
-2.8265798 -0.69476008 2.5354223 12222037
-2.9884336 -0.74107742 2.7044504 12221266
-2.9618487 -0.74107742 2.7044504 12222035
0 0 0 12352852
-1.6780841 -0.42754468 1.5602599 12287060
-1.4907383 -0.38331589 1.3988537 12024916
-1.5297371 -0.39700577 1.4488127 11893843
-1.5154952 -0.39700577 1.4488127 11959122
-1.5012532 -0.39700577 1.4488127 12221524
-1.4870114 -0.39700577 1.4488127 12156245
-1.4727695 -0.39700577 1.4488127 11828050
-1.633551 -0.44464645 1.6226703 11893587
-2.3788235 -0.65389186 2.3862798 12155730
0 0 0 11958863
0 0 0 11893841
-1.6351534 -0.46317339 1.6902815 11827794
-1.494035 -0.42754468 1.5602599 11827537
-1.3257288 -0.38331589 1.3988537 11958867
-0.56787109 -0.16591287 0.605474 11958097
-0.62747645 -0.18526936 0.67611259 11696465
-1.3303505 -0.39700577 1.4488127 11630672
-1.3161087 -0.39700577 1.4488127 11828051
-1.4580908 -0.44464645 1.6226703 11893329
-1.4421399 -0.44464645 1.6226703 11828051
-1.4261889 -0.44464645 1.6226703 11696207
-1.3559982 -0.42754468 1.5602599 11827279
-1.3942871 -0.44464645 1.6226703 11761488
-1.3783362 -0.44464645 1.6226703 11630675
0 0 0 11696465
-1.2021735 -0.39700577 1.4488127 11892816
-0.92394686 -0.30878228 1.1268544 11696206
-1.1332177 -0.38331589 1.3988537 11499341
-1.1194669 -0.38331589 1.3988537 11696465
-1.1057161 -0.38331589 1.3988537 12024144
-1.0555664 -0.37053871 1.3522252 11892304
-0.46668985 -0.16591287 0.605474 11761487
-0.46771887 -0.16842668 0.61464781 12089681
-0.4914625 -0.17929293 0.65430254 12089938
-0.492982 -0.18223216 0.66502881 12155472
-0.92728525 -0.34738004 1.2677112 12024656
-0.48790592 -0.18526936 0.67611259 12155730
-0.48125967 -0.18526936 0.67611259 12155214
-0.46683294 -0.18223216 0.66502881 12023888
-0.45287156 -0.17929293 0.65430254 12220752
-0.95445734 -0.38331589 1.3988537 12418898
-0.40717149 -0.16591287 0.605474 12352850
-0.92695576 -0.38331589 1.3988537 12615252
-0.91320497 -0.38331589 1.3988537 12549716
-0.9315775 -0.39700577 1.4488127 12812630
-0.37772644 -0.16347297 0.59656996 12745553
-0.37741232 -0.16591287 0.605474 12812628
-0.41479751 -0.18526936 0.67611259 12878164
-0.4081513 -0.18526936 0.67611259 12813142
-0.3706201 -0.17101787 0.62410396 13009750
-0.36448511 -0.17101787 0.62410396 13075283
-0.35835016 -0.17101787 0.62410396 13338712
-0.35221517 -0.17101787 0.62410396 13469786
-0.368774 -0.18223216 0.66502881 13338712
-0.36223674 -0.18223216 0.66502881 13338969
-0.36162779 -0.18526936 0.67611259 13405273
-0.34916222 -0.18223216 0.66502881 13536346
-0.34262493 -0.18223216 0.66502881 13535832
