# .PCD v0.7 - Point Cloud Data file format
VERSION 0.7
FIELDS x y z rgb
SIZE 4 4 4 4
TYPE F F F U
COUNT 1 1 1 1
WIDTH 1232
HEIGHT 1
VIEWPOINT 0 0 0 1 0 0 0
POINTS 1232
DATA ascii
1.1530348 -0.42564148 3.1205199 14128228
0.90518975 -0.32549053 2.3862798 13997156
0.92864698 -0.32549053 2.3862798 14127970
0.95210421 -0.32549053 2.3862798 14127456
1.0365341 -0.34583369 2.5354223 14324065
1.0614574 -0.34583369 2.5354223 13996388
1.0863807 -0.34583369 2.5354223 14062178
1.111304 -0.34583369 2.5354223 14258274
1.0693904 -0.32549053 2.3862798 14127970
1.0928476 -0.32549053 2.3862798 13930595
1.4597833 -0.42564148 3.1205199 13996129
1.7614505 -0.50303078 3.687887 14194021
1.7977026 -0.50303078 3.687887 13799520
1.8339547 -0.50303078 3.687887 13668451
2.0572276 -0.55333394 4.0566759 13734245
2.097105 -0.55333394 4.0566759 13929825
2.3744247 -0.61481547 4.5074177 13930336
2.4187329 -0.61481547 4.5074177 13864286
2.4630408 -0.61481547 4.5074177 13405539
1.8805116 -0.46111158 3.380563 13471073
1.5309942 -0.36888924 2.7044504 13733473
1.557579 -0.36888924 2.7044504 13536866
1.5841639 -0.36888924 2.7044504 13404509
2.0134361 -0.46111158 3.380563 13404765
1.5350003 -0.34583369 2.5354223 13338975
1.5599236 -0.34583369 2.5354223 13470302
1.4087529 -0.30740774 2.2537088 10710604
1.3555961 -0.29122835 2.1350925 9133130
1.4530611 -0.30740774 2.2537088 5189669
1.4752151 -0.30740774 2.2537088 2758677
1.4973692 -0.30740774 2.2537088 1706252
1.4395483 -0.29122835 2.1350925 1641488
1.6323642 -0.32549053 2.3862798 1509902
1.3404268 -0.26349232 1.9317503 1379087
1.2976243 -0.25151539 1.8439435 1182478
1.2585438 -0.24057995 1.763772 1050635
1.3338765 -0.25151539 1.8439435 984586
1.6524476 -0.30740774 2.2537088 787210
1.7731075 -0.32549053 2.3862798 918796
1.3278956 -0.24057995 1.763772 853002
1.3452337 -0.24057995 1.763772 853259
1.3625716 -0.24057995 1.763772 919053
1.3799095 -0.24057995 1.763772 1115661
1.3972476 -0.24057995 1.763772 1181456
1.4788848 -0.25151539 1.8439435 1181454
1.4319234 -0.24057995 1.763772 1247247
1.4492614 -0.24057995 1.763772 984845
1.4665993 -0.24057995 1.763772 854288
1.8961422 -0.30740774 2.2537088 985103
1.9182963 -0.30740774 2.2537088 853260
1.7464054 -0.27666697 2.028338 984846
1.766344 -0.27666697 2.028338 919054
1.7862827 -0.27666697 2.028338 984847
1.7202107 -0.26349232 1.9317503 984075
1.82616 -0.27666697 2.028338 853260
1.758189 -0.26349232 1.9317503 852493
1.5550309 -0.23055579 1.6902815 1049870
1.4507507 -0.21282074 1.5602599 984075
1.4117885 -0.20493849 1.5024725 656393
1.4265579 -0.20493849 1.5024725 853259
1.4413272 -0.20493849 1.5024725 787724
1.4560966 -0.20493849 1.5024725 853003
1.5274378 -0.21282074 1.5602599 2036245
1.6044862 -0.22133356 1.6226703 9266254
1.6204371 -0.22133356 1.6226703 10448716
1.7786826 -0.24057995 1.763772 10448720
1.7960205 -0.24057995 1.763772 10578769
2.0853624 -0.27666697 2.028338 10513233
1.8306965 -0.24057995 1.763772 10317137
1.8480344 -0.24057995 1.763772 10120530
2.0430269 -0.26349232 1.9317503 10251346
3.093024 -0.39523849 2.8976254 10513488
3.1215079 -0.39523849 2.8976254 10447695
4.0090804 -0.50303078 3.687887 10185297
4.0453324 -0.50303078 3.687887 10185555
4.0815845 -0.50303078 3.687887 10185812
4.1178365 -0.50303078 3.687887 9988175
3.8079147 -0.46111158 3.380563 10251856
3.8411458 -0.46111158 3.380563 9726541
3.8743768 -0.46111158 3.380563 9727059
4.262845 -0.50303078 3.687887 9595475
5.2544522 -0.61481547 4.5074177 9660750
5.2987604 -0.61481547 4.5074177 10054221
4.3716011 -0.50303078 3.687887 9659978
4.0405321 -0.46111158 3.380563 9726030
4.0737634 -0.46111158 3.380563 9791569
4.4803576 -0.50303078 3.687887 10251350
4.5166097 -0.50303078 3.687887 9856848
0 0 0 10052941
0 0 0 9857101
0 0 0 9725514
0 0 0 9856845
0 0 0 9922128
0 0 0 10118737
0 0 0 9987151
0 0 0 10316618
0 0 0 10646612
-4.8415465 -0.51345658 4.0566759 11302228
-4.8016691 -0.51345658 4.0566759 11565915
-5.2908797 -0.57050735 4.5074177 11763548
-5.2465715 -0.57050735 4.5074177 11697754
-5.2022634 -0.57050735 4.5074177 12026718
-5.1579552 -0.57050735 4.5074177 11961182
-5.1136475 -0.57050735 4.5074177 11829854
-5.0693393 -0.57050735 4.5074177 12025178
-5.0250311 -0.57050735 4.5074177 12354400
-4.9807229 -0.57050735 4.5074177 12157791
-4.4427733 -0.51345658 4.0566759 12289377
-4.4028959 -0.51345658 4.0566759 12288862
-4.3630185 -0.51345658 4.0566759 12419934
-4.3231416 -0.51345658 4.0566759 12813406
-4.2832642 -0.51345658 4.0566759 12617053
-4.7148743 -0.57050735 4.5074177 12617310
-4.2035093 -0.51345658 4.0566759 12485978
-4.1636324 -0.51345658 4.0566759 11695693
-4.123755 -0.51345658 4.0566759 9790787
-4.5376415 -0.57050735 4.5074177 9723969
-4.4933338 -0.57050735 4.5074177 9198139
-4.4490256 -0.57050735 4.5074177 8803899
-4.4047174 -0.57050735 4.5074177 8935998
-4.3604093 -0.57050735 4.5074177 9133375
-4.3161011 -0.57050735 4.5074177 8738874
-3.8446138 -0.51345658 4.0566759 8738877
-4.2274847 -0.57050735 4.5074177 9001791
-4.183177 -0.57050735 4.5074177 9133377
-4.6562271 -0.64182073 5.0708447 9527874
-4.6063805 -0.64182073 5.0708447 10644043
-4.5565338 -0.64182073 5.0708447 11301712
-4.5066872 -0.64182073 5.0708447 11695951
-4.4568405 -0.64182073 5.0708447 11893072
-4.4069939 -0.64182073 5.0708447 11695695
-4.3571472 -0.64182073 5.0708447 11499091
-5.7430673 -0.85576093 6.761126 11697492
-5.6766052 -0.85576093 6.761126 11695950
-6.732172 -1.0269132 8.1133518 11695696
-5.5436807 -0.85576093 6.761126 11761491
-6.5726628 -1.0269132 8.1133518 11826770
-6.4929085 -1.0269132 8.1133518 12089683
-6.4131536 -1.0269132 8.1133518 11696980
-5.277832 -0.85576093 6.761126 11958613
-4.4668884 -0.73350936 5.7952509 11958867
-4.4099212 -0.73350936 5.7952509 11828309
-4.3529534 -0.73350936 5.7952509 12156503
-5.0119834 -0.85576093 6.761126 12156496
-5.9346261 -1.0269132 8.1133518 12222289
-5.8548713 -1.0269132 8.1133518 12024914
-5.7751169 -1.0269132 8.1133518 11893844
-3.5596011 -0.64182073 5.0708447 12090709
-2.5525486 -0.4667787 3.687887 12418389
-2.5162966 -0.4667787 3.687887 12222805
-3.0311658 -0.57050735 4.5074177 12550229
-3.3602147 -0.64182073 5.0708447 12549971
-3.3103681 -0.64182073 5.0708447 12485465
-3.72631 -0.73350936 5.7952509 12681818
-3.6693425 -0.73350936 5.7952509 12682074
-3.612375 -0.73350936 5.7952509 12419416
-3.1109815 -0.64182073 5.0708447 12748122
-3.0611348 -0.64182073 5.0708447 12485977
-3.0112882 -0.64182073 5.0708447 12747352
-2.6323926 -0.57050735 4.5074177 12814169
-2.5880845 -0.57050735 4.5074177 12814169
-2.5437765 -0.57050735 4.5074177 12813397
-2.2495215 -0.51345658 4.0566759 13009498
-2.2096441 -0.51345658 4.0566759 13272924
-2.1697669 -0.51345658 4.0566759 13536089
-2.366544 -0.57050735 4.5074177 13536345
-2.3222358 -0.57050735 4.5074177 13471325
-2.2779276 -0.57050735 4.5074177 13602910
-2.2336197 -0.57050735 4.5074177 13733725
-2.1893115 -0.57050735 4.5074177 13865056
-2.1450033 -0.57050735 4.5074177 13667674
-2.363282 -0.64182073 5.0708447 13930845
-2.3134353 -0.64182073 5.0708447 13996381
-2.2635887 -0.64182073 5.0708447 13995870
-2.2137423 -0.64182073 5.0708447 14455906
-2.1638956 -0.64182073 5.0708447 14653024
-2.4160559 -0.73350936 5.7952509 14915169
-2.0642023 -0.64182073 5.0708447 14389853
-2.0143557 -0.64182073 5.0708447 14259806
-1.964509 -0.64182073 5.0708447 14588000
-2.5528831 -0.85576093 6.761126 14588257
-2.4864209 -0.85576093 6.761126 14850659
-2.9039507 -1.0269132 8.1133518 14980962
-2.8241961 -1.0269132 8.1133518 14849887
-2.7444415 -1.0269132 8.1133518 14850141
-1.9033476 -0.73350936 5.7952509 15048035
-1.6155826 -0.64182073 5.0708447 14589029
-1.5657359 -0.64182073 5.0708447 14784866
-1.5158893 -0.64182073 5.0708447 14653028
-1.4660426 -0.64182073 5.0708447 14653282
-1.6185098 -0.73350936 5.7952509 14586721
-1.5615422 -0.73350936 5.7952509 13930845
-1.5045745 -0.73350936 5.7952509 11566935
-2.02665 -1.0269132 8.1133518 9399900
-2.433619 -1.2836415 10.141689 9072477
-2.3339257 -1.2836415 10.141689 8940893
-2.2342327 -1.2836415 10.141689 8941151
-2.1345394 -1.2836415 10.141689 8743260
0 0 0 9006431
-0.25802037 -0.17115219 1.3522252 8874076
-0.17906922 -0.12523331 0.98943311 8940639
-0.15429033 -0.11410146 0.90148348 8809051
-0.13924025 -0.10924608 0.86312246 9400672
-0.13359824 -0.11162099 0.88188601 10646614
-0.12770545 -0.11410146 0.90148348 11828056
-0.11884384 -0.11410146 0.90148348 11895902
-0.10759129 -0.11162099 0.88188601 12420188
-0.094800554 -0.10697012 0.84514076 12944729
-0.075484611 -0.093355738 0.73757738 8342315
-0.064704835 -0.088526994 0.69942683 3284251
-0.056849282 -0.087026544 0.68757218 3349019
-0.050090417 -0.087026544 0.68757218 3872793
-0.042609356 -0.085576095 0.67611259 3083281
-0.03596314 -0.085576095 0.67611259 2361099
-0.029316923 -0.085576095 0.67611259 1704967
-0.022670705 -0.085576095 0.67611259 1836556
-0.016024489 -0.085576095 0.67611259 2493453
-0.0093782712 -0.085576095 0.67611259 3019282
-0.0027783602 -0.087026544 0.68757218 2821903
0.0040491344 -0.088526994 0.69942683 2362894
0.010924532 -0.088526994 0.69942683 2033934
0.01843564 -0.09168867 0.72440636 2297104
0.026503129 -0.095084555 0.75123626 2362381
0.034527205 -0.096878596 0.76541048 2822932
0.043700293 -0.10067776 0.79542661 3873560
0 0 0 9656637
0 0 0 1180937
0 0 0 721673
0 0 0 852489
0 0 0 852743
0 0 0 852743
0 0 0 720905
0 0 0 1050122
0 0 0 917766
0 0 0 1247501
0 0 0 1444109
0 0 0 1444110
0.82364053 -0.57050735 4.5074177 1773075
0.86794865 -0.57050735 4.5074177 1181707
0.91225678 -0.57050735 4.5074177 2299159
1.0761355 -0.64182073 5.0708447 5913645
1.125982 -0.64182073 5.0708447 8015673
1.1758287 -0.64182073 5.0708447 9724486
1.2256753 -0.64182073 5.0708447 10119749
1.275522 -0.64182073 5.0708447 11828051
1.1781055 -0.57050735 4.5074177 12288088
0.84628636 -0.3949666 3.1205199 12813403
0.87696117 -0.3949666 3.1205199 13273439
0.98327231 -0.42788047 3.380563 12748892
1.0165035 -0.42788047 3.380563 13011294
0.96898574 -0.3949666 3.1205199 13339486
0.92825621 -0.36675468 2.8976254 13470816
0.95674002 -0.36675468 2.8976254 13274978
1.1494278 -0.42788047 3.380563 13865833
1.2901733 -0.4667787 3.687887 13472356
1.2158899 -0.42788047 3.380563 13865056
1.1530348 -0.3949666 3.1205199 13865059
0.9617641 -0.32091036 2.5354223 13930849
0.98668742 -0.32091036 2.5354223 14193509
1.0116107 -0.32091036 2.5354223 13865059
1.0365341 -0.32091036 2.5354223 14061665
1.0614574 -0.32091036 2.5354223 13865059
1.0863807 -0.32091036 2.5354223 14193508
1.111304 -0.32091036 2.5354223 14061408
1.1362273 -0.32091036 2.5354223 13997415
1.1611506 -0.32091036 2.5354223 14193506
1.4597833 -0.3949666 3.1205199 13733470
1.614663 -0.42788047 3.380563 13865571
1.7977026 -0.4667787 3.687887 13931106
1.8339547 -0.4667787 3.687887 13799781
2.0572276 -0.51345658 4.0566759 13865827
2.097105 -0.51345658 4.0566759 13668452
2.1369822 -0.51345658 4.0566759 13603431
2.4187329 -0.57050735 4.5074177 13405024
2.4630408 -0.57050735 4.5074177 13601887
1.8805116 -0.42788047 3.380563 13470559
1.7665318 -0.3949666 3.1205199 13601630
1.6688347 -0.36675468 2.8976254 13536094
1.6973186 -0.36675468 2.8976254 13207131
0 0 0 13339487
0 0 0 13273691
1.5599236 -0.32091036 2.5354223 12878425
1.334608 -0.27024031 2.1350925 2822158
1.2878163 -0.25672829 2.028338 1181709
1.3765841 -0.27024031 2.1350925 1050638
1.3975722 -0.27024031 2.1350925 1050638
1.4185603 -0.27024031 2.1350925 1115918
1.3675709 -0.25672829 2.028338 985358
1.3875096 -0.25672829 2.028338 919565
1.3404268 -0.24450313 1.9317503 1115663
1.359416 -0.24450313 1.9317503 787981
1.2585438 -0.22324198 1.763772 985359
1.3338765 -0.23338935 1.8439435 853772
1.4163835 -0.24450313 1.9317503 984847
1.6746017 -0.28525367 2.2537088 984076
1.4543619 -0.24450313 1.9317503 1049868
1.4063807 -0.23338935 1.8439435 984845
1.3625716 -0.22324198 1.763772 1115918
1.3799095 -0.22324198 1.763772 919052
1.3972476 -0.22324198 1.763772 853259
1.4145855 -0.22324198 1.763772 919567
1.4319234 -0.22324198 1.763772 1116433
1.4492614 -0.22324198 1.763772 1050640
1.4665993 -0.22324198 1.763772 1049870
1.6252646 -0.24450313 1.9317503 984592
1.6442538 -0.24450313 1.9317503 1181454
1.7464054 -0.25672829 2.028338 985360
1.766344 -0.25672829 2.028338 1115405
1.7862827 -0.25672829 2.028338 984075
1.7202107 -0.24450313 1.9317503 853259
1.7391998 -0.24450313 1.9317503 853260
1.5384154 -0.21394023 1.6902815 787468
1.4354132 -0.1974833 1.5602599 786696
1.4507507 -0.1974833 1.5602599 787466
1.4117885 -0.19016911 1.5024725 918282
1.4265579 -0.19016911 1.5024725 918282
1.4413272 -0.19016911 1.5024725 721673
1.4560966 -0.19016911 1.5024725 852489
1.5274378 -0.1974833 1.5602599 2495510
1.6044862 -0.20538263 1.6226703 8871753
1.6204371 -0.20538263 1.6226703 10251341
1.7786826 -0.22324198 1.763772 10513745
1.7960205 -0.22324198 1.763772 10513489
1.8133585 -0.22324198 1.763772 10185808
1.8306965 -0.22324198 1.763772 10317394
1.8480344 -0.22324198 1.763772 10382414
2.0430269 -0.24450313 1.9317503 10251083
2.2790704 -0.27024031 2.1350925 10185549
2.3000586 -0.27024031 2.1350925 10119503
4.0090804 -0.4667787 3.687887 10316370
4.0453324 -0.4667787 3.687887 10185040
4.0815845 -0.4667787 3.687887 10119504
4.1178365 -0.4667787 3.687887 10184782
3.8079147 -0.42788047 3.380563 10054479
3.8411458 -0.42788047 3.380563 10315853
4.226593 -0.4667787 3.687887 9988690
4.262845 -0.4667787 3.687887 9857105
4.7290072 -0.51345658 4.0566759 9857101
4.7688847 -0.51345658 4.0566759 10184780
4.8087616 -0.51345658 4.0566759 9923150
5.3873768 -0.57050735 4.5074177 9725772
4.8885164 -0.51345658 4.0566759 9791310
5.4759932 -0.57050735 4.5074177 9857105
5.5203009 -0.57050735 4.5074177 9791569
0 0 0 9725776
0 0 0 9726289
0 0 0 9594703
0 0 0 9660494
0 0 0 9923408
0 0 0 9659981
0 0 0 9791569
0 0 0 10381641
0 0 0 10251343
-4.8415465 -0.47357929 4.0566759 11040343
-5.3351879 -0.52619922 4.5074177 11499611
-5.2908797 -0.52619922 4.5074177 11893592
-5.2465715 -0.52619922 4.5074177 12025432
-5.2022634 -0.52619922 4.5074177 12288861
-5.1579552 -0.52619922 4.5074177 11894105
-5.1136475 -0.52619922 4.5074177 11960414
-5.0693393 -0.52619922 4.5074177 11829854
-5.0250311 -0.52619922 4.5074177 11895134
-4.9807229 -0.52619922 4.5074177 12158304
-4.9364147 -0.52619922 4.5074177 12027486
-4.8921065 -0.52619922 4.5074177 12550750
-4.8477983 -0.52619922 4.5074177 12354400
-4.3231416 -0.47357929 4.0566759 12354652
-4.2832642 -0.47357929 4.0566759 12682590
-4.7148743 -0.52619922 4.5074177 12485724
-4.2035093 -0.47357929 4.0566759 12355163
-4.1636324 -0.47357929 4.0566759 11696208
-4.123755 -0.47357929 4.0566759 9986624
-4.0838776 -0.47357929 4.0566759 9198911
-4.0440001 -0.47357929 4.0566759 8738361
-4.4490256 -0.52619922 4.5074177 8869947
-4.4047174 -0.52619922 4.5074177 8606777
-4.3604093 -0.52619922 4.5074177 8541755
-4.3161011 -0.52619922 4.5074177 8607549
-3.8446138 -0.47357929 4.0566759 8542269
-3.8047364 -0.47357929 4.0566759 8411453
-4.183177 -0.52619922 4.5074177 9002305
-4.1388688 -0.52619922 4.5074177 9133889
-4.6063805 -0.59197408 5.0708447 9724483
-4.5565338 -0.59197408 5.0708447 10841934
-4.5066872 -0.59197408 5.0708447 11235920
-4.4568405 -0.59197408 5.0708447 11631445
-4.4069939 -0.59197408 5.0708447 11367757
-4.3571472 -0.59197408 5.0708447 11367501
-4.9226294 -0.67654181 5.7952509 11630415
-4.8656616 -0.67654181 5.7952509 11696206
-5.6101432 -0.78929877 6.761126 11499342
-5.5436807 -0.78929877 6.761126 11761486
-5.4772186 -0.78929877 6.761126 11695695
-4.6377912 -0.67654181 5.7952509 11958865
-4.5808239 -0.67654181 5.7952509 11761742
-5.277832 -0.78929877 6.761126 11958095
-4.4668884 -0.67654181 5.7952509 11696465
-5.144908 -0.78929877 6.761126 11695952
-5.0784454 -0.78929877 6.761126 12024915
-5.0119834 -0.78929877 6.761126 11892815
-4.9455214 -0.78929877 6.761126 12090194
-3.6592944 -0.59197408 5.0708447 11827535
-3.6094477 -0.59197408 5.0708447 11762256
-3.5596011 -0.59197408 5.0708447 12221266
-2.8078039 -0.47357929 4.0566759 12680787
-2.7679265 -0.47357929 4.0566759 12549717
-3.0311658 -0.52619922 4.5074177 12025427
-2.9868577 -0.52619922 4.5074177 12419414
-3.7832778 -0.67654181 5.7952509 12288087
-4.3473616 -0.78929877 6.761126 12484437
-5.1370797 -0.94715858 8.1133518 12419672
-5.0573254 -0.94715858 8.1133518 12615764
-3.1109815 -0.59197408 5.0708447 12747352
-3.0611348 -0.59197408 5.0708447 12747863
-3.0112882 -0.59197408 5.0708447 12682328
-2.3691535 -0.47357929 4.0566759 12747606
-2.3292761 -0.47357929 4.0566759 12813144
-2.2893987 -0.47357929 4.0566759 12879701
-2.2495215 -0.47357929 4.0566759 13207641
-2.2096441 -0.47357929 4.0566759 13076828
-2.1697669 -0.47357929 4.0566759 12945240
-2.366544 -0.52619922 4.5074177 13274464
-2.3222358 -0.52619922 4.5074177 13208666
-2.2779276 -0.52619922 4.5074177 13667677
-2.2336197 -0.52619922 4.5074177 13667934
-2.4629753 -0.59197408 5.0708447 13864802
-2.4131286 -0.59197408 5.0708447 14127200
-2.363282 -0.59197408 5.0708447 13799261
-2.3134353 -0.59197408 5.0708447 13930847
-2.2635887 -0.59197408 5.0708447 13930846
-2.2137423 -0.59197408 5.0708447 14127197
-2.1638956 -0.59197408 5.0708447 14520671
-2.4160559 -0.67654181 5.7952509 14390370
-2.3590882 -0.67654181 5.7952509 14587489
-2.3021207 -0.67654181 5.7952509 14260064
-2.2451532 -0.67654181 5.7952509 14456925
-2.5528831 -0.78929877 6.761126 14654050
-2.4864209 -0.78929877 6.761126 15046755
-2.4199588 -0.78929877 6.761126 14915169
-2.8241961 -0.94715858 8.1133518 14785122
-2.7444415 -0.94715858 8.1133518 14719073
-2.2205722 -0.78929877 6.761126 14719073
-1.6155826 -0.59197408 5.0708447 14457189
-1.5657359 -0.59197408 5.0708447 14915171
-1.5158893 -0.59197408 5.0708447 14455903
-1.6754773 -0.67654181 5.7952509 14586976
-1.6185098 -0.67654181 5.7952509 14652771
-1.5615422 -0.67654181 5.7952509 14389085
-1.755337 -0.78929877 6.761126 11763286
-2.5333123 -1.1839482 10.141689 9465952
-2.433619 -1.1839482 10.141689 9269087
-2.3339257 -1.1839482 10.141689 9005915
-2.2342327 -1.1839482 10.141689 9071454
-1.2197367 -0.67654181 5.7952509 8809823
-0.90437603 -0.52619922 4.5074177 9136991
-0.25802037 -0.15785976 1.3522252 9005662
-0.20393996 -0.13154981 1.1268544 9071709
-0.16934305 -0.11550714 0.98943311 9333857
-0.15961687 -0.11550714 0.98943311 10254950
-0.13656709 -0.10523984 0.90148348 10516059
-0.12770545 -0.10523984 0.90148348 11435351
-0.11884384 -0.10523984 0.90148348 12354393
-0.10998221 -0.10523984 0.90148348 12747613
-0.09892232 -0.10295202 0.88188601 12879449
-0.081404977 -0.09285868 0.79542661 13272924
-0.065840013 -0.083084084 0.71169752 3411731
-0.05782944 -0.081651598 0.69942683 2428690
-0.050090417 -0.080267675 0.68757218 3216662
-0.043331552 -0.080267675 0.68757218 2888468
-0.03596314 -0.078929879 0.67611259 2888728
-0.029316923 -0.078929879 0.67611259 2429462
-0.022670705 -0.078929879 0.67611259 2691605
-0.016024489 -0.078929879 0.67611259 3478803
-0.0095372256 -0.080267675 0.68757218 3085072
-0.0028262627 -0.081651598 0.69942683 2034445
0.0040491344 -0.081651598 0.69942683 1706252
0.010924532 -0.081651598 0.69942683 1443339
0.01843564 -0.084567726 0.72440636 1706250
0.026503129 -0.087699868 0.75123626 2034702
0.033887815 -0.087699868 0.75123626 3478548
0.042859904 -0.091072939 0.78012997 4398105
0 0 0 7949367
0 0 0 1443082
0 0 0 1049868
0 0 0 1379087
0 0 0 2430745
0 0 0 3086872
0 0 0 3940382
0 0 0 4268316
0 0 0 4531742
0 0 0 3809050
0 0 0 3874843
0 0 0 5188900
0.82364053 -0.52619922 4.5074177 3740429
0.86794865 -0.52619922 4.5074177 1378316
0.91225678 -0.52619922 4.5074177 1641231
1.0761355 -0.59197408 5.0708447 1575693
1.125982 -0.59197408 5.0708447 1378314
1.1758287 -0.59197408 5.0708447 6571323
1.2256753 -0.59197408 5.0708447 9725513
1.275522 -0.59197408 5.0708447 10513740
1.3253686 -0.59197408 5.0708447 12024917
1.1001723 -0.47357929 4.0566759 12813147
0.87696117 -0.36429176 3.1205199 12681818
0.84280485 -0.3382709 2.8976254 12945759
1.0165035 -0.39464939 3.380563 12945246
1.5746018 -0.59197408 5.0708447 13207646
1.0829656 -0.39464939 3.380563 13470815
1.1161966 -0.39464939 3.380563 13470558
1.2539212 -0.43052661 3.687887 13536612
1.4191908 -0.47357929 4.0566759 14062181
1.12236 -0.36429176 3.1205199 13930595
1.1530348 -0.36429176 3.1205199 14128228
1.1837097 -0.36429176 3.1205199 13930853
1.0524665 -0.31571952 2.7044504 13735015
1.0790514 -0.31571952 2.7044504 13734501
1.0365341 -0.29598704 2.5354223 13996899
1.0614574 -0.29598704 2.5354223 13800290
1.0863807 -0.29598704 2.5354223 13799265
1.111304 -0.29598704 2.5354223 13931367
1.1362273 -0.29598704 2.5354223 13668452
1.3270292 -0.3382709 2.8976254 13799266
1.4597833 -0.36429176 3.1205199 13996131
1.4904583 -0.36429176 3.1205199 13800292
1.647894 -0.39464939 3.380563 13864544
1.8339547 -0.43052661 3.687887 13930851
2.0572276 -0.47357929 4.0566759 13733473
1.7475873 -0.39464939 3.380563 13799523
1.7808183 -0.39464939 3.380563 13733216
1.8140495 -0.39464939 3.380563 13668192
2.2167368 -0.47357929 4.0566759 13340770
1.8805116 -0.39464939 3.380563 13733217
1.9137428 -0.39464939 3.380563 13405280
1.7972068 -0.36429176 3.1205199 13404256
1.4851537 -0.29598704 2.5354223 13470304
1.7258023 -0.3382709 2.8976254 13077346
1.5350003 -0.29598704 2.5354223 12879454
1.3865988 -0.26309961 2.2537088 12683610
1.4087529 -0.26309961 2.2537088 1969678
1.2878163 -0.23678964 2.028338 985358
1.307755 -0.23678964 2.028338 1116432
1.3276936 -0.23678964 2.028338 1247505
1.3476323 -0.23678964 2.028338 1116433
1.3675709 -0.23678964 2.028338 1116178
1.3214376 -0.22551394 1.9317503 1050639
1.3404268 -0.22551394 1.9317503 1181454
1.359416 -0.22551394 1.9317503 1115661
1.3784052 -0.22551394 1.9317503 853772
1.3338765 -0.21526331 1.8439435 853259
1.3520025 -0.21526331 1.8439435 919052
1.4353727 -0.22551394 1.9317503 985103
1.4543619 -0.22551394 1.9317503 853259
1.4063807 -0.21526331 1.8439435 919567
1.3625716 -0.20590404 1.763772 853261
1.3799095 -0.20590404 1.763772 919311
1.3972476 -0.20590404 1.763772 656396
1.4145855 -0.20590404 1.763772 984848
1.37226 -0.19732469 1.6902815 1049868
1.4492614 -0.20590404 1.763772 919054
1.405491 -0.19732469 1.6902815 787981
1.551389 -0.21526331 1.8439435 919053
1.5695151 -0.21526331 1.8439435 919052
1.6632431 -0.22551394 1.9317503 919567
1.6057671 -0.21526331 1.8439435 787468
1.7012215 -0.22551394 1.9317503 787981
1.6420193 -0.21526331 1.8439435 722188
1.5217998 -0.19732469 1.6902815 656395
1.5384154 -0.19732469 1.6902815 721675
1.4354132 -0.18214588 1.5602599 787466
1.4507507 -0.18214588 1.5602599 786953
1.4660881 -0.18214588 1.5602599 721931
1.4265579 -0.17539974 1.5024725 721674
1.4413272 -0.17539974 1.5024725 655882
1.4040931 -0.16913545 1.4488127 655369
1.470866 -0.17539974 1.5024725 2495505
1.5427752 -0.18214588 1.5602599 9003332
1.6204371 -0.18943171 1.6226703 10185802
1.6363881 -0.18943171 1.6226703 10513487
1.652339 -0.18943171 1.6226703 10644559
1.8133585 -0.20590404 1.763772 10448465
1.8306965 -0.20590404 1.763772 10185037
1.7710329 -0.19732469 1.6902815 10184780
1.2258161 -0.13530837 1.1590502 10185550
1.2735982 -0.13928802 1.1931399 9988427
1.3242761 -0.14350887 1.2292956 10251089
1.3781214 -0.14799352 1.2677112 10053966
1.4354405 -0.15276751 1.3086051 10185552
1.4030447 -0.14799352 1.2677112 10120016
1.561938 -0.1633032 1.3988537 9922894
3.8079147 -0.39464939 3.380563 9988686
3.8411458 -0.39464939 3.380563 9988173
5.1658363 -0.52619922 4.5074177 9857616
0 0 0 9726543
0 0 0 9725776
5.2987604 -0.52619922 4.5074177 10053968
5.3430686 -0.52619922 4.5074177 9791823
5.3873768 -0.52619922 4.5074177 9857616
5.431685 -0.52619922 4.5074177 9923153
6.1604919 -0.59197408 5.0708447 9857360
6.2103386 -0.59197408 5.0708447 9791822
0 0 0 9856848
0 0 0 9856848
0 0 0 9396555
0 0 0 9922898
0 0 0 9856848
0 0 0 9987921
0 0 0 10119761
0 0 0 10250572
0 0 0 10316367
-5.3794961 -0.4818911 4.5074177 10909526
-5.3351879 -0.4818911 4.5074177 11041111
-5.9522395 -0.54212749 5.0708447 11500120
-5.2465715 -0.4818911 4.5074177 11697241
-5.8525462 -0.54212749 5.0708447 11632987
-5.1579552 -0.4818911 4.5074177 11765088
-5.1136475 -0.4818911 4.5074177 11763548
-5.0693393 -0.4818911 4.5074177 11960414
-5.0250311 -0.4818911 4.5074177 12026205
-4.9807229 -0.4818911 4.5074177 11698525
-4.9364147 -0.4818911 4.5074177 12222814
-4.8921065 -0.4818911 4.5074177 11894619
-4.8477983 -0.4818911 4.5074177 12354398
-4.8034906 -0.4818911 4.5074177 12354398
-4.7591825 -0.4818911 4.5074177 12289118
-4.2433867 -0.43370199 4.0566759 12420190
-4.2035093 -0.43370199 4.0566759 12354394
-4.1636324 -0.43370199 4.0566759 11762257
-4.123755 -0.43370199 4.0566759 9986881
-4.0838776 -0.43370199 4.0566759 9132861
-4.0440001 -0.43370199 4.0566759 8869947
-4.0041227 -0.43370199 4.0566759 8542011
-4.4047174 -0.4818911 4.5074177 8673344
-4.3604093 -0.4818911 4.5074177 8409656
-4.3161011 -0.4818911 4.5074177 8672574
-3.8446138 -0.43370199 4.0566759 8672574
-3.8047364 -0.43370199 4.0566759 8541242
-4.183177 -0.4818911 4.5074177 8542269
-4.1388688 -0.4818911 4.5074177 8870205
-4.0945606 -0.4818911 4.5074177 9330756
-4.5565338 -0.54212749 5.0708447 10052934
-4.5066872 -0.54212749 5.0708447 10710347
-4.4568405 -0.54212749 5.0708447 11170381
-4.4069939 -0.54212749 5.0708447 11433550
-4.3571472 -0.54212749 5.0708447 11564109
-4.3073006 -0.54212749 5.0708447 11367757
-4.8656616 -0.61957425 5.7952509 11171404
-5.6101432 -0.72283661 6.761126 11434064
-4.1577606 -0.54212749 5.0708447 11498319
-4.107914 -0.54212749 5.0708447 11563855
-4.0580673 -0.54212749 5.0708447 11367500
-4.0082207 -0.54212749 5.0708447 11564368
-4.5238562 -0.61957425 5.7952509 11695183
-4.4668884 -0.61957425 5.7952509 11565136
-4.4099212 -0.61957425 5.7952509 11827537
-5.0784454 -0.72283661 6.761126 11696464
-5.0119834 -0.72283661 6.761126 11696207
-3.709141 -0.54212749 5.0708447 11893072
-3.6592944 -0.54212749 5.0708447 12024401
-3.6094477 -0.54212749 5.0708447 11893074
-3.5596011 -0.54212749 5.0708447 12089681
-3.119782 -0.4818911 4.5074177 12025425
-2.7679265 -0.43370199 4.0566759 12025426
-3.0311658 -0.4818911 4.5074177 12222292
-2.9868577 -0.4818911 4.5074177 12419668
-3.7832778 -0.61957425 5.7952509 12485205
-3.72631 -0.61957425 5.7952509 12680789
-5.1370797 -0.86740398 8.1133518 12747608
-5.0573254 -0.86740398 8.1133518 12747350
-3.5554073 -0.61957425 5.7952509 12813143
-2.721009 -0.4818911 4.5074177 12813145
-2.6767008 -0.4818911 4.5074177 12813142
-2.6323926 -0.4818911 4.5074177 12747863
-2.3292761 -0.43370199 4.0566759 12878164
-2.2893987 -0.43370199 4.0566759 13010774
-2.2495215 -0.43370199 4.0566759 13076826
-2.2096441 -0.43370199 4.0566759 13075545
-2.4108522 -0.4818911 4.5074177 13272152
-2.366544 -0.4818911 4.5074177 13470299
-2.3222358 -0.4818911 4.5074177 13338458
-2.2779276 -0.4818911 4.5074177 13404507
-2.5128219 -0.54212749 5.0708447 13404505
-2.4629753 -0.54212749 5.0708447 13864032
-2.4131286 -0.54212749 5.0708447 13667677
-2.363282 -0.54212749 5.0708447 13864284
-2.0563872 -0.4818911 4.5074177 13930332
-2.012079 -0.4818911 4.5074177 13996125
-2.2137423 -0.54212749 5.0708447 14062431
-2.1638956 -0.54212749 5.0708447 13996896
-2.4160559 -0.61957425 5.7952509 14194019
-2.3590882 -0.61957425 5.7952509 14455902
-2.3021207 -0.61957425 5.7952509 14521694
-2.6193452 -0.72283661 6.761126 14325857
-2.5528831 -0.72283661 6.761126 14586974
-2.4864209 -0.72283661 6.761126 14521696
-2.4199588 -0.72283661 6.761126 14915939
-2.8241961 -0.86740398 8.1133518 14653796
-2.7444415 -0.86740398 8.1133518 14915680
-2.6646869 -0.86740398 8.1133518 14586974
-1.6155826 -0.54212749 5.0708447 14522212
-1.5657359 -0.54212749 5.0708447 14456673
-1.5158893 -0.54212749 5.0708447 14259810
-1.4660426 -0.54212749 5.0708447 14653794
-1.4161961 -0.54212749 5.0708447 14653026
-1.8217992 -0.72283661 6.761126 13996127
-1.755337 -0.72283661 6.761126 11500628
-2.02665 -0.86740398 8.1133518 9269344
-2.433619 -1.084255 10.141689 9466211
-2.3339257 -1.084255 10.141689 9203038
-1.2767043 -0.61957425 5.7952509 8875360
-1.0672697 -0.54212749 5.0708447 8874333
-0.38758972 -0.20652474 1.9317503 8809050
-0.2764504 -0.15489356 1.4488127 8743263
-0.22943243 -0.13553187 1.2677112 8743261
-0.18271224 -0.1141321 1.0675462 9203041
-0.15961687 -0.10578097 0.98943311 10779749
-0.14989071 -0.10578097 0.98943311 11105882
-0.12770545 -0.096378215 0.90148348 11567455
-0.11884384 -0.096378215 0.90148348 12353625
-0.10998221 -0.096378215 0.90148348 12550750
-0.10112059 -0.096378215 0.90148348 12880996
-0.092258967 -0.096378215 0.90148348 13339233
-0.069497794 -0.08031518 0.75123626 10448455
-0.05782944 -0.074776202 0.69942683 2165779
-0.050954044 -0.074776202 0.69942683 2363925
-0.043331552 -0.073508814 0.68757218 3283224
-0.03596314 -0.072283663 0.67611259 3217434
-0.029316923 -0.072283663 0.67611259 2625810
-0.022670705 -0.072283663 0.67611259 2297618
-0.016296091 -0.073508814 0.68757218 2297101
-0.0095372256 -0.073508814 0.68757218 2757136
-0.0028262627 -0.074776202 0.69942683 2100494
0.0040491344 -0.074776202 0.69942683 1640716
0.010924532 -0.074776202 0.69942683 1114888
0.01843564 -0.077446781 0.72440636 1706252
0.025556589 -0.077446781 0.72440636 2493967
0.033887815 -0.08031518 0.75123626 3413525
0.042859904 -0.083404228 0.78012997 4332566
0.052549761 -0.086740397 0.81133515 5055256
0 0 0 4991008
0 0 0 5385250
0 0 0 6107172
0 0 0 6107426
0 0 0 5581598
0 0 0 5450784
0 0 0 4596763
0 0 0 5515807
0 0 0 4924699
0 0 0 5121565
1.0019988 -0.61957425 5.7952509 5910304
0.82364053 -0.4818911 4.5074177 3938064
0.86794865 -0.4818911 4.5074177 1313293
1.0262889 -0.54212749 5.0708447 1444109
1.0761355 -0.54212749 5.0708447 1313293
1.125982 -0.54212749 5.0708447 1378316
1.1758287 -0.54212749 5.0708447 5783865
1.2256753 -0.54212749 5.0708447 9397578
1.4577394 -0.61957425 5.7952509 9988682
1.514707 -0.61957425 5.7952509 10841931
1.5716746 -0.61957425 5.7952509 12287317
1.6286421 -0.61957425 5.7952509 12550488
0.84280485 -0.30978712 2.8976254 12748120
1.5247551 -0.54212749 5.0708447 12813658
1.5746018 -0.54212749 5.0708447 13142623
1.6244484 -0.54212749 5.0708447 13142620
1.2176691 -0.3942745 3.687887 13406049
1.1494278 -0.36141831 3.380563 13602914
1.0916852 -0.33361691 3.1205199 13733216
1.0421914 -0.30978712 2.8976254 13536864
1.1530348 -0.33361691 3.1205199 13603170
1.1837097 -0.33361691 3.1205199 14193506
1.3155832 -0.36141831 3.380563 13931110
1.2450594 -0.33361691 3.1205199 13799522
1.2757342 -0.33361691 3.1205199 13472354
1.3064091 -0.33361691 3.1205199 13799266
1.9313436 -0.4818911 4.5074177 13799266
1.1853908 -0.28913465 2.7044504 13865058
1.2119757 -0.28913465 2.7044504 13864804
1.2385606 -0.28913465 2.7044504 13667423
1.4597833 -0.33361691 3.1205199 13602911
1.4904583 -0.33361691 3.1205199 13930078
1.5211331 -0.33361691 3.1205199 13667680
1.8339547 -0.3942745 3.687887 13667933
1.8702068 -0.3942745 3.687887 13799264
1.7475873 -0.36141831 3.380563 13667166
1.6438324 -0.33361691 3.1205199 13930083
1.8140495 -0.36141831 3.380563 13405023
1.8472806 -0.36141831 3.380563 13601887
1.8805116 -0.36141831 3.380563 12946528
1.7665318 -0.33361691 3.1205199 13077343
1.7972068 -0.33361691 3.1205199 13207899
1.4851537 -0.27106375 2.5354223 13076829
1.510077 -0.27106375 2.5354223 12944988
1.5350003 -0.27106375 2.5354223 12814428
1.3865988 -0.24094555 2.2537088 12616277
1.4087529 -0.24094555 2.2537088 1969939
1.3555961 -0.2282642 2.1350925 1049868
1.3765841 -0.2282642 2.1350925 1181710
1.3276936 -0.216851 2.028338 1115663
1.3476323 -0.216851 2.028338 1050125
1.3675709 -0.216851 2.028338 919052
1.3214376 -0.20652474 1.9317503 985102
1.3404268 -0.20652474 1.9317503 919054
1.359416 -0.20652474 1.9317503 919054
1.3784052 -0.20652474 1.9317503 1050126
1.3338765 -0.19713725 1.8439435 787981
1.3520025 -0.19713725 1.8439435 787722
1.3701285 -0.19713725 1.8439435 787981
1.3882545 -0.19713725 1.8439435 787468
1.4063807 -0.19713725 1.8439435 655884
1.3625716 -0.18856607 1.763772 787979
1.3799095 -0.18856607 1.763772 984845
1.3972476 -0.18856607 1.763772 985103
1.4145855 -0.18856607 1.763772 853003
1.4319234 -0.18856607 1.763772 919567
1.4492614 -0.18856607 1.763772 918539
1.533263 -0.19713725 1.8439435 853517
1.551389 -0.19713725 1.8439435 853517
1.5695151 -0.19713725 1.8439435 919311
1.5876411 -0.19713725 1.8439435 721676
1.6057671 -0.19713725 1.8439435 721673
1.6238931 -0.19713725 1.8439435 721675
1.5706271 -0.18856607 1.763772 787466
1.5217998 -0.18070915 1.6902815 918282
1.4768788 -0.17348079 1.6226703 918282
1.4928297 -0.17348079 1.6226703 852743
1.5087806 -0.17348079 1.6226703 655880
1.5247315 -0.17348079 1.6226703 590602
1.5406824 -0.17348079 1.6226703 787468
1.5566334 -0.17348079 1.6226703 787468
1.4560966 -0.16063036 1.5024725 655882
1.5274378 -0.16680846 1.5602599 2297609
1.4856354 -0.16063036 1.5024725 8740414
1.6204371 -0.17348079 1.6226703 10316105
1.5734501 -0.16680846 1.5602599 10054478
1.5887874 -0.16680846 1.5602599 9988428
1.5447129 -0.16063036 1.5024725 10054479
1.6194624 -0.16680846 1.5602599 10185550
1.5180283 -0.15489356 1.4488127 10119245
1.2258161 -0.12391485 1.1590502 9988686
1.2735982 -0.12755941 1.1931399 10054479
1.2853268 -0.12755941 1.1931399 9857614
1.3363601 -0.13142483 1.2292956 9791821
1.390583 -0.13553187 1.2677112 9988686
1.4030447 -0.13553187 1.2677112 9922893
1.561938 -0.1495524 1.3988537 9791564
1.9039574 -0.18070915 1.6902815 9857871
2.1949403 -0.20652474 1.9317503 9923921
3.8743768 -0.36141831 3.380563 9922639
3.907608 -0.36141831 3.380563 9857104
4.7290072 -0.43370199 4.0566759 9857361
4.7688847 -0.43370199 4.0566759 10184013
5.3430686 -0.4818911 4.5074177 9856587
5.3873768 -0.4818911 4.5074177 9790794
5.431685 -0.4818911 4.5074177 9857614
0 0 0 9792078
0 0 0 9791567
0 0 0 9725262
0 0 0 9791055
0 0 0 9922641
0 0 0 9659469
0 0 0 9791055
0 0 0 9725519
0 0 0 9988690
0 0 0 9988684
0 0 0 10250575
-5.3794961 -0.437583 4.5074177 10907733
-5.3351879 -0.437583 4.5074177 11368537
-6.8025594 -0.56260663 5.7952509 11499866
-6.7455916 -0.56260663 5.7952509 11894109
-6.6886239 -0.56260663 5.7952509 12025437
-5.8026996 -0.49228084 5.0708447 12092000
-5.1136475 -0.437583 4.5074177 12091228
-5.0693393 -0.437583 4.5074177 12025436
-5.0250311 -0.437583 4.5074177 12222557
-4.9807229 -0.437583 4.5074177 12157019
-4.9364147 -0.437583 4.5074177 11828568
-4.8921065 -0.437583 4.5074177 12026718
-4.8477983 -0.437583 4.5074177 12223069
-4.8034906 -0.437583 4.5074177 12223067
-4.2832642 -0.3938247 4.0566759 12157532
-4.2433867 -0.3938247 4.0566759 12092252
-4.2035093 -0.3938247 4.0566759 12223321
-4.1636324 -0.3938247 4.0566759 11630672
-4.123755 -0.3938247 4.0566759 9723966
-4.0838776 -0.3938247 4.0566759 9133117
-4.0440001 -0.3938247 4.0566759 8344118
-4.0041227 -0.3938247 4.0566759 8541758
-3.9642456 -0.3938247 4.0566759 8672572
-4.3604093 -0.437583 4.5074177 8606522
-4.3161011 -0.437583 4.5074177 8016188
-4.2717929 -0.437583 4.5074177 8212795
-4.2274847 -0.437583 4.5074177 8344120
-4.183177 -0.437583 4.5074177 8607036
-4.1388688 -0.437583 4.5074177 8935998
-4.0945606 -0.437583 4.5074177 8804410
-4.0502524 -0.437583 4.5074177 9133634
-4.5066872 -0.49228084 5.0708447 10184265
-5.0935321 -0.56260663 5.7952509 10906955
-5.0365644 -0.56260663 5.7952509 11038540
-4.3571472 -0.49228084 5.0708447 10841161
-4.3073006 -0.49228084 5.0708447 11170126
-4.2574539 -0.49228084 5.0708447 11433041
-4.2076073 -0.49228084 5.0708447 11301709
-4.1577606 -0.49228084 5.0708447 11301709
-4.107914 -0.49228084 5.0708447 11367500
-4.0580673 -0.49228084 5.0708447 11366988
-4.0082207 -0.49228084 5.0708447 11629646
-3.9583743 -0.49228084 5.0708447 11761233
-3.9085276 -0.49228084 5.0708447 11760975
-4.4099212 -0.56260663 5.7952509 12023888
-4.3529534 -0.56260663 5.7952509 11893073
-4.2959857 -0.56260663 5.7952509 11958865
-4.2390184 -0.56260663 5.7952509 11827279
-3.6592944 -0.49228084 5.0708447 11696464
-3.6094477 -0.49228084 5.0708447 11827281
-3.5596011 -0.49228084 5.0708447 11827279
-3.119782 -0.437583 4.5074177 11893842
-3.0754738 -0.437583 4.5074177 12222807
-3.0311658 -0.437583 4.5074177 12287829
-2.9868577 -0.437583 4.5074177 12353110
-3.7832778 -0.56260663 5.7952509 12419416
-4.3473616 -0.65637445 6.761126 12222550
-4.2808995 -0.65637445 6.761126 12287059
-4.2144375 -0.65637445 6.761126 12353878
-4.1479754 -0.65637445 6.761126 12551254
-4.0815129 -0.65637445 6.761126 12485206
-2.4090307 -0.3938247 4.0566759 12551002
-2.3691535 -0.3938247 4.0566759 12616023
-2.3292761 -0.3938247 4.0566759 12748379
-2.5437765 -0.437583 4.5074177 12878936
-2.4994683 -0.437583 4.5074177 13075799
-2.4551601 -0.437583 4.5074177 12944729
-2.4108522 -0.437583 4.5074177 12944985
-2.366544 -0.437583 4.5074177 13600860
-2.3222358 -0.437583 4.5074177 13272919
-2.5626686 -0.49228084 5.0708447 13273945
-2.5128219 -0.49228084 5.0708447 13471581
-2.4629753 -0.49228084 5.0708447 13404508
-2.1450033 -0.437583 4.5074177 13536092
-2.363282 -0.49228084 5.0708447 13930333
-2.3134353 -0.49228084 5.0708447 13864796
-2.012079 -0.437583 4.5074177 13930333
-1.9677709 -0.437583 4.5074177 13733211
-2.1638956 -0.49228084 5.0708447 13799259
-2.4160559 -0.56260663 5.7952509 14259294
-3.3027239 -0.78764939 8.1133518 14454619
-2.6858075 -0.65637445 6.761126 14258783
-2.6193452 -0.65637445 6.761126 14128478
-2.5528831 -0.65637445 6.761126 14194528
-2.4864209 -0.65637445 6.761126 14587489
-2.4199588 -0.65637445 6.761126 14456414
-2.3534966 -0.65637445 6.761126 14390109
-2.7444415 -0.78764939 8.1133518 14457186
-2.6646869 -0.78764939 8.1133518 14653280
-1.84638 -0.56260663 5.7952509 14522212
-1.5657359 -0.49228084 5.0708447 14719073
-1.5158893 -0.49228084 5.0708447 14390878
-1.4660426 -0.49228084 5.0708447 14258522
-1.4161961 -0.49228084 5.0708447 14128223
-1.8217992 -0.65637445 6.761126 13930588
-2.1064045 -0.78764939 8.1133518 11697234
-2.02665 -0.78764939 8.1133518 9071708
-1.9468954 -0.78764939 8.1133518 9136988
-1.5559505 -0.65637445 6.761126 9268833
-1.1171163 -0.49228084 5.0708447 8874846
-0.94868416 -0.437583 4.5074177 8808282
-0.38758972 -0.18753555 1.9317503 8940897
-0.30962443 -0.15752988 1.6226703 9268831
-0.24472792 -0.13127488 1.3522252 9137502
-0.2103959 -0.1193408 1.2292956 9071966
-0.17687276 -0.1064391 1.0963988 10189157
-0.14989071 -0.0960548 0.98943311 10975581
-0.13060786 -0.089505605 0.92197174 11894619
-0.11884384 -0.087516591 0.90148348 12090199
-0.10998221 -0.087516591 0.90148348 12747098
-0.10582387 -0.091587134 0.94341296 13207647
-0.096550085 -0.091587134 0.94341296 13471071
-0.078185014 -0.082046807 0.84514076 13798491
-0.062113106 -0.072930492 0.75123626 8869179
-0.050954044 -0.067900807 0.69942683 1969425
-0.044078644 -0.067900807 0.69942683 2561043
-0.036572687 -0.066749945 0.68757218 1837323
-0.029813822 -0.066749945 0.68757218 1706764
-0.023054956 -0.066749945 0.68757218 1378059
-0.016296091 -0.066749945 0.68757218 1836555
-0.0097016599 -0.067900807 0.69942683 1639946
-0.0028262627 -0.067900807 0.69942683 1312009
0.0040491344 -0.067900807 0.69942683 1180680
0.011116191 -0.06909205 0.71169752 1180937
0.01843564 -0.070325829 0.72440636 1771530
0.026503129 -0.072930492 0.75123626 2625553
0.033887815 -0.072930492 0.75123626 3741974
0.042859904 -0.075735517 0.78012997 4201492
0.052549761 -0.078764938 0.81133515 5055256
0.067250244 -0.087516591 0.90148348 5713438
0 0 0 5779231
0 0 0 5910045
0 0 0 6107424
0 0 0 5779231
0 0 0 5646875
0 0 0 4530455
0 0 0 5384219
0 0 0 4924953
0 0 0 4924955
1.0019988 -0.56260663 5.7952509 5516316
0.82364053 -0.437583 4.5074177 3872270
0.86794865 -0.437583 4.5074177 1443852
1.0262889 -0.49228084 5.0708447 1312524
1.0761355 -0.49228084 5.0708447 1312521
1.125982 -0.49228084 5.0708447 1444109
1.1758287 -0.49228084 5.0708447 5192500
1.4007719 -0.56260663 5.7952509 9068613
1.4577394 -0.56260663 5.7952509 9987913
1.514707 -0.56260663 5.7952509 10579275
1.5716746 -0.56260663 5.7952509 11105620
2.2800992 -0.78764939 8.1133518 12156759
1.6856097 -0.56260663 5.7952509 12485463
1.5247551 -0.49228084 5.0708447 12944475
1.5746018 -0.49228084 5.0708447 13142367
1.6244484 -0.49228084 5.0708447 13142365
1.4882623 -0.437583 4.5074177 13404509
1.1494278 -0.32818723 3.380563 13667938
1.0916852 -0.30294207 3.1205199 13470303
1.0421914 -0.28130332 2.8976254 13603172
0.99929678 -0.26254976 2.7044504 13733473
1.0258816 -0.26254976 2.7044504 13602659
1.0524665 -0.26254976 2.7044504 13799525
1.2450594 -0.30294207 3.1205199 13864802
1.2757342 -0.30294207 3.1205199 13996645
1.3064091 -0.30294207 3.1205199 13602659
1.3370839 -0.30294207 3.1205199 13865056
1.1853908 -0.26254976 2.7044504 13865571
1.2119757 -0.26254976 2.7044504 13996640
1.2385606 -0.26254976 2.7044504 13996899
1.355513 -0.28130332 2.8976254 13733221
1.4904583 -0.30294207 3.1205199 13471331
1.5211331 -0.30294207 3.1205199 13537127
2.2415004 -0.437583 4.5074177 13733475
2.2858086 -0.437583 4.5074177 13733217
1.9064589 -0.35802242 3.687887 13667423
1.7808183 -0.32818723 3.380563 13273952
1.8140495 -0.32818723 3.380563 13340255
1.8472806 -0.32818723 3.380563 13011548
1.8805116 -0.32818723 3.380563 13208416
1.7665318 -0.30294207 3.1205199 13010782
1.557579 -0.26254976 2.7044504 13076574
1.3977917 -0.23166157 2.3862798 13011037
1.4212489 -0.23166157 2.3862798 12878682
1.3644449 -0.2187915 2.2537088 12616797
1.3865988 -0.2187915 2.2537088 12550232
1.334608 -0.20727615 2.1350925 2101275
1.3555961 -0.20727615 2.1350925 984075
1.307755 -0.19691235 2.028338 919052
1.3276936 -0.19691235 2.028338 984847
1.3476323 -0.19691235 2.028338 853517
1.3675709 -0.19691235 2.028338 984845
1.3214376 -0.18753555 1.9317503 1050123
1.3404268 -0.18753555 1.9317503 853002
1.359416 -0.18753555 1.9317503 853516
1.3784052 -0.18753555 1.9317503 919054
1.3338765 -0.17901121 1.8439435 787209
1.3520025 -0.17901121 1.8439435 721930
1.3701285 -0.17901121 1.8439435 852746
1.3882545 -0.17901121 1.8439435 656395
1.4063807 -0.17901121 1.8439435 853004
1.4923403 -0.18753555 1.9317503 853261
1.4426327 -0.17901121 1.8439435 787468
1.4607588 -0.17901121 1.8439435 722187
1.4788848 -0.17901121 1.8439435 919054
1.4970108 -0.17901121 1.8439435 853261
1.5872862 -0.18753555 1.9317503 590348
1.6062754 -0.18753555 1.9317503 787722
1.6252646 -0.18753555 1.9317503 787468
1.5695151 -0.17901121 1.8439435 787466
1.5876411 -0.17901121 1.8439435 918284
1.6057671 -0.17901121 1.8439435 853005
1.6238931 -0.17901121 1.8439435 721931
1.5706271 -0.17122811 1.763772 787467
1.5217998 -0.16409361 1.6902815 787466
1.5384154 -0.16409361 1.6902815 787720
1.4928297 -0.15752988 1.6226703 721927
1.5087806 -0.15752988 1.6226703 984329
1.4660881 -0.15147103 1.5602599 787466
1.5406824 -0.15752988 1.6226703 1049355
1.6214931 -0.16409361 1.6902815 853003
1.5121003 -0.15147103 1.5602599 590345
1.5274378 -0.15147103 1.5602599 1837828
1.4856354 -0.14586098 1.5024725 8937791
1.6204371 -0.15752988 1.6226703 10251083
1.7045708 -0.16409361 1.6902815 10250573
1.7211864 -0.16409361 1.6902815 10053966
1.5447129 -0.14586098 1.5024725 10054223
1.5594822 -0.14586098 1.5024725 10185550
1.5180283 -0.14065166 1.4488127 10185037
1.4301188 -0.13127488 1.3522252 10316879
1.2735982 -0.11583079 1.1931399 9922893
1.2853268 -0.11583079 1.1931399 9857100
1.3363601 -0.1193408 1.2292956 9988686
1.4354405 -0.12704022 1.3086051 9922889
1.496581 -0.13127488 1.3522252 9988170
1.561938 -0.13580161 1.3988537 9922379
1.6319634 -0.14065166 1.4488127 9791308
1.6462053 -0.14065166 1.4488127 9726031
1.6604472 -0.14065166 1.4488127 9594447
1.6746891 -0.14065166 1.4488127 10118989
1.4778147 -0.12307021 1.2677112 9791823
1.589628 -0.13127488 1.3522252 10315596
5.3430686 -0.437583 4.5074177 9988434
5.3873768 -0.437583 4.5074177 9922898
0 0 0 9791824
0 0 0 9594701
0 0 0 9660494
0 0 0 9463886
0 0 0 9922896
0 0 0 9922897
0 0 0 9725776
0 0 0 9659724
0 0 0 9790796
0 0 0 9856589
0 0 0 9594184
0 0 0 10052936
-5.3794961 -0.39327487 4.5074177 10907215
-5.3351879 -0.39327487 4.5074177 11564888
-7.9363189 -0.58991224 6.761126 11762523
-7.8698568 -0.58991224 6.761126 11631449
-6.6886239 -0.50563908 5.7952509 11894619
-6.6316566 -0.50563908 5.7952509 11763031
-5.1136475 -0.39327487 4.5074177 11959642
-5.0693393 -0.39327487 4.5074177 11763548
-5.0250311 -0.39327487 4.5074177 12091228
-4.9807229 -0.39327487 4.5074177 12025435
-4.9364147 -0.39327487 4.5074177 12157021
-4.8921065 -0.39327487 4.5074177 12157022
-4.8477983 -0.39327487 4.5074177 12091742
-4.3231416 -0.35394737 4.0566759 12026718
-4.2832642 -0.35394737 4.0566759 12223839
-4.2433867 -0.35394737 4.0566759 12223326
-4.2035093 -0.35394737 4.0566759 12157274
-4.1636324 -0.35394737 4.0566759 11893330
-4.123755 -0.35394737 4.0566759 9788988
-4.0838776 -0.35394737 4.0566759 8936253
-4.0440001 -0.35394737 4.0566759 8278325
-4.0041227 -0.35394737 4.0566759 8213050
-3.9642456 -0.35394737 4.0566759 8409915
-3.9243684 -0.35394737 4.0566759 8212791
-3.884491 -0.35394737 4.0566759 7949878
-4.2717929 -0.39327487 4.5074177 7949878
-4.2274847 -0.39327487 4.5074177 7951166
-4.183177 -0.39327487 4.5074177 8409402
-4.1388688 -0.39327487 4.5074177 8607035
-4.0945606 -0.39327487 4.5074177 8410681
-4.5565338 -0.44243422 5.0708447 8673340
-4.5066872 -0.44243422 5.0708447 9396807
-4.4568405 -0.44243422 5.0708447 9921346
-4.4069939 -0.44243422 5.0708447 9393979
-4.3571472 -0.44243422 5.0708447 3283219
-4.3073006 -0.44243422 5.0708447 9330501
-4.2574539 -0.44243422 5.0708447 10907724
-4.8086939 -0.50563908 5.7952509 10973516
-4.1577606 -0.44243422 5.0708447 11105103
-4.107914 -0.44243422 5.0708447 10973772
-4.0580673 -0.44243422 5.0708447 11105355
-4.0082207 -0.44243422 5.0708447 11171407
-3.9583743 -0.44243422 5.0708447 11367245
-3.9085276 -0.44243422 5.0708447 11433296
-4.4099212 -0.50563908 5.7952509 11367757
-4.3529534 -0.50563908 5.7952509 11236684
-4.2959857 -0.50563908 5.7952509 11433293
-4.2390184 -0.50563908 5.7952509 11696465
-3.6592944 -0.44243422 5.0708447 11565137
-3.6094477 -0.44243422 5.0708447 11367503
-3.5596011 -0.44243422 5.0708447 11762514
-3.119782 -0.39327487 4.5074177 11565391
-3.0754738 -0.39327487 4.5074177 12024144
-3.0311658 -0.39327487 4.5074177 12024658
-2.9868577 -0.39327487 4.5074177 12222293
-2.9425495 -0.39327487 4.5074177 11959638
-3.72631 -0.50563908 5.7952509 12222039
-4.2808995 -0.58991224 6.761126 12287828
-4.2144375 -0.58991224 6.761126 12485205
-4.1479754 -0.58991224 6.761126 12682070
-4.0815129 -0.58991224 6.761126 12485463
-2.6767008 -0.39327487 4.5074177 12288598
-2.3691535 -0.35394737 4.0566759 12682329
-2.3292761 -0.35394737 4.0566759 12813656
-2.8617485 -0.44243422 5.0708447 12616793
-2.8119018 -0.44243422 5.0708447 12879965
-2.7620552 -0.44243422 5.0708447 13272919
-2.4108522 -0.39327487 4.5074177 13207899
-2.366544 -0.39327487 4.5074177 13206874
-2.6125152 -0.44243422 5.0708447 13142360
-2.5626686 -0.44243422 5.0708447 13208154
-2.5128219 -0.44243422 5.0708447 13273434
-2.1893115 -0.39327487 4.5074177 13404251
-2.1450033 -0.39327487 4.5074177 13536608
-2.363282 -0.44243422 5.0708447 13601885
-2.3134353 -0.44243422 5.0708447 13733468
-2.012079 -0.39327487 4.5074177 13930076
-2.2137423 -0.44243422 5.0708447 13930847
-2.4730234 -0.50563908 5.7952509 14061661
-2.4160559 -0.50563908 5.7952509 13799261
-2.3590882 -0.50563908 5.7952509 14192220
-2.6858075 -0.58991224 6.761126 14128224
-2.6193452 -0.58991224 6.761126 14259040
-2.5528831 -0.58991224 6.761126 13996892
-2.4864209 -0.58991224 6.761126 14194276
-2.4199588 -0.58991224 6.761126 14128226
-2.0172827 -0.50563908 5.7952509 14324575
-1.9603152 -0.50563908 5.7952509 14587489
-1.6654292 -0.44243422 5.0708447 14455901
-1.6155826 -0.44243422 5.0708447 14653282
-1.5657359 -0.44243422 5.0708447 14521442
-1.5158893 -0.44243422 5.0708447 14652767
-1.4660426 -0.44243422 5.0708447 14587231
-1.4161961 -0.44243422 5.0708447 14259808
-1.8217992 -0.58991224 6.761126 13864284
-2.1064045 -0.70789474 8.1133518 11959122
-2.02665 -0.70789474 8.1133518 9400158
-1.9468954 -0.70789474 8.1133518 9268830
-1.5559505 -0.58991224 6.761126 9202266
-1.1171163 -0.44243422 5.0708447 8808541
-0.65678132 -0.27226722 3.1205199 9071715
-0.38758972 -0.16854636 1.9317503 9071968
-0.30962443 -0.14157894 1.6226703 9268573
-0.26220849 -0.12640977 1.4488127 9334367
-0.23143549 -0.11798245 1.3522252 9794147
-0.19831187 -0.10725677 1.2292956 10583653
-0.16172418 -0.093144044 1.0675462 11370080
-0.13682728 -0.084273182 0.96587515 11830111
-0.12437146 -0.082313344 0.94341296 12223585
-0.11783808 -0.084273182 0.96587515 12617567
-0.10834349 -0.084273182 0.96587515 12617565
