# .PCD v0.7 - Point Cloud Data file format
VERSION 0.7
FIELDS x y z rgb
SIZE 4 4 4 4
TYPE F F F U
COUNT 1 1 1 1
WIDTH 1315
HEIGHT 1
VIEWPOINT 0 0 0 1 0 0 0
POINTS 1315
DATA ascii
1.8827103 0.10617922 1.763772 6042403
2.0810053 0.11629152 1.9317503 5582883
2.2049944 0.12210611 2.028338 7817779
2.4721477 0.13567345 2.2537088 8410177
2.4943018 0.13567345 2.2537088 8607810
2.6644826 0.14365424 2.3862798 8738881
2.6879399 0.14365424 2.3862798 9133379
2.7113969 0.14365424 2.3862798 9592388
2.7348542 0.14365424 2.3862798 9789252
2.7583115 0.14365424 2.3862798 9987143
2.488951 0.12853274 2.1350925 10514256
2.2708972 0.11629152 1.9317503 9923150
2.2898865 0.11629152 1.9317503 9988943
2.3088756 0.11629152 1.9317503 9725515
2.7158425 0.13567345 2.2537088 9462344
2.899055 0.14365424 2.3862798 9659723
0 0 0 9659466
0 0 0 9790795
0 0 0 9790795
0 0 0 9921865
0 0 0 9986632
0 0 0 9725001
0 0 0 9725002
0 0 0 9725259
0 0 0 4203289
0 0 0 1246729
-4.0346217 0.23674124 3.380563 1443853
-4.0013905 0.23674124 3.380563 1443852
-4.3289013 0.25826317 3.687887 2758681
-4.7219143 0.28408951 4.0566759 3545624
-5.2022634 0.31565502 4.5074177 3743257
-5.1579552 0.31565502 4.5074177 3874328
-4.6022825 0.28408951 4.0566759 3677462
-4.5624051 0.28408951 4.0566759 3677464
-4.1113887 0.25826317 3.687887 3809050
-4.0751367 0.25826317 3.687887 3809050
-4.4427733 0.28408951 4.0566759 3940122
-4.8921065 0.31565502 4.5074177 4005402
-4.8477983 0.31565502 4.5074177 4070938
-4.8034906 0.31565502 4.5074177 4136729
-4.7591825 0.31565502 4.5074177 4267801
-4.7148743 0.31565502 4.5074177 4202010
-4.2035093 0.28408951 4.0566759 4005143
-4.1636324 0.28408951 4.0566759 3741970
-4.123755 0.28408951 4.0566759 3281935
-4.0838776 0.28408951 4.0566759 2035215
-4.0440001 0.28408951 4.0566759 1969422
-4.0041227 0.28408951 4.0566759 2561815
-4.4047174 0.31565502 4.5074177 2955543
-4.3604093 0.31565502 4.5074177 3020822
-4.3161011 0.31565502 4.5074177 2889494
-4.8057671 0.3551119 5.0708447 2889495
-4.7559204 0.3551119 5.0708447 2692886
-4.7060738 0.3551119 5.0708447 2035218
-4.6562271 0.3551119 5.0708447 786696
-4.6063805 0.3551119 5.0708447 852746
-4.5565338 0.3551119 5.0708447 917512
-4.0059443 0.31565502 4.5074177 918536
-3.9616363 0.31565502 4.5074177 787464
-3.9173281 0.31565502 4.5074177 852489
-3.8730199 0.31565502 4.5074177 852491
-3.8287117 0.31565502 4.5074177 918282
-3.7844038 0.31565502 4.5074177 918282
-3.7400956 0.31565502 4.5074177 852489
-3.6957874 0.31565502 4.5074177 721673
-3.6514795 0.31565502 4.5074177 786696
-3.6071713 0.31565502 4.5074177 852489
-3.5628631 0.31565502 4.5074177 1246474
-3.9583743 0.3551119 5.0708447 1442822
-3.9085276 0.3551119 5.0708447 1114885
-3.858681 0.3551119 5.0708447 1115142
-3.8088343 0.3551119 5.0708447 1180679
-3.7589877 0.3551119 5.0708447 1245957
-3.709141 0.3551119 5.0708447 1049350
-3.6592944 0.3551119 5.0708447 983815
-3.6094477 0.3551119 5.0708447 918024
-3.5596011 0.3551119 5.0708447 918281
-4.011148 0.40584216 5.7952509 852745
-3.9541805 0.40584216 5.7952509 918538
-3.8972127 0.40584216 5.7952509 852745
-3.8402452 0.40584216 5.7952509 852488
-3.7832778 0.40584216 5.7952509 787467
-3.2605214 0.3551119 5.0708447 786696
-2.8539333 0.31565502 4.5074177 721673
-2.8096251 0.31565502 4.5074177 786951
-2.765317 0.31565502 4.5074177 852491
-2.721009 0.31565502 4.5074177 2955549
-3.0112882 0.3551119 5.0708447 8803912
-2.9614415 0.3551119 5.0708447 9724737
-2.9115949 0.3551119 5.0708447 10447175
-2.8617485 0.3551119 5.0708447 10447175
-3.2136018 0.40584216 5.7952509 11038281
-2.7620552 0.3551119 5.0708447 10644552
-2.7122085 0.3551119 5.0708447 10644810
-2.6623619 0.3551119 5.0708447 10840904
-2.6125152 0.3551119 5.0708447 10972747
0 0 0 10906954
0 0 0 10710345
0 0 0 10119752
-0.36424583 0.05360179 0.76541048 2033411
-0.37071091 0.055703826 0.79542661 1049868
-0.36289182 0.055703826 0.79542661 852491
-0.36217421 0.0568179 0.81133515 787211
-0.34725368 0.055703826 0.79542661 720905
-0.33943459 0.055703826 0.79542661 786698
-0.31910172 0.05360179 0.76541048 984076
-0.31157768 0.05360179 0.76541048 984334
-0.32229689 0.0568179 0.81133515 1049868
-0.31432143 0.0568179 0.81133515 984075
-0.28900564 0.05360179 0.76541048 918282
-0.26640224 0.050730269 0.72440636 984076
-0.25473252 0.049840268 0.71169752 918283
-0.25216034 0.050730269 0.72440636 852491
-0.2450394 0.050730269 0.72440636 787468
-0.22971436 0.048980948 0.69942683 852489
-0.21906206 0.048150767 0.68757218 918284
-0.20534243 0.046572052 0.66502881 852489
-0.20554432 0.048150767 0.68757218 721673
-0.19878545 0.048150767 0.68757218 1839639
-0.19202659 0.048150767 0.68757218 2431005
-0.18526773 0.048150767 0.68757218 2102553
-0.17850886 0.048150767 0.68757218 2627613
-0.17174999 0.048150767 0.68757218 2496797
-0.16499113 0.048150767 0.68757218 2496540
-0.15823227 0.048150767 0.68757218 2693919
-0.154085 0.048980948 0.69942683 1376776
-0.15246709 0.050730269 0.72440636 787466
-0.15357327 0.05360179 0.76541048 786698
-0.14604926 0.05360179 0.76541048 786698
-0.13852525 0.05360179 0.76541048 852489
-0.12857528 0.052609168 0.75123626 786696
-0.12347721 0.05360179 0.76541048 590089
-0.12291038 0.0568179 0.81133515 590348
-0.11728053 0.057977453 0.82789302 655882
-0.10695945 0.0568179 0.81133515 590089
-0.098983996 0.0568179 0.81133515 655880
-0.092865855 0.057977453 0.82789302 786698
-0.090253338 0.061758585 0.88188601 655882
-0.085292742 0.064565793 0.92197174 721675
0 0 0 917512
0 0 0 786697
0 0 0 786698
0 0 0 655882
0 0 0 655625
0 0 0 917769
0 0 0 721675
0 0 0 786696
0 0 0 852743
0 0 0 917766
0 0 0 1115145
0 0 0 1378060
0 0 0 1443852
0.11437137 0.17755595 2.5354223 1509646
0.17143962 0.2185304 3.1205199 1443852
0.18767771 0.20292108 2.8976254 1509645
0.2161615 0.20292108 2.8976254 1509645
0.2446453 0.20292108 2.8976254 1575438
0.27312908 0.20292108 2.8976254 1443852
0.35188168 0.23674124 3.380563 1246731
0.38511276 0.23674124 3.380563 1180684
0.19308178 0.1092652 1.5602599 1115145
0.20841922 0.1092652 1.5602599 1378059
0.22375664 0.1092652 1.5602599 3676435
0.29602119 0.13528071 1.9317503 4334362
0 0 0 4925213
0 0 0 4924956
0 0 0 4924957
0 0 0 4924957
0.63156235 0.2185304 3.1205199 4859933
0.50641668 0.16711147 2.3862798 8739397
0.56299102 0.17755595 2.5354223 10381131
0.58791435 0.17755595 2.5354223 11103823
0.70038593 0.20292108 2.8976254 11235919
0.78493661 0.2185304 3.1205199 11498832
0.81561148 0.2185304 3.1205199 12024917
0.91681015 0.23674124 3.380563 12616539
0.87696117 0.2185304 3.1205199 10839364
1.1799269 0.28408951 4.0566759 1181198
0.93831086 0.2185304 3.1205199 1181195
0.96898574 0.2185304 3.1205199 984329
0.86637247 0.189393 2.7044504 787208
0.83714753 0.17755595 2.5354223 1049353
0.86207086 0.17755595 2.5354223 918282
0.83481801 0.16711147 2.3862798 983818
0.85827523 0.16711147 2.3862798 984075
0.88173252 0.16711147 2.3862798 918282
0.85490143 0.15782751 2.2537088 983816
0.87705553 0.15782751 2.2537088 655880
0.89920956 0.15782751 2.2537088 918024
0.92136365 0.15782751 2.2537088 917767
0.99901867 0.16711147 2.3862798 590089
1.022476 0.16711147 2.3862798 786696
1.0459331 0.16711147 2.3862798 983305
1.0693904 0.16711147 2.3862798 786695
1.0928476 0.16711147 2.3862798 852489
1.054288 0.15782751 2.2537088 852489
1.076442 0.15782751 2.2537088 721157
1.0985961 0.15782751 2.2537088 852486
1.1866766 0.16711147 2.3862798 984329
1.2101338 0.16711147 2.3862798 852491
1.2335911 0.16711147 2.3862798 852489
1.1872123 0.15782751 2.2537088 852491
1.2093664 0.15782751 2.2537088 852491
1.3039628 0.16711147 2.3862798 852489
1.32742 0.16711147 2.3862798 787468
1.3508773 0.16711147 2.3862798 655882
1.2979827 0.15782751 2.2537088 786698
1.2506558 0.1495208 2.1350925 1640461
1.2716439 0.1495208 2.1350925 6833205
1.2280003 0.14204475 2.028338 8017984
1.247939 0.14204475 2.028338 8543051
1.2678777 0.14204475 2.028338 8740688
1.2878163 0.14204475 2.028338 8674641
1.307755 0.14204475 2.028338 6573639
1.26447 0.13528071 1.9317503 6835779
1.2834592 0.13528071 1.9317503 7425602
1.3024484 0.13528071 1.9317503 3544598
1.3214376 0.13528071 1.9317503 2822678
1.4074482 0.14204475 2.028338 1179653
1.6792786 0.16711147 2.3862798 655623
0 0 0 786698
2.2573295 0.2185304 3.1205199 786698
1.2932198 0.12351717 1.763772 590602
1.3105577 0.12351717 1.763772 656395
1.3278956 0.12351717 1.763772 655882
1.3452337 0.12351717 1.763772 655882
1.4923403 0.13528071 1.9317503 786698
1.2695168 0.1136358 1.6226703 786697
1.3390288 0.11837062 1.6902815 852491
1.3556443 0.11837062 1.6902815 918284
1.2667016 0.1092652 1.5602599 918282
1.2820389 0.1092652 1.5602599 852746
1.2973764 0.1092652 1.5602599 721675
1.4839373 0.12351717 1.763772 852490
1.6442538 0.13528071 1.9317503 852491
1.7464054 0.14204475 2.028338 852491
1.6822323 0.13528071 1.9317503 721674
1.7012215 0.13528071 1.9317503 786696
1.7202107 0.13528071 1.9317503 787468
1.82616 0.14204475 2.028338 918284
2.0512207 0.15782751 2.2537088 918030
1.7771782 0.13528071 1.9317503 918284
1.7961674 0.13528071 1.9317503 918283
1.8151566 0.13528071 1.9317503 984077
1.8341458 0.13528071 1.9317503 852491
2.1619909 0.15782751 2.2537088 787466
1.7870276 0.12913159 1.8439435 787468
1.6547242 0.11837062 1.6902815 787466
1.6713398 0.11837062 1.6902815 852491
1.6879553 0.11837062 1.6902815 918282
1.7045708 0.11837062 1.6902815 787466
1.652339 0.1136358 1.6226703 918282
1.6041249 0.1092652 1.5602599 918282
1.6194624 0.1092652 1.5602599 918282
1.7001917 0.1136358 1.6226703 984075
1.7161427 0.1136358 1.6226703 1641232
1.8827103 0.12351717 1.763772 1707280
1.9000483 0.12351717 1.763772 1640462
2.0045402 0.12913159 1.8439435 4597791
2.0226662 0.12913159 1.8439435 7556662
2.1379728 0.13528071 1.9317503 8475196
2.3840108 0.1495208 2.1350925 8607293
2.4049988 0.1495208 2.1350925 8738620
2.7113969 0.16711147 2.3862798 9133121
2.7348542 0.16711147 2.3862798 9330500
2.7583115 0.16711147 2.3862798 9790537
2.2519081 0.13528071 1.9317503 10184782
2.2708972 0.13528071 1.9317503 10381389
2.2898865 0.13528071 1.9317503 10053194
2.3088756 0.13528071 1.9317503 9659723
2.4442582 0.14204475 2.028338 9396036
2.7379966 0.15782751 2.2537088 9593415
2.9225123 0.16711147 2.3862798 9461832
0 0 0 9593419
0 0 0 10118989
0 0 0 9659721
0 0 0 9921610
0 0 0 9922125
0 0 0 9593675
0 0 0 9593933
0 0 0 4268566
0 0 0 1312521
-4.0346217 0.26997232 3.380563 1443852
-4.3651533 0.29451528 3.687887 1378316
-4.3289013 0.29451528 3.687887 2692632
-4.2926493 0.29451528 3.687887 3611417
-5.2022634 0.35996315 4.5074177 3611156
-5.1579552 0.35996315 4.5074177 3611671
-4.6022825 0.32396683 4.0566759 3742487
-4.5624051 0.32396683 4.0566759 3677207
-4.1113887 0.29451528 3.687887 3742484
-4.0751367 0.29451528 3.687887 3742486
-4.9364147 0.35996315 4.5074177 3874328
-4.8921065 0.35996315 4.5074177 3808535
-4.8477983 0.35996315 4.5074177 3874328
-4.8034906 0.35996315 4.5074177 3808792
-4.7591825 0.35996315 4.5074177 3808278
-4.2433867 0.32396683 4.0566759 3741973
-4.2035093 0.32396683 4.0566759 3676438
-4.1636324 0.32396683 4.0566759 3742489
-4.123755 0.32396683 4.0566759 2954001
-4.0838776 0.32396683 4.0566759 1508874
-4.0440001 0.32396683 4.0566759 1378061
-4.0041227 0.32396683 4.0566759 2166547
-4.4047174 0.35996315 4.5074177 1376517
-4.3604093 0.35996315 4.5074177 1114630
-4.3161011 0.35996315 4.5074177 917764
-4.2717929 0.35996315 4.5074177 851972
-4.7559204 0.40495852 5.0708447 786950
-4.7060738 0.40495852 5.0708447 786696
-4.6562271 0.40495852 5.0708447 721160
-4.6063805 0.40495852 5.0708447 786696
-4.5565338 0.40495852 5.0708447 721417
-4.5066872 0.40495852 5.0708447 787466
-3.9616363 0.35996315 4.5074177 918026
-3.9173281 0.35996315 4.5074177 852747
-3.8730199 0.35996315 4.5074177 721673
-3.4458406 0.32396683 4.0566759 656135
-3.4059634 0.32396683 4.0566759 852489
-3.366086 0.32396683 4.0566759 655880
-3.6957874 0.35996315 4.5074177 721160
-3.6514795 0.35996315 4.5074177 720903
-3.6071713 0.35996315 4.5074177 786696
-3.5628631 0.35996315 4.5074177 852489
-3.5185549 0.35996315 4.5074177 1049352
-3.9085276 0.40495852 5.0708447 1114888
-3.858681 0.40495852 5.0708447 918282
-3.8088343 0.40495852 5.0708447 918025
-3.7589877 0.40495852 5.0708447 852489
-3.709141 0.40495852 5.0708447 918536
-3.2527063 0.35996315 4.5074177 983048
-3.2083981 0.35996315 4.5074177 852489
-3.5596011 0.40495852 5.0708447 918281
-3.5097547 0.40495852 5.0708447 852746
-3.459908 0.40495852 5.0708447 852747
-3.4100614 0.40495852 5.0708447 721416
-3.3602147 0.40495852 5.0708447 852489
-3.3103681 0.40495852 5.0708447 786953
-3.2605214 0.40495852 5.0708447 786696
-2.8539333 0.35996315 4.5074177 918024
-2.8096251 0.35996315 4.5074177 918282
-2.765317 0.35996315 4.5074177 852746
-2.721009 0.35996315 4.5074177 2758167
-3.0112882 0.40495852 5.0708447 7422017
-2.9614415 0.40495852 5.0708447 9396034
-2.9115949 0.40495852 5.0708447 10052676
-2.8617485 0.40495852 5.0708447 10381895
-3.2136018 0.46280971 5.7952509 10512196
-2.7620552 0.40495852 5.0708447 10314819
-2.7122085 0.40495852 5.0708447 10578247
-2.6623619 0.40495852 5.0708447 10381895
-2.6125152 0.40495852 5.0708447 10577989
0 0 0 10643782
0 0 0 10512968
0 0 0 8014639
-0.36424583 0.061125811 0.76541048 1246731
-0.37071091 0.063522905 0.79542661 919052
-0.36289182 0.063522905 0.79542661 721675
-0.36217421 0.064793363 0.81133515 787211
-0.34725368 0.063522905 0.79542661 524296
-0.32662573 0.061125811 0.76541048 918284
-0.31319243 0.059993856 0.75123626 918539
-0.31157768 0.061125811 0.76541048 1246990
-0.31597736 0.063522905 0.79542661 1049868
-0.29652965 0.061125811 0.76541048 918284
-0.27849633 0.058903053 0.73757738 853003
-0.26172853 0.056836285 0.71169752 984588
-0.25473252 0.056836285 0.71169752 852747
-0.25216034 0.057851214 0.72440636 852746
-0.2450394 0.057851214 0.72440636 721418
-0.22971436 0.055856347 0.69942683 721675
-0.21906206 0.054909632 0.68757218 787209
-0.21230319 0.054909632 0.68757218 720905
-0.20908818 0.055856347 0.69942683 852491
-0.19878545 0.054909632 0.68757218 2168603
-0.19202659 0.054909632 0.68757218 2430234
-0.18526773 0.054909632 0.68757218 2365211
-0.17850886 0.054909632 0.68757218 2365982
-0.16888748 0.053994466 0.67611259 2628126
-0.16499113 0.054909632 0.68757218 2299419
-0.15823227 0.054909632 0.68757218 2628124
-0.154085 0.055856347 0.69942683 722188
-0.15246709 0.057851214 0.72440636 852491
-0.14534613 0.057851214 0.72440636 721675
-0.14885791 0.062301312 0.78012997 655882
-0.14395761 0.063522905 0.79542661 590087
-0.13100122 0.061125811 0.76541048 786696
-0.12585177 0.062301312 0.78012997 786698
-0.11818306 0.062301312 0.78012997 917512
-0.11493492 0.064793363 0.81133515 917512
-0.10090514 0.061125811 0.76541048 786698
-0.10100408 0.066115677 0.82789302 590089
-0.094800554 0.067493081 0.84514076 655882
-0.092258967 0.071992621 0.90148348 786696
-0.085292742 0.07362882 0.92197174 786696
-0.079859704 0.077134952 0.96587515 852491
0 0 0 655882
0 0 0 655880
0 0 0 721418
0 0 0 786954
0 0 0 786953
0 0 0 852489
0 0 0 852489
0 0 0 983305
0 0 0 655366
0 0 0 1115145
0 0 0 1246474
0 0 0 1312524
0 0 0 1443853
0.18572626 0.26997232 3.380563 1574669
0.21895733 0.26997232 3.380563 1705741
0.20175074 0.21597786 2.7044504 1575436
0.2446453 0.23140486 2.8976254 1509646
0.27312908 0.23140486 2.8976254 1246731
0.32481387 0.24920525 3.1205199 1246474
0.35548872 0.24920525 3.1205199 1246731
0.19308178 0.12460262 1.5602599 984329
0.20069999 0.11998771 1.5024725 1180938
0.22375664 0.12460262 1.5602599 3481374
0.25901857 0.13498616 1.6902815 4727835
0 0 0 4924187
0 0 0 4859420
0 0 0 4924958
0 0 0 4662043
1.1729015 0.46280971 5.7952509 4465176
0.66223723 0.24920525 3.1205199 9462861
0.56299102 0.20247926 2.5354223 10643523
0.58791435 0.20247926 2.5354223 11300942
0.61283767 0.20247926 2.5354223 11170897
0.68027836 0.21597786 2.7044504 11629902
0.81561148 0.24920525 3.1205199 10445373
0.84628636 0.24920525 3.1205199 10051389
0.87696117 0.24920525 3.1205199 8733226
1.1799269 0.32396683 4.0566759 1181195
0 0 0 1050380
0 0 0 852489
0.72197711 0.17998157 2.2537088 852488
0.78790355 0.19056872 2.3862798 984074
0.81136078 0.19056872 2.3862798 852233
0.83481801 0.19056872 2.3862798 917769
0.85827523 0.19056872 2.3862798 852233
0.88173252 0.19056872 2.3862798 983559
0.85490143 0.17998157 2.2537088 1049354
0.87705553 0.17998157 2.2537088 852489
0.89920956 0.17998157 2.2537088 984330
0.97556144 0.19056872 2.3862798 918283
0.99901867 0.19056872 2.3862798 984075
1.022476 0.19056872 2.3862798 918282
1.0459331 0.19056872 2.3862798 1180939
1.0693904 0.19056872 2.3862798 1246988
1.0928476 0.19056872 2.3862798 1246474
1.054288 0.17998157 2.2537088 655880
1.076442 0.17998157 2.2537088 786696
1.0985961 0.17998157 2.2537088 720903
1.1866766 0.19056872 2.3862798 852489
1.2101338 0.19056872 2.3862798 786696
1.1650583 0.17998157 2.2537088 852748
1.1872123 0.17998157 2.2537088 853261
1.2093664 0.17998157 2.2537088 918282
1.3039628 0.19056872 2.3862798 853004
1.32742 0.19056872 2.3862798 721416
1.3508773 0.19056872 2.3862798 918282
1.2979827 0.17998157 2.2537088 787211
1.2506558 0.17050885 2.1350925 1641231
1.2716439 0.17050885 2.1350925 6372661
1.2280003 0.16198342 2.028338 6899254
1.247939 0.16198342 2.028338 7688514
1.2678777 0.16198342 2.028338 8214601
1.2878163 0.16198342 2.028338 8018506
1.307755 0.16198342 2.028338 7162433
1.3276936 0.16198342 2.028338 7030848
1.2834592 0.1542699 1.9317503 8342078
1.3024484 0.1542699 1.9317503 3872534
1.3875096 0.16198342 2.028338 2822678
1.4815243 0.17050885 2.1350925 720903
1.7842335 0.20247926 2.5354223 655623
0 0 0 786696
1.8340801 0.20247926 2.5354223 786696
1.2932198 0.14085513 1.763772 786698
1.2559512 0.13498616 1.6902815 786698
1.2725667 0.13498616 1.6902815 786953
1.237615 0.12958673 1.6226703 852489
1.2535659 0.12958673 1.6226703 721673
1.2695168 0.12958673 1.6226703 787209
1.5303187 0.1542699 1.9317503 786697
1.4788848 0.14725764 1.8439435 787212
1.37226 0.13498616 1.6902815 918283
1.2820389 0.12460262 1.5602599 918026
1.2973764 0.12460262 1.5602599 786953
1.4839373 0.14085513 1.763772 983305
1.5695151 0.14725764 1.8439435 852489
1.7464054 0.16198342 2.028338 918284
1.766344 0.16198342 2.028338 786955
1.7862827 0.16198342 2.028338 918284
1.7202107 0.1542699 1.9317503 984075
1.82616 0.16198342 2.028338 918284
1.9432616 0.17050885 2.1350925 852491
1.7771782 0.1542699 1.9317503 852489
1.7961674 0.1542699 1.9317503 852746
1.8151566 0.1542699 1.9317503 852746
1.7507756 0.14725764 1.8439435 787210
1.7689016 0.14725764 1.8439435 787468
1.7093308 0.14085513 1.763772 852489
1.6547242 0.13498616 1.6902815 918282
1.6044862 0.12958673 1.6226703 918283
1.6879553 0.13498616 1.6902815 786955
1.6363881 0.12958673 1.6226703 721673
1.652339 0.12958673 1.6226703 984075
1.6041249 0.12460262 1.5602599 984075
1.6194624 0.12460262 1.5602599 1181196
1.6347997 0.12460262 1.5602599 918536
1.7161427 0.12958673 1.6226703 1902603
1.7320936 0.12958673 1.6226703 2166805
1.9000483 0.14085513 1.763772 1312270
1.9173863 0.14085513 1.763772 2362379
1.9347242 0.14085513 1.763772 6898732
2.0407922 0.14725764 1.8439435 8080439
2.1569622 0.1542699 1.9317503 8540990
2.1759512 0.1542699 1.9317503 8672575
2.1949403 0.1542699 1.9317503 9132609
2.2139297 0.1542699 1.9317503 9329730
2.2329187 0.1542699 1.9317503 9329988
2.2519081 0.1542699 1.9317503 10118732
2.2708972 0.1542699 1.9317503 10381389
2.2898865 0.1542699 1.9317503 9856587
2.3088756 0.1542699 1.9317503 9199174
2.3278649 0.1542699 1.9317503 9396299
2.7379966 0.17998157 2.2537088 9658696
2.9225123 0.19056872 2.3862798 9527110
0 0 0 9592647
0 0 0 10052425
0 0 0 9659720
0 0 0 9921610
0 0 0 9725003
0 0 0 9725003
0 0 0 9593417
0 0 0 4530710
0 0 0 1181448
-4.4014053 0.33076736 3.687887 1443855
-4.3651533 0.33076736 3.687887 1246988
-4.3289013 0.33076736 3.687887 2626582
-4.2926493 0.33076736 3.687887 3545110
-5.2022634 0.40427125 4.5074177 3611158
-5.1579552 0.40427125 4.5074177 3480085
-4.6022825 0.36384413 4.0566759 3545111
-4.5624051 0.36384413 4.0566759 3545111
-4.5225282 0.36384413 4.0566759 3611158
-4.0751367 0.33076736 3.687887 3807767
-4.9364147 0.40427125 4.5074177 3741974
-4.8921065 0.40427125 4.5074177 3676695
-4.8477983 0.40427125 4.5074177 3611157
-4.8034906 0.40427125 4.5074177 3611670
-4.2832642 0.36384413 4.0566759 3545365
-4.2433867 0.36384413 4.0566759 3610902
-4.2035093 0.36384413 4.0566759 3479830
-4.1636324 0.36384413 4.0566759 3348501
-4.123755 0.36384413 4.0566759 2559502
-4.0838776 0.36384413 4.0566759 1246216
-4.4933338 0.40427125 4.5074177 1115914
-4.4490256 0.40427125 4.5074177 2298132
-4.4047174 0.40427125 4.5074177 1048838
-4.3604093 0.40427125 4.5074177 852489
-4.3161011 0.40427125 4.5074177 852489
-4.2717929 0.40427125 4.5074177 590089
-4.2274847 0.40427125 4.5074177 721675
-4.7060738 0.45480514 5.0708447 786698
-4.6562271 0.45480514 5.0708447 918282
-4.6063805 0.45480514 5.0708447 1049098
-4.0502524 0.40427125 4.5074177 983559
-4.0059443 0.40427125 4.5074177 918282
-3.9616363 0.40427125 4.5074177 984074
-3.9173281 0.40427125 4.5074177 1115915
-3.8730199 0.40427125 4.5074177 1115145
-3.4458406 0.36384413 4.0566759 918280
-3.4059634 0.36384413 4.0566759 983817
-3.366086 0.36384413 4.0566759 721418
-3.6957874 0.40427125 4.5074177 786697
-3.6514795 0.40427125 4.5074177 721160
-3.6071713 0.40427125 4.5074177 786696
-3.5628631 0.40427125 4.5074177 984588
-3.5185549 0.40427125 4.5074177 1246474
-3.474247 0.40427125 4.5074177 1115145
-3.4299388 0.40427125 4.5074177 1180684
-3.8088343 0.45480514 5.0708447 1049609
-3.3413227 0.40427125 4.5074177 984329
-3.2970145 0.40427125 4.5074177 721673
-3.2527063 0.40427125 4.5074177 983820
-3.2083981 0.40427125 4.5074177 852489
-3.5596011 0.45480514 5.0708447 918282
-3.5097547 0.45480514 5.0708447 1048841
-3.459908 0.45480514 5.0708447 983559
-3.4100614 0.45480514 5.0708447 852489
-3.3602147 0.45480514 5.0708447 852743
-3.3103681 0.45480514 5.0708447 851975
-2.8982413 0.40427125 4.5074177 721160
-2.8539333 0.40427125 4.5074177 983818
-2.8096251 0.40427125 4.5074177 786955
-2.765317 0.40427125 4.5074177 853260
-2.721009 0.40427125 4.5074177 2955032
-3.0112882 0.45480514 5.0708447 4596775
-2.9614415 0.45480514 5.0708447 8869696
-2.9115949 0.45480514 5.0708447 10051393
-3.2705696 0.5197773 5.7952509 10118208
-3.2136018 0.5197773 5.7952509 10184514
-2.7620552 0.45480514 5.0708447 9921090
-2.7122085 0.45480514 5.0708447 10314564
-2.6623619 0.45480514 5.0708447 10380612
-2.6125152 0.45480514 5.0708447 10184262
0 0 0 10183233
0 0 0 10052163
0 0 0 2756614
0 0 0 984075
-0.37071091 0.071341984 0.79542661 984075
-0.36289182 0.071341984 0.79542661 852491
-0.35507274 0.071341984 0.79542661 852746
-0.34057572 0.069970027 0.78012997 721675
-0.32662573 0.068649828 0.76541048 918283
-0.31910172 0.068649828 0.76541048 919054
-0.31157768 0.068649828 0.76541048 1049355
-0.30405366 0.068649828 0.76541048 853003
-0.28574675 0.066153474 0.73757738 853003
-0.26872456 0.063832305 0.71169752 918797
-0.26172853 0.063832305 0.71169752 984332
-0.25473252 0.063832305 0.71169752 852490
-0.24346517 0.062731743 0.69942683 918026
-0.23658976 0.062731743 0.69942683 721674
-0.22582091 0.061668497 0.68757218 853004
-0.21906206 0.061668497 0.68757218 1049098
-0.21596357 0.062731743 0.69942683 786698
-0.20908818 0.062731743 0.69942683 1577243
-0.19878545 0.061668497 0.68757218 2694177
-0.19202659 0.061668497 0.68757218 2168606
-0.18526773 0.061668497 0.68757218 2562590
-0.17850886 0.061668497 0.68757218 2693919
-0.16888748 0.060640685 0.67611259 2364185
-0.16224127 0.060640685 0.67611259 2101529
-0.15559505 0.060640685 0.67611259 2035990
-0.154085 0.062731743 0.69942683 985358
-0.15246709 0.064972162 0.72440636 786698
-0.16610989 0.074253902 0.82789302 787466
-0.15177669 0.071341984 0.79542661 786696
-0.14395761 0.071341984 0.79542661 786696
-0.13352048 0.069970027 0.78012997 590087
-0.12831944 0.071341984 0.79542661 524809
-0.12291038 0.072768822 0.81133515 786698
-0.11493492 0.072768822 0.81133515 655882
-0.099036537 0.067378543 0.75123626 655882
-0.091651849 0.067378543 0.75123626 786698
-0.085857108 0.068649828 0.76541048 720905
-0.092258967 0.080854245 0.90148348 786698
-0.083397344 0.080854245 0.90148348 786953
-0.076229714 0.082691841 0.92197174 786698
0 0 0 721673
0 0 0 721418
0 0 0 786953
0 0 0 786696
0 0 0 852490
0 0 0 852490
0 0 0 983562
0 0 0 852489
0 0 0 786696
0 0 0 918282
0 0 0 1115145
0 0 0 1377290
0 0 0 1378317
0.13929468 0.22740257 2.5354223 1378059
0.16421801 0.22740257 2.5354223 1640461
0.18914132 0.22740257 2.5354223 1771534
0.2283356 0.24256274 2.7044504 1640461
0.27312908 0.25988865 2.8976254 1312266
0.28150535 0.24256274 2.7044504 1180938
0.28883457 0.22740257 2.5354223 1180938
0.22818756 0.16538368 1.8439435 1049352
0.22578748 0.15160172 1.6902815 1115145
0.24240302 0.15160172 1.6902815 1838095
0 0 0 5056028
0 0 0 4989979
0 0 0 4859422
0 0 0 5122077
0 0 0 5779489
0.63156235 0.27988011 3.1205199 7554097
0.50641668 0.21402594 2.3862798 9592636
0.52987391 0.21402594 2.3862798 10380868
0.55333114 0.21402594 2.3862798 11234887
0.61283767 0.22740257 2.5354223 12813146
0.68027836 0.24256274 2.7044504 12751209
0.70686322 0.24256274 2.7044504 7947821
0.78583729 0.25988865 2.8976254 10314817
0.81432104 0.25988865 2.8976254 9261625
0.90763605 0.27988011 3.1205199 1049612
0 0 0 787466
0.62984073 0.18192206 2.028338 918283
0.61883748 0.17325909 1.9317503 918282
0.74413115 0.20213562 2.2537088 852744
0.81136078 0.21402594 2.3862798 1181196
0.83481801 0.21402594 2.3862798 1115660
0.58362716 0.14553764 1.6226703 1180684
0.71378344 0.17325909 1.9317503 1180681
0.85490143 0.20213562 2.2537088 918281
0.87705553 0.20213562 2.2537088 984075
0.89920956 0.20213562 2.2537088 983816
0.92136365 0.20213562 2.2537088 1114889
0.94351768 0.20213562 2.2537088 1114891
0.96567178 0.20213562 2.2537088 1313294
0.98782581 0.20213562 2.2537088 3021596
1.0099798 0.20213562 2.2537088 1772046
1.0321339 0.20213562 2.2537088 1180938
1.054288 0.20213562 2.2537088 1049352
1.076442 0.20213562 2.2537088 720903
1.0985961 0.20213562 2.2537088 786696
1.1207502 0.20213562 2.2537088 786696
1.0827513 0.19149691 2.1350925 984075
1.1037394 0.19149691 2.1350925 852746
1.1247275 0.19149691 2.1350925 852746
1.2093664 0.20213562 2.2537088 918282
1.3039628 0.21402594 2.3862798 852489
1.32742 0.21402594 2.3862798 852746
1.3508773 0.21402594 2.3862798 721419
1.2979827 0.20213562 2.2537088 787209
1.2506558 0.19149691 2.1350925 1640203
1.2080617 0.18192206 2.028338 7555898
1.2280003 0.18192206 2.028338 6833468
1.247939 0.18192206 2.028338 7424574
1.2678777 0.18192206 2.028338 8213570
1.2878163 0.18192206 2.028338 8146495
1.307755 0.18192206 2.028338 6767419
1.3276936 0.18192206 2.028338 8278853
1.2834592 0.17325909 1.9317503 8540738
1.3024484 0.17325909 1.9317503 3873306
1.3214376 0.17325909 1.9317503 2954006
1.4074482 0.18192206 2.028338 786696
1.5025125 0.19149691 2.1350925 655881
1.7027358 0.21402594 2.3862798 655880
1.3973943 0.17325909 1.9317503 590087
1.2932198 0.1581931 1.763772 655625
1.3105577 0.1581931 1.763772 721418
1.2725667 0.15160172 1.6902815 786698
1.237615 0.14553764 1.6226703 983561
1.2535659 0.14553764 1.6226703 852747
1.4426327 0.16538368 1.8439435 2037018
1.5303187 0.17325909 1.9317503 4074795
1.5493079 0.17325909 1.9317503 4469810
1.568297 0.17325909 1.9317503 4272947
1.515137 0.16538368 1.8439435 4075826
1.4665993 0.1581931 1.763772 3944240
1.4839373 0.1581931 1.763772 2102556
1.5695151 0.16538368 1.8439435 1181454
1.7464054 0.18192206 2.028338 787466
1.766344 0.18192206 2.028338 852490
1.7862827 0.18192206 2.028338 721674
1.7202107 0.17325909 1.9317503 918282
1.7391998 0.17325909 1.9317503 918282
1.758189 0.17325909 1.9317503 984077
1.8660372 0.18192206 2.028338 852489
1.8859758 0.18192206 2.028338 918283
1.7326494 0.16538368 1.8439435 918282
1.6048776 0.15160172 1.6902815 786954
1.6919928 0.1581931 1.763772 786953
1.6381086 0.15160172 1.6902815 721418
1.5885353 0.14553764 1.6226703 721675
1.6044862 0.14553764 1.6226703 918282
1.6204371 0.14553764 1.6226703 918282
1.6363881 0.14553764 1.6226703 1050122
1.652339 0.14553764 1.6226703 1050122
1.6041249 0.13994005 1.5602599 918282
1.6194624 0.13994005 1.5602599 918282
1.6347997 0.13994005 1.5602599 1049868
1.7161427 0.14553764 1.6226703 3283999
1.7320936 0.14553764 1.6226703 4532258
1.8208796 0.15160172 1.6902815 3679007
1.9173863 0.1581931 1.763772 1575185
1.9347242 0.1581931 1.763772 3809042
1.9520621 0.1581931 1.763772 7489326
2.0589182 0.16538368 1.8439435 7950394
2.0770445 0.16538368 1.8439435 8344638
2.1949403 0.17325909 1.9317503 8672575
2.2139297 0.17325909 1.9317503 8606525
2.2329187 0.17325909 1.9317503 8870210
2.2519081 0.17325909 1.9317503 9396292
2.2708972 0.17325909 1.9317503 9789252
2.2898865 0.17325909 1.9317503 9462344
2.3088756 0.17325909 1.9317503 9002053
2.3278649 0.17325909 1.9317503 9002053
2.7379966 0.20213562 2.2537088 8870722
2.9225123 0.21402594 2.3862798 9067843
0 0 0 9528136
0 0 0 9397061
0 0 0 9725001
0 0 0 9659723
0 0 0 9527883
0 0 0 9396553
0 0 0 9331272
0 0 0 4530709
0 0 0 1246726
-4.4014053 0.36701947 3.687887 1378317
-4.3651533 0.36701947 3.687887 1247500
-4.3289013 0.36701947 3.687887 2692375
-4.2926493 0.36701947 3.687887 3217174
-4.6820374 0.40372145 4.0566759 3283222
-4.6421599 0.40372145 4.0566759 3414037
-4.6022825 0.40372145 4.0566759 3545622
-4.5624051 0.40372145 4.0566759 3480086
-4.5225282 0.40372145 4.0566759 3479831
-4.4826508 0.40372145 4.0566759 3545626
-4.4427733 0.40372145 4.0566759 4006173
-4.4028959 0.40372145 4.0566759 4136987
-4.3630185 0.40372145 4.0566759 4267546
-4.3231416 0.40372145 4.0566759 3873301
-4.2832642 0.40372145 4.0566759 3545879
-4.2433867 0.40372145 4.0566759 3677720
-4.2035093 0.40372145 4.0566759 3611413
-4.1636324 0.40372145 4.0566759 3414293
-4.123755 0.40372145 4.0566759 2560529
-4.0838776 0.40372145 4.0566759 1180424
-4.4933338 0.44857937 4.5074177 1246732
-4.4490256 0.44857937 4.5074177 2232339
-4.4047174 0.44857937 4.5074177 1114889
-4.3604093 0.44857937 4.5074177 852489
-4.3161011 0.44857937 4.5074177 853002
-4.2717929 0.44857937 4.5074177 787724
-4.2274847 0.44857937 4.5074177 1049355
-4.183177 0.44857937 4.5074177 984075
-4.1388688 0.44857937 4.5074177 918282
-4.6063805 0.50465178 5.0708447 1115404
-4.5565338 0.50465178 5.0708447 984845
-4.5066872 0.50465178 5.0708447 1115403
-4.4568405 0.50465178 5.0708447 984074
-3.9173281 0.44857937 4.5074177 1115915
-3.8730199 0.44857937 4.5074177 1050122
-3.4458406 0.40372145 4.0566759 1312013
-3.4059634 0.40372145 4.0566759 1049098
-3.366086 0.40372145 4.0566759 720904
-3.6957874 0.44857937 4.5074177 721418
-3.6514795 0.44857937 4.5074177 720903
-3.6071713 0.44857937 4.5074177 721160
-3.5628631 0.44857937 4.5074177 851976
-3.5185549 0.44857937 4.5074177 983817
-3.474247 0.44857937 4.5074177 918281
-3.4299388 0.44857937 4.5074177 1049609
-3.3856306 0.44857937 4.5074177 1049353
-3.3413227 0.44857937 4.5074177 1049098
-3.2970145 0.44857937 4.5074177 984329
-3.2527063 0.44857937 4.5074177 984329
-3.2083981 0.44857937 4.5074177 786696
-3.1640902 0.44857937 4.5074177 721673
-3.5097547 0.50465178 5.0708447 852233
-3.459908 0.50465178 5.0708447 852489
-3.4100614 0.50465178 5.0708447 852743
-2.9868577 0.44857937 4.5074177 852489
-2.9425495 0.44857937 4.5074177 721675
-2.8982413 0.44857937 4.5074177 983305
-3.2106748 0.50465178 5.0708447 1049098
-3.1608281 0.50465178 5.0708447 786954
-3.1109815 0.50465178 5.0708447 1114891
-3.0611348 0.50465178 5.0708447 2691860
-3.0112882 0.50465178 5.0708447 4860198
-2.9614415 0.50465178 5.0708447 8540732
-3.3275371 0.57674485 5.7952509 9328957
-3.2705696 0.57674485 5.7952509 9526847
-3.2136018 0.57674485 5.7952509 9921090
-2.7620552 0.50465178 5.0708447 9855297
-2.7122085 0.50465178 5.0708447 9920319
-2.6623619 0.50465178 5.0708447 10184003
-2.6125152 0.50465178 5.0708447 9855297
-3.4168913 0.67286903 6.761126 9986882
0 0 0 9394485
0 0 0 1049868
0 0 0 918539
-0.38584197 0.082392126 0.82789302 984075
-0.36289182 0.079161063 0.79542661 656393
-0.34824443 0.077638738 0.78012997 787211
-0.34057572 0.077638738 0.78012997 655882
-0.33290702 0.077638738 0.78012997 721675
-0.31910172 0.076173849 0.76541048 1115917
-0.30024758 0.073403895 0.73757738 787467
-0.29299718 0.073403895 0.73757738 984075
-0.27572057 0.070828319 0.71169752 590602
-0.26872456 0.070828319 0.71169752 1312526
-0.26172853 0.070828319 0.71169752 918283
-0.25473252 0.070828319 0.71169752 786696
-0.24346517 0.069607139 0.69942683 852746
-0.23658976 0.069607139 0.69942683 655882
-0.22582091 0.068427362 0.68757218 721675
-0.22283897 0.069607139 0.69942683 787212
-0.21596357 0.069607139 0.69942683 655882
-0.20908818 0.069607139 0.69942683 2235173
-0.20221278 0.069607139 0.69942683 2233885
-0.19533738 0.069607139 0.69942683 2365213
-0.18526773 0.068427362 0.68757218 2364956
-0.1755337 0.067286901 0.67611259 2233628
-0.16888748 0.067286901 0.67611259 2102812
-0.16224127 0.067286901 0.67611259 2233626
-0.15559505 0.067286901 0.67611259 1838613
-0.15958804 0.072093107 0.72440636 852491
0 0 0 852491
0 0 0 786698
-0.14885791 0.077638738 0.78012997 524807
-0.14395761 0.079161063 0.79542661 590602
-0.13352048 0.077638738 0.78012997 655880
-0.12831944 0.079161063 0.79542661 524296
-0.1138059 0.074763231 0.75123626 590602
-0.10262046 0.072093107 0.72440636 590089
-0.093824089 0.070828319 0.71169752 786696
-0.086828068 0.070828319 0.71169752 655882
-0.081257619 0.072093107 0.72440636 590089
-0.075484611 0.073403895 0.73757738 655882
-0.07984852 0.085898168 0.86312246 720903
-0.076229714 0.091754869 0.92197174 786696
0 0 0 786953
0 0 0 786951
0 0 0 852489
0 0 0 721416
0 0 0 787210
0 0 0 787210
0 0 0 918023
-0.0068301349 0.16821726 1.6902815 852488
0.0097854082 0.16821726 1.6902815 983305
0.026400952 0.16821726 1.6902815 918282
0.044886775 0.17553104 1.763772 917512
0.071558453 0.20186073 2.028338 1180680
0.091497101 0.20186073 2.028338 1312267
0.11143576 0.20186073 2.028338 1312267
0.15455812 0.23748319 2.3862798 1443853
0.18914132 0.25232589 2.5354223 1640461
0.2446453 0.28837243 2.8976254 1443083
0.27312908 0.28837243 2.8976254 1180684
0.26391128 0.25232589 2.5354223 1378060
0.22006443 0.19224828 1.9317503 1049098
0.20917192 0.16821726 1.6902815 1114891
0.20841922 0.15527748 1.5602599 1115145
0.24240302 0.16821726 1.6902815 1246731
0 0 0 7030069
0 0 0 8014131
0 0 0 8407088
0 0 0 8407601
0.37197798 0.19224828 1.9317503 8539440
0.39096716 0.19224828 1.9317503 8868151
0.43045419 0.20186073 2.028338 8932914
0.50043648 0.22428969 2.2537088 8473136
0.47033152 0.20186073 2.028338 8474166
0.57678843 0.23748319 2.3862798 8276787
0.68027836 0.2691476 2.7044504 8013361
0.70686322 0.2691476 2.7044504 7487535
0.73344809 0.2691476 2.7044504 9525046
0.67061734 0.23748319 2.3862798 6633247
0.69407457 0.23748319 2.3862798 1180940
0.64200217 0.21248496 2.1350925 852489
0.52486724 0.16821726 1.6902815 721673
0.54148281 0.16821726 1.6902815 983819
0.55809832 0.16821726 1.6902815 1509904
0.55172533 0.16148856 1.6226703 1772046
0.54584259 0.15527748 1.5602599 1705997
0.56118 0.15527748 1.5602599 1838095
0.59957808 0.16148856 1.6226703 1705996
0.8099066 0.21248496 2.1350925 1706509
0.87705553 0.22428969 2.2537088 1772045
0.89920956 0.22428969 2.2537088 1574924
0.92136365 0.22428969 2.2537088 1312523
0.89385885 0.21248496 2.1350925 918282
0.86910456 0.20186073 2.028338 1049098
0.88904321 0.20186073 2.028338 1115145
1.0099798 0.22428969 2.2537088 852491
0.88468617 0.19224828 1.9317503 1115145
0.86259919 0.18350974 1.8439435 852489
0.88072526 0.18350974 1.8439435 721673
0.82394701 0.16821726 1.6902815 984075
0.84056258 0.16821726 1.6902815 3219489
0.85717809 0.16821726 1.6902815 2956061
0.95322943 0.18350974 1.8439435 2758684
1.0176105 0.19224828 1.9317503 2758427
1.1457155 0.21248496 2.1350925 2364184
1.2315204 0.22428969 2.2537088 1378575
1.32742 0.23748319 2.3862798 787210
1.3508773 0.23748319 2.3862798 853260
1.2979827 0.22428969 2.2537088 852491
1.2506558 0.21248496 2.1350925 1705996
1.2716439 0.21248496 2.1350925 6897710
1.2280003 0.20186073 2.028338 6374966
1.247939 0.20186073 2.028338 7162429
1.2678777 0.20186073 2.028338 8409152
1.2878163 0.20186073 2.028338 7885377
1.307755 0.20186073 2.028338 7294528
1.26447 0.19224828 1.9317503 7162687
1.2834592 0.19224828 1.9317503 7161661
1.3024484 0.19224828 1.9317503 3807513
1.3214376 0.19224828 1.9317503 3348248
1.3404268 0.19224828 1.9317503 983561
1.359416 0.19224828 1.9317503 590088
1.3784052 0.19224828 1.9317503 590088
1.3973943 0.19224828 1.9317503 655367
1.2393357 0.16821726 1.6902815 721161
1.2559512 0.16821726 1.6902815 655881
1.3278956 0.17553104 1.763772 786439
1.3452337 0.17553104 1.763772 786698
1.4923403 0.19224828 1.9317503 1049098
1.5113295 0.19224828 1.9317503 2758938
1.5303187 0.19224828 1.9317503 6701362
1.5493079 0.19224828 1.9317503 7160882
1.568297 0.19224828 1.9317503 7950396
1.5872862 0.19224828 1.9317503 8476224
1.6062754 0.19224828 1.9317503 8082235
1.6252646 0.19224828 1.9317503 7161913
1.6442538 0.19224828 1.9317503 4925996
1.6632431 0.19224828 1.9317503 1115408
1.6822323 0.19224828 1.9317503 983819
1.7862827 0.20186073 2.028338 852489
1.7202107 0.19224828 1.9317503 852746
1.6601453 0.18350974 1.8439435 655882
1.605303 0.17553104 1.763772 721675
1.622641 0.17553104 1.763772 852491
1.7961674 0.19224828 1.9317503 852489
1.588262 0.16821726 1.6902815 983562
1.6048776 0.16821726 1.6902815 721417
1.6214931 0.16821726 1.6902815 1049868
1.5725844 0.16148856 1.6226703 984075
1.5885353 0.16148856 1.6226703 984075
1.6044862 0.16148856 1.6226703 918282
1.6204371 0.16148856 1.6226703 852489
1.6363881 0.16148856 1.6226703 1115145
1.652339 0.16148856 1.6226703 983559
1.6041249 0.15527748 1.5602599 852489
1.5594822 0.14952646 1.5024725 1049098
1.7001917 0.16148856 1.6226703 1246731
1.7161427 0.16148856 1.6226703 5649959
1.8827103 0.17553104 1.763772 8214331
1.9000483 0.17553104 1.763772 7886665
1.9173863 0.17553104 1.763772 2035989
1.9347242 0.17553104 1.763772 2099458
1.8707262 0.16821726 1.6902815 8674114
1.9694002 0.17553104 1.763772 9133894
2.0770445 0.18350974 1.8439435 8541762
2.1949403 0.19224828 1.9317503 8344129
2.2139297 0.19224828 1.9317503 8015162
2.2329187 0.19224828 1.9317503 8015419
2.2519081 0.19224828 1.9317503 8475709
2.3844423 0.20186073 2.028338 8608580
2.4043808 0.20186073 2.028338 8871752
2.3088756 0.19224828 1.9317503 8870728
2.3278649 0.19224828 1.9317503 8805446
2.7379966 0.22428969 2.2537088 8673603
2.9225123 0.23748319 2.3862798 8804932
0 0 0 9199175
0 0 0 9330760
0 0 0 9527882
0 0 0 9789256
0 0 0 9330248
0 0 0 9002054
0 0 0 9198918
0 0 0 4728083
0 0 0 1378053
-4.0346217 0.36966559 3.380563 1443853
-4.3651533 0.40327156 3.687887 1575438
-4.3289013 0.40327156 3.687887 3086361
-4.2926493 0.40327156 3.687887 3743004
-4.6820374 0.44359875 4.0566759 3743002
-4.6421599 0.44359875 4.0566759 3743257
-4.6022825 0.44359875 4.0566759 3545878
-4.5624051 0.44359875 4.0566759 3809050
-4.5225282 0.44359875 4.0566759 3480601
-4.4826508 0.44359875 4.0566759 3480601
-4.4427733 0.44359875 4.0566759 3283222
-4.4028959 0.44359875 4.0566759 3611158
-4.3630185 0.44359875 4.0566759 3808023
-4.3231416 0.44359875 4.0566759 3545622
-4.2832642 0.44359875 4.0566759 3545623
-3.8576241 0.40327156 3.687887 3414037
-3.821372 0.40327156 3.687887 3216659
-4.1636324 0.44359875 4.0566759 3151380
-4.123755 0.44359875 4.0566759 2428431
-4.0838776 0.44359875 4.0566759 1049095
-4.0440001 0.44359875 4.0566759 1049353
-4.4490256 0.4928875 4.5074177 1181197
-4.4047174 0.4928875 4.5074177 852489
-4.3604093 0.4928875 4.5074177 918282
-4.3161011 0.4928875 4.5074177 918536
-4.2717929 0.4928875 4.5074177 984075
-4.2274847 0.4928875 4.5074177 1114891
-4.183177 0.4928875 4.5074177 1115661
-4.1388688 0.4928875 4.5074177 1246731
-4.0945606 0.4928875 4.5074177 1181196
-4.0502524 0.4928875 4.5074177 1181194
-4.5066872 0.55449843 5.0708447 1181451
-3.9616363 0.4928875 4.5074177 1181194
-3.9173281 0.4928875 4.5074177 1180938
-3.8730199 0.4928875 4.5074177 1115145
-3.8287117 0.4928875 4.5074177 852743
-3.7844038 0.4928875 4.5074177 984075
-3.7400956 0.4928875 4.5074177 918539
-3.3262088 0.44359875 4.0566759 852743
-3.2863314 0.44359875 4.0566759 655880
-3.6071713 0.4928875 4.5074177 786950
-3.5628631 0.4928875 4.5074177 852232
-3.5185549 0.4928875 4.5074177 1180939
-3.474247 0.4928875 4.5074177 1180684
-3.4299388 0.4928875 4.5074177 917768
-3.3856306 0.4928875 4.5074177 786698
-3.3413227 0.4928875 4.5074177 853004
-3.2970145 0.4928875 4.5074177 918281
-3.2527063 0.4928875 4.5074177 918025
-3.2083981 0.4928875 4.5074177 852745
-3.1640902 0.4928875 4.5074177 1115661
-3.119782 0.4928875 4.5074177 918281
-3.0754738 0.4928875 4.5074177 853259
-3.0311658 0.4928875 4.5074177 984074
-2.9868577 0.4928875 4.5074177 1050122
-2.9425495 0.4928875 4.5074177 984075
-2.8982413 0.4928875 4.5074177 1115661
-3.2106748 0.55449843 5.0708447 1180938
-3.1608281 0.55449843 5.0708447 1115661
-3.1109815 0.55449843 5.0708447 984845
-3.0611348 0.55449843 5.0708447 2823185
-3.0112882 0.55449843 5.0708447 3482141
-2.9614415 0.55449843 5.0708447 8080697
-3.3275371 0.63371247 5.7952509 8409655
-3.2705696 0.63371247 5.7952509 9000506
-3.2136018 0.63371247 5.7952509 9329726
-3.1566343 0.63371247 5.7952509 9790274
-2.7122085 0.55449843 5.0708447 9263933
-2.6623619 0.55449843 5.0708447 7621166
-2.6125152 0.55449843 5.0708447 8344377
0 0 0 9460800
0 0 0 4989712
0 0 0 1049868
0 0 0 852746
-0.38584197 0.090530351 0.82789302 1049870
-0.36289182 0.086980142 0.79542661 852489
-0.34824443 0.085307449 0.78012997 721162
-0.34057572 0.085307449 0.78012997 590602
-0.33290702 0.085307449 0.78012997 786698
-0.30749801 0.080654308 0.73757738 721675
-0.29488602 0.079214059 0.72440636 918540
-0.2827166 0.077824339 0.71169752 1049869
-0.27572057 0.077824339 0.71169752 1248020
-0.26872456 0.077824339 0.71169752 3023399
-0.26172853 0.077824339 0.71169752 2036759
-0.25473252 0.077824339 0.71169752 655881
-0.24346517 0.076482534 0.69942683 786954
-0.23257978 0.07518623 0.68757218 787209
-0.22582091 0.07518623 0.68757218 852489
-0.22283897 0.076482534 0.69942683 918284
-0.21230319 0.07518623 0.68757218 786698
-0.20908818 0.076482534 0.69942683 852491
-0.20221278 0.076482534 0.69942683 1049616
-0.19533738 0.076482534 0.69942683 1641236
-0.18217991 0.073933117 0.67611259 2299419
-0.1755337 0.073933117 0.67611259 2299162
-0.16888748 0.073933117 0.67611259 1905174
-0.16224127 0.073933117 0.67611259 2035992
-0.15559505 0.073933117 0.67611259 983816
-0.154085 0.076482534 0.69942683 655882
0 0 0 721675
-0.15959577 0.086980142 0.79542661 852489
-0.14885791 0.085307449 0.78012997 655882
-0.1411892 0.085307449 0.78012997 590089
-0.13352048 0.085307449 0.78012997 590089
-0.12119059 0.082147911 0.75123626 590089
-0.1138059 0.082147911 0.75123626 720903
-0.10262046 0.079214059 0.72440636 655882
-0.093824089 0.077824339 0.71169752 655882
-0.08533103 0.076482534 0.69942683 590089
-0.078455634 0.076482534 0.69942683 720903
-0.071580231 0.076482534 0.69942683 721673
-0.067015722 0.079214059 0.72440636 590087
0 0 0 590089
0 0 0 590089
0 0 0 786696
0 0 0 852489
0 0 0 852488
0 0 0 786953
0 0 0 918282
0 0 0 852743
-0.0068301349 0.1848328 1.6902815 852743
0.0093939919 0.1774395 1.6226703 852489
0.026400952 0.1848328 1.6902815 1049098
0.043016493 0.1848328 1.6902815 983305
0.059632037 0.1848328 1.6902815 1115145
0.079562694 0.19286901 1.763772 1180681
0.096900649 0.19286901 1.763772 1114888
0.11943127 0.20163578 1.8439435 1115145
0.17801537 0.26094043 2.3862798 1180681
0.21406464 0.27724922 2.5354223 1115145
0.23898795 0.27724922 2.5354223 918282
0.20107524 0.21123749 1.9317503 787466
0.19255638 0.1848328 1.6902815 852489
0.19308178 0.1706149 1.5602599 918536
0.22578748 0.1848328 1.6902815 1049098
0 0 0 1180938
0 0 0 4664362
0 0 0 8144428
0 0 0 8145198
0 0 0 8145199
0.30044377 0.1706149 1.5602599 8538931
0.35697001 0.19286901 1.763772 8735794
0.40995637 0.21123749 1.9317503 9064500
0.42894554 0.21123749 1.9317503 9262390
0.44793475 0.21123749 1.9317503 9852471
0.46692392 0.21123749 1.9317503 9787964
0 0 0 9524792
0 0 0 9787964
0.64716011 0.26094043 2.3862798 9853498
0.45601982 0.1774395 1.6226703 2362379
0.47197074 0.1774395 1.6226703 1180938
0.45177931 0.16429582 1.5024725 983818
0.4343729 0.15296507 1.3988537 917769
0.44812369 0.15296507 1.3988537 918026
0.46187449 0.15296507 1.3988537 918281
0.49261189 0.15842812 1.4488127 984074
0.50685376 0.15842812 1.4488127 1049097
0.56118 0.1706149 1.5602599 1049098
0.5765174 0.1706149 1.5602599 1049355
0.76941133 0.22179937 2.028338 1049098
0.87705553 0.24644375 2.2537088 918536
0.8518827 0.23347302 2.1350925 918025
0.8728708 0.23347302 2.1350925 983305
0.84916592 0.22179937 2.028338 852489
0.82771862 0.21123749 1.9317503 852489
0.84670776 0.21123749 1.9317503 918282
0.79041898 0.19286901 1.763772 852490
0.77410042 0.1848328 1.6902815 984075
0.79071593 0.1848328 1.6902815 786950
0.8073315 0.1848328 1.6902815 590089
0.82394701 0.1848328 1.6902815 1246477
0.80694008 0.1774395 1.6226703 4531484
0.822891 0.1774395 1.6226703 4597022
0.83884192 0.1774395 1.6226703 4531486
0.9713555 0.20163578 1.8439435 4203293
1.0365998 0.21123749 1.9317503 2429201
1.1667036 0.23347302 2.1350925 2496024
1.2536745 0.24644375 2.2537088 2298646
1.2758286 0.24644375 2.2537088 3152412
1.2979827 0.24644375 2.2537088 3283483
1.2506558 0.23347302 2.1350925 2560273
1.2716439 0.23347302 2.1350925 4070937
1.2926319 0.23347302 2.1350925 4530972
1.247939 0.22179937 2.028338 4530720
1.2678777 0.22179937 2.028338 4464662
1.2878163 0.22179937 2.028338 4727834
1.307755 0.22179937 2.028338 4662556
1.26447 0.21123749 1.9317503 4728347
1.2834592 0.21123749 1.9317503 5254948
1.3024484 0.21123749 1.9317503 3347988
1.3214376 0.21123749 1.9317503 2954261
1.3404268 0.21123749 1.9317503 1771790
1.359416 0.21123749 1.9317503 1444110
1.3784052 0.21123749 1.9317503 1575952
1.3973943 0.21123749 1.9317503 1772818
1.2932198 0.19286901 1.763772 1379087
1.3105577 0.19286901 1.763772 1313294
1.4543619 0.21123749 1.9317503 1378833
1.4733511 0.21123749 1.9317503 1247247
1.6494288 0.23347302 2.1350925 1312524
1.5868961 0.22179937 2.028338 2364182
1.6068348 0.22179937 2.028338 5978414
1.5493079 0.21123749 1.9317503 7950400
1.568297 0.21123749 1.9317503 6699827
1.5872862 0.21123749 1.9317503 6766132
1.6062754 0.21123749 1.9317503 6963505
1.6252646 0.21123749 1.9317503 7160630
1.6442538 0.21123749 1.9317503 5189166
1.5186132 0.19286901 1.763772 1049359
1.5359511 0.19286901 1.763772 786698
1.7012215 0.21123749 1.9317503 852748
1.7202107 0.21123749 1.9317503 852489
1.6601453 0.20163578 1.8439435 918282
1.605303 0.19286901 1.763772 1049868
1.5550309 0.1848328 1.6902815 1115661
1.5716465 0.1848328 1.6902815 1049868
1.588262 0.1848328 1.6902815 984075
1.6048776 0.1848328 1.6902815 852489
1.6214931 0.1848328 1.6902815 852489
1.5725844 0.1774395 1.6226703 852489
1.5885353 0.1774395 1.6226703 852489
1.6044862 0.1774395 1.6226703 852489
1.6204371 0.1774395 1.6226703 852746
1.6363881 0.1774395 1.6226703 852489
1.652339 0.1774395 1.6226703 1049352
1.6682899 0.1774395 1.6226703 983559
1.6194624 0.1706149 1.5602599 918282
1.7001917 0.1774395 1.6226703 984075
1.7161427 0.1774395 1.6226703 3544343
1.8827103 0.19286901 1.763772 3939601
1.9000483 0.19286901 1.763772 8146496
1.9173863 0.19286901 1.763772 3218463
1.8541107 0.1848328 1.6902815 2955025
1.8707262 0.1848328 1.6902815 8345407
1.8873417 0.1848328 1.6902815 9264706
2.0770445 0.20163578 1.8439435 9198917
2.1949403 0.21123749 1.9317503 9199690
2.2139297 0.21123749 1.9317503 8937034
2.2329187 0.21123749 1.9317503 7883835
2.2519081 0.21123749 1.9317503 7489334
2.3844423 0.22179937 2.028338 7621429
2.2898865 0.21123749 1.9317503 8016444
2.3088756 0.21123749 1.9317503 8475711
2.4442582 0.22179937 2.028338 8409917
2.7379966 0.24644375 2.2537088 8475965
3.1051693 0.27724922 2.5354223 8673344
4.1734567 0.36966559 3.380563 8870721
0 0 0 9134154
0 0 0 9134154
0 0 0 9264713
0 0 0 9396299
0 0 0 9264712
0 0 0 9330505
0 0 0 4794133
0 0 0 1444100
-4.0346217 0.40289667 3.380563 1312524
-4.0013905 0.40289667 3.380563 1246730
-3.9681594 0.40289667 3.380563 2888983
-4.2926493 0.43952367 3.687887 3283222
-4.2563972 0.43952367 3.687887 3282963
-4.6421599 0.48347604 4.0566759 3282964
-4.6022825 0.48347604 4.0566759 3282708
-4.5624051 0.48347604 4.0566759 3282965
-4.5225282 0.48347604 4.0566759 3217172
