# .PCD v0.7 - Point Cloud Data file format
VERSION 0.7
FIELDS x y z rgb
SIZE 4 4 4 4
TYPE F F F U
COUNT 1 1 1 1
WIDTH 1297
HEIGHT 1
VIEWPOINT 0 0 0 1 0 0 0
POINTS 1297
DATA ascii
2.312624 0.096739762 2.3862798 787468
2.3360813 0.096739762 2.3862798 787468
2.3595386 0.096739762 2.3862798 918282
2.3829956 0.096739762 2.3862798 918282
2.4064529 0.096739762 2.3862798 1115661
2.4299102 0.096739762 2.3862798 918282
1.8957839 0.074753448 1.8439435 984075
1.8306965 0.071503296 1.763772 984075
1.932036 0.074753448 1.8439435 1378063
1.9501621 0.074753448 1.8439435 6636598
2.062016 0.078313135 1.9317503 9659458
2.3000586 0.086556628 2.1350925 10381641
2.594111 0.096739762 2.3862798 10118987
2.617568 0.096739762 2.3862798 9396038
2.6410253 0.096739762 2.3862798 9264965
2.6644826 0.096739762 2.3862798 9265479
2.8559361 0.102786 2.5354223 9396549
2.8808594 0.102786 2.5354223 9790020
2.7348542 0.096739762 2.3862798 10250570
2.605072 0.09136533 2.2537088 10185034
2.2519081 0.078313135 1.9317503 10447949
2.2708972 0.078313135 1.9317503 10644559
2.2898865 0.078313135 1.9317503 10250318
2.3088756 0.078313135 1.9317503 10053711
2.3278649 0.078313135 1.9317503 9857101
2.4641969 0.082228802 2.028338 9790281
0 0 0 10119502
0 0 0 10119502
0 0 0 10119246
0 0 0 10381902
0 0 0 10316364
0 0 0 10381389
0 0 0 10052941
0 0 0 10053199
0 0 0 3874581
0 0 0 1181450
-4.0346217 0.17027907 3.380563 1509902
-4.0013905 0.17027907 3.380563 1838095
-4.3289013 0.18575899 3.687887 2889497
-4.2926493 0.18575899 3.687887 3217429
-4.2563972 0.18575899 3.687887 3282966
-4.2201452 0.18575899 3.687887 3283222
-4.1838932 0.18575899 3.687887 3479831
-4.1476407 0.18575899 3.687887 3545365
-4.5225282 0.2043349 4.0566759 3480085
-4.4826508 0.2043349 4.0566759 3480085
-4.4427733 0.2043349 4.0566759 3611158
-4.0026326 0.18575899 3.687887 3610902
-3.9663804 0.18575899 3.687887 3676440
-3.9301283 0.18575899 3.687887 3611417
-3.8938763 0.18575899 3.687887 3545624
-3.8576241 0.18575899 3.687887 3545624
-3.821372 0.18575899 3.687887 3545878
-3.78512 0.18575899 3.687887 3545878
-3.7488678 0.18575899 3.687887 2822158
-3.7126157 0.18575899 3.687887 2495509
-3.6763637 0.18575899 3.687887 2560785
-4.4490256 0.22703879 4.5074177 1114885
-4.4047174 0.22703879 4.5074177 983561
-4.3604093 0.22703879 4.5074177 1838866
-4.3161011 0.22703879 4.5074177 2495508
-4.2717929 0.22703879 4.5074177 1509386
-4.2274847 0.22703879 4.5074177 984074
-4.183177 0.22703879 4.5074177 853259
-4.1388688 0.22703879 4.5074177 918282
-3.6851046 0.2043349 4.0566759 852745
-3.6452272 0.2043349 4.0566759 917769
-4.0059443 0.22703879 4.5074177 786953
-3.9616363 0.22703879 4.5074177 1049868
-3.9173281 0.22703879 4.5074177 1115917
-4.3571472 0.25541863 5.0708447 918538
-4.3073006 0.25541863 5.0708447 984075
-4.2574539 0.25541863 5.0708447 984075
-4.2076073 0.25541863 5.0708447 853002
-4.1577606 0.25541863 5.0708447 918538
-4.107914 0.25541863 5.0708447 786696
-3.6071713 0.22703879 4.5074177 852489
-3.5628631 0.22703879 4.5074177 2299935
-3.9583743 0.25541863 5.0708447 4073766
-3.9085276 0.25541863 5.0708447 4795685
-3.858681 0.25541863 5.0708447 5649703
-3.8088343 0.25541863 5.0708447 6701362
-3.7589877 0.25541863 5.0708447 6701356
-3.709141 0.25541863 5.0708447 6964271
-3.6592944 0.25541863 5.0708447 4659468
-3.6094477 0.25541863 5.0708447 4394000
-4.0681157 0.29190698 5.7952509 3934476
-4.6796727 0.34055814 6.761126 1311753
-4.6132107 0.34055814 6.761126 918536
-3.8972127 0.29190698 5.7952509 918536
-3.8402452 0.29190698 5.7952509 1443339
-3.7832778 0.29190698 5.7952509 1443082
-3.2605214 0.25541863 5.0708447 1312267
-3.2106748 0.25541863 5.0708447 1903118
-2.8096251 0.22703879 4.5074177 1706511
-2.765317 0.22703879 4.5074177 1181456
-2.721009 0.22703879 4.5074177 7098441
-2.6767008 0.22703879 4.5074177 10709323
-2.6323926 0.22703879 4.5074177 11104590
-2.9115949 0.25541863 5.0708447 11367500
-2.8617485 0.25541863 5.0708447 11235916
-2.8119018 0.25541863 5.0708447 11104585
-3.1566343 0.29190698 5.7952509 11368014
-3.0996668 0.29190698 5.7952509 11169608
-3.0426991 0.29190698 5.7952509 11498316
-2.9857316 0.29190698 5.7952509 11564107
-2.9287641 0.29190698 5.7952509 11367243
-2.8717964 0.29190698 5.7952509 8474419
-2.8148289 0.29190698 5.7952509 9133376
-2.7578614 0.29190698 5.7952509 9724996
0 0 0 9724481
0 0 0 9330754
0 0 0 7686190
0 0 0 8475709
0 0 0 9921865
-0.40267596 0.048651166 0.96587515 9789504
-0.38403764 0.047519743 0.94341296 983813
-0.37476385 0.047519743 0.94341296 1378833
-0.35718346 0.046439748 0.92197174 1378573
-0.34812042 0.046439748 0.92197174 1247247
-0.29837051 0.040866978 0.81133515 1313040
-0.29039505 0.040866978 0.81133515 984589
-0.28241959 0.040866978 0.81133515 1246477
-0.26906288 0.040065665 0.79542661 1050381
-0.25621989 0.039295174 0.78012997 2299163
-0.24855117 0.039295174 0.78012997 2957350
-0.24088246 0.039295174 0.78012997 1510673
-0.23778656 0.040065665 0.79542661 852489
-0.22554503 0.039295174 0.78012997 983562
-0.21787633 0.039295174 0.78012997 918027
-0.21020761 0.039295174 0.78012997 721161
-0.20253889 0.039295174 0.78012997 721418
-0.19487019 0.039295174 0.78012997 918284
-0.18720147 0.039295174 0.78012997 918282
-0.183053 0.040065665 0.79542661 852489
-0.16862132 0.038553752 0.76541048 852491
-0.1610973 0.038553752 0.76541048 852491
-0.15357327 0.038553752 0.76541048 852491
-0.14604926 0.038553752 0.76541048 852491
-0.1411892 0.039295174 0.78012997 786696
-0.13352048 0.039295174 0.78012997 721675
-0.13355698 0.041701 0.82789302 656395
-0.11173671 0.037151799 0.73757738 786696
-0.10448629 0.037151799 0.73757738 852489
0 0 0 918282
0 0 0 852491
-0.16853432 0.075679593 1.5024725 983307
-0.071580231 0.035230152 0.69942683 590089
-0.064704835 0.035230152 0.69942683 786698
-0.058843996 0.03584823 0.71169752 852491
-0.05277383 0.036488373 0.72440636 786696
-0.046482936 0.037151799 0.73757738 721418
-0.039232515 0.037151799 0.73757738 655625
-0.031982098 0.037151799 0.73757738 721161
-0.024290042 0.036488373 0.72440636 721160
-0.017169096 0.036488373 0.72440636 917769
-0.010048147 0.036488373 0.72440636 983306
-0.0029272006 0.036488373 0.72440636 721675
0.0042699962 0.037151799 0.73757738 984075
0.011955148 0.038553752 0.76541048 1114891
0 0 0 1443853
0 0 0 1772047
0 0 0 5385504
0 0 0 5712668
0 0 0 5581600
0 0 0 5844000
0 0 0 4003861
0 0 0 1968913
0 0 0 2428690
0 0 0 2166288
0 0 0 1970196
0.67736244 0.25541863 5.0708447 2166803
0.72720903 0.25541863 5.0708447 1904401
0.77705568 0.25541863 5.0708447 1903632
0.82690233 0.25541863 5.0708447 2101523
0.77933246 0.22703879 4.5074177 2232596
0.92659557 0.25541863 5.0708447 2166801
0.86794865 0.22703879 4.5074177 2428944
1.0262889 0.25541863 5.0708447 5452323
1.0761355 0.25541863 5.0708447 8673603
1.125982 0.25541863 5.0708447 10185293
1.1758287 0.25541863 5.0708447 10776397
1.2256753 0.25541863 5.0708447 11104848
1.1337974 0.22703879 4.5074177 12024149
1.060295 0.2043349 4.0566759 12813145
1.1001723 0.2043349 4.0566759 12944731
1.1400496 0.2043349 4.0566759 10115389
0.90763605 0.1571807 3.1205199 1115917
0.93831086 0.1571807 3.1205199 1050124
0.96898574 0.1571807 3.1205199 1180941
0.86637247 0.13622326 2.7044504 1246989
0.95674002 0.14595349 2.8976254 1575952
0.91954219 0.13622326 2.7044504 1575953
1.0137075 0.14595349 2.8976254 1510416
0.85827523 0.120197 2.3862798 1576209
0.88173252 0.120197 2.3862798 1510160
0.85490143 0.11351939 2.2537088 1312524
0.83089465 0.10754468 2.1350925 1312524
0.89920956 0.11351939 2.2537088 1246731
0.92136365 0.11351939 2.2537088 1181195
0.94351768 0.11351939 2.2537088 1312523
0.96567178 0.11351939 2.2537088 1180938
1.0459331 0.120197 2.3862798 1115145
1.0693904 0.120197 2.3862798 1180938
1.1611506 0.12770931 2.5354223 1115145
1.1860739 0.12770931 2.5354223 1246730
1.2109972 0.12770931 2.5354223 1312524
1.2359205 0.12770931 2.5354223 1246731
1.1866766 0.120197 2.3862798 1049868
1.2101338 0.120197 2.3862798 786696
1.2335911 0.120197 2.3862798 721675
1.4246547 0.13622326 2.7044504 787468
1.4512396 0.13622326 2.7044504 852489
1.3039628 0.120197 2.3862798 852491
1.2536745 0.11351939 2.2537088 983305
1.1482457 0.10216745 2.028338 787466
1.1681844 0.10216745 2.028338 721673
1.188123 0.10216745 2.028338 984329
1.2080617 0.10216745 2.028338 1247244
1.2926319 0.10754468 2.1350925 1181454
1.31362 0.10754468 2.1350925 1181708
1.2678777 0.10216745 2.028338 984329
1.2878163 0.10216745 2.028338 853002
1.2454808 0.097302333 1.9317503 983559
1.26447 0.097302333 1.9317503 1246988
1.2834592 0.097302333 1.9317503 1378314
1.3675709 0.10216745 2.028338 1509643
1.3875096 0.10216745 2.028338 1049608
1.4074482 0.10216745 2.028338 721417
1.2976243 0.092879497 1.8439435 590089
1.3157504 0.092879497 1.8439435 721418
1.3338765 0.092879497 1.8439435 721417
1.4163835 0.097302333 1.9317503 655881
1.5071415 0.10216745 2.028338 786697
1.5270802 0.10216745 2.028338 852489
1.4733511 0.097302333 1.9317503 786697
1.4245067 0.092879497 1.8439435 786953
1.5113295 0.097302333 1.9317503 721161
1.6914049 0.10754468 2.1350925 787467
1.7123929 0.10754468 2.1350925 852489
1.733381 0.10754468 2.1350925 852491
1.5872862 0.097302333 1.9317503 853004
1.4665993 0.088841259 1.763772 918282
1.4839373 0.088841259 1.763772 721675
1.5012753 0.088841259 1.763772 721673
1.5876411 0.092879497 1.8439435 787209
1.6057671 0.092879497 1.8439435 852489
1.6238931 0.092879497 1.8439435 918282
1.6420193 0.092879497 1.8439435 787466
1.7391998 0.097302333 1.9317503 918282
2.0512207 0.11351939 2.2537088 852489
2.1953378 0.120197 2.3862798 852489
2.2187951 0.120197 2.3862798 852489
2.2422523 0.120197 2.3862798 918282
2.2657096 0.120197 2.3862798 1049355
2.2891667 0.120197 2.3862798 787466
2.4571631 0.12770931 2.5354223 918282
2.3360813 0.120197 2.3862798 918282
2.3595386 0.120197 2.3862798 984077
2.2506073 0.11351939 2.2537088 918284
2.4064529 0.120197 2.3862798 984075
2.2949152 0.11351939 2.2537088 1049098
1.8957839 0.092879497 1.8439435 1049613
1.7544174 0.085139535 1.6902815 1115404
1.7710329 0.085139535 1.6902815 1312782
1.8653724 0.088841259 1.763772 5848368
1.9682881 0.092879497 1.8439435 9330752
2.1850557 0.10216745 2.028338 10316618
2.3210466 0.10754468 2.1350925 9856072
2.617568 0.120197 2.3862798 9395267
2.6410253 0.120197 2.3862798 9001280
2.6644826 0.120197 2.3862798 9067332
2.6879399 0.120197 2.3862798 9593413
2.7113969 0.120197 2.3862798 9855556
2.7348542 0.120197 2.3862798 9987397
2.2329187 0.097302333 1.9317503 10184776
2.2519081 0.097302333 1.9317503 10447178
2.2708972 0.097302333 1.9317503 10709325
2.2898865 0.097302333 1.9317503 10119761
2.3088756 0.097302333 1.9317503 10118219
2.3278649 0.097302333 1.9317503 9593928
2.4641969 0.10216745 2.028338 9528649
0 0 0 9791050
0 0 0 9987915
0 0 0 10118988
0 0 0 10381389
0 0 0 10118987
0 0 0 10445901
0 0 0 10249804
0 0 0 9987402
0 0 0 3874582
0 0 0 1312523
-4.0346217 0.20351017 3.380563 1509902
-4.0013905 0.20351017 3.380563 1772559
-4.3289013 0.22201109 3.687887 2824473
-4.2926493 0.22201109 3.687887 3349015
-4.2563972 0.22201109 3.687887 3414810
-4.2201452 0.22201109 3.687887 3676181
-4.1838932 0.22201109 3.687887 3479831
-4.1476407 0.22201109 3.687887 3611158
-4.5225282 0.24421221 4.0566759 3676951
-4.4826508 0.24421221 4.0566759 3611414
-4.0388846 0.22201109 3.687887 3677463
-4.0026326 0.22201109 3.687887 3743000
-3.9663804 0.22201109 3.687887 3611159
-3.9301283 0.22201109 3.687887 3743001
-3.8938763 0.22201109 3.687887 3676693
-3.8576241 0.22201109 3.687887 3742743
-3.821372 0.22201109 3.687887 3611413
-3.78512 0.22201109 3.687887 3677463
-3.7488678 0.22201109 3.687887 2822671
-3.7126157 0.22201109 3.687887 1904401
-4.0440001 0.24421221 4.0566759 2430488
-4.4490256 0.2713469 4.5074177 2232594
-4.4047174 0.2713469 4.5074177 2758937
-4.3604093 0.2713469 4.5074177 1574921
-4.3161011 0.2713469 4.5074177 1115401
-4.2717929 0.2713469 4.5074177 984329
-4.2274847 0.2713469 4.5074177 918282
-4.183177 0.2713469 4.5074177 852489
-4.1388688 0.2713469 4.5074177 852491
-3.6851046 0.24421221 4.0566759 721673
-3.6452272 0.24421221 4.0566759 852489
-4.0059443 0.2713469 4.5074177 918282
-3.9616363 0.2713469 4.5074177 853258
-3.9173281 0.2713469 4.5074177 918537
-4.3571472 0.30526525 5.0708447 984075
-4.3073006 0.30526525 5.0708447 984075
-4.2574539 0.30526525 5.0708447 1115145
-4.2076073 0.30526525 5.0708447 984075
-4.1577606 0.30526525 5.0708447 984073
-3.6514795 0.2713469 4.5074177 787466
-3.6071713 0.2713469 4.5074177 984077
-3.5628631 0.2713469 4.5074177 2232855
-3.9583743 0.30526525 5.0708447 2823960
-3.9085276 0.30526525 5.0708447 3414295
-3.858681 0.30526525 5.0708447 4269084
-3.8088343 0.30526525 5.0708447 4662813
-3.7589877 0.30526525 5.0708447 5188125
-3.709141 0.30526525 5.0708447 4662810
-3.6592944 0.30526525 5.0708447 3742743
-3.6094477 0.30526525 5.0708447 3347731
-4.0681157 0.34887457 5.7952509 3085845
-4.6796727 0.40702033 6.761126 1377803
-4.6132107 0.40702033 6.761126 1115145
-3.4100614 0.30526525 5.0708447 1246731
-3.3602147 0.30526525 5.0708447 1114890
-3.3103681 0.30526525 5.0708447 984075
-3.2605214 0.30526525 5.0708447 918282
-2.8539333 0.2713469 4.5074177 1049868
-2.8096251 0.2713469 4.5074177 1049868
-2.765317 0.2713469 4.5074177 984075
-2.721009 0.2713469 4.5074177 4795947
-2.6767008 0.2713469 4.5074177 10183749
-2.6323926 0.2713469 4.5074177 10577736
-2.9115949 0.30526525 5.0708447 11038283
-2.8617485 0.30526525 5.0708447 11366731
-2.8119018 0.30526525 5.0708447 11498316
-3.1566343 0.34887457 5.7952509 10776390
-2.7122085 0.30526525 5.0708447 10972745
-2.6623619 0.30526525 5.0708447 10972745
-2.6125152 0.30526525 5.0708447 11038538
-2.5626686 0.30526525 5.0708447 11235403
-2.8717964 0.34887457 5.7952509 10645578
-2.8148289 0.34887457 5.7952509 8604980
-2.7578614 0.34887457 5.7952509 9526851
0 0 0 9461312
0 0 0 9790275
0 0 0 7358253
0 0 0 8673087
-0.42222351 0.059563953 0.98943311 9526846
-0.40267596 0.058145761 0.96587515 8211254
-0.39318138 0.058145761 0.96587515 1049354
-0.36624646 0.055502772 0.92197174 1444110
-0.35718346 0.055502772 0.92197174 1313038
-0.31911039 0.050877541 0.84514076 1247245
-0.29837051 0.048842441 0.81133515 1247246
-0.29039505 0.048842441 0.81133515 918538
-0.28241959 0.048842441 0.81133515 984075
-0.2638886 0.046963885 0.78012997 1247249
-0.25621989 0.046963885 0.78012997 2628897
-0.24855117 0.046963885 0.78012997 3023653
-0.24088246 0.046963885 0.78012997 2694176
-0.23321375 0.046963885 0.78012997 984075
-0.22554503 0.046963885 0.78012997 853261
-0.21787633 0.046963885 0.78012997 721417
-0.20624141 0.046077773 0.76541048 918282
-0.1987174 0.046077773 0.76541048 786698
-0.19119337 0.046077773 0.76541048 786696
-0.18026808 0.045224484 0.75123626 852491
-0.17288339 0.045224484 0.75123626 918282
-0.16549872 0.045224484 0.75123626 918284
-0.1610973 0.046077773 0.76541048 655882
-0.15357327 0.046077773 0.76541048 852489
-0.14604926 0.046077773 0.76541048 655882
-0.13852525 0.046077773 0.76541048 852489
-0.13100122 0.046077773 0.76541048 721673
-0.12119059 0.045224484 0.75123626 852489
-0.1138059 0.045224484 0.75123626 721673
-0.10448629 0.044402216 0.73757738 852489
0 0 0 787468
0 0 0 983305
0 0 0 786696
-0.071580231 0.042105552 0.69942683 524294
-0.064704835 0.042105552 0.69942683 720903
-0.05782944 0.042105552 0.69942683 786696
-0.051847976 0.042844247 0.71169752 787465
-0.045652881 0.043609321 0.72440636 786696
-0.038531937 0.043609321 0.72440636 786696
-0.031410988 0.043609321 0.72440636 655627
-0.024290042 0.043609321 0.72440636 852489
-0.017169096 0.043609321 0.72440636 655367
-0.0098718647 0.042844247 0.71169752 918282
-0.0028758463 0.042844247 0.71169752 786440
0.0041937465 0.043609321 0.72440636 852489
0.011520416 0.044402216 0.73757738 1378059
0.020243056 0.047884744 0.79542661 1378317
0 0 0 1575695
0 0 0 3414808
0 0 0 5450014
0 0 0 5581600
0 0 0 5844000
0 0 0 4332051
0 0 0 4466719
0 0 0 4990492
0 0 0 4924187
0 0 0 5056285
0 0 0 4990494
0.72720903 0.30526525 5.0708447 4728097
0.69071621 0.2713469 4.5074177 4793631
0.73502433 0.2713469 4.5074177 4793629
0.77933246 0.2713469 4.5074177 4727834
0.82364053 0.2713469 4.5074177 4859420
0.97644222 0.30526525 5.0708447 4596506
1.0262889 0.30526525 5.0708447 5056540
1.0761355 0.30526525 5.0708447 8935746
1.125982 0.30526525 5.0708447 9922378
1.1758287 0.30526525 5.0708447 10776656
1.0894892 0.2713469 4.5074177 11104848
1.0204177 0.24421221 4.0566759 11958097
1.060295 0.24421221 4.0566759 12353365
1.1001723 0.24421221 4.0566759 12812888
1.1400496 0.24421221 4.0566759 9918523
1.1799269 0.24421221 4.0566759 1049868
0.93831086 0.18785554 3.1205199 1312525
0.96898574 0.18785554 3.1205199 1181710
0.86637247 0.16280814 2.7044504 1115658
0.89295733 0.16280814 2.7044504 1049866
0.81136078 0.14365424 2.3862798 984073
0.83481801 0.14365424 2.3862798 1115146
0.85827523 0.14365424 2.3862798 983818
0.78891855 0.12853274 2.1350925 984075
0.8099066 0.12853274 2.1350925 918536
0.83089465 0.12853274 2.1350925 1049609
0.8518827 0.12853274 2.1350925 1114891
0.92136365 0.13567345 2.2537088 1115145
0.99901867 0.14365424 2.3862798 1115145
1.022476 0.14365424 2.3862798 1312524
1.0459331 0.14365424 2.3862798 1312524
1.0693904 0.14365424 2.3862798 1115915
1.1611506 0.15263262 2.5354223 1246731
1.1860739 0.15263262 2.5354223 1312524
1.2109972 0.15263262 2.5354223 1246731
1.2359205 0.15263262 2.5354223 1049865
1.2608439 0.15263262 2.5354223 918282
1.2101338 0.14365424 2.3862798 918282
1.3106905 0.15263262 2.5354223 787211
1.3356138 0.15263262 2.5354223 918284
1.3605372 0.15263262 2.5354223 853007
1.3039628 0.14365424 2.3862798 787214
1.32742 0.14365424 2.3862798 852491
1.3508773 0.14365424 2.3862798 721675
1.1681844 0.12210611 2.028338 852489
1.188123 0.12210611 2.028338 1707281
1.2080617 0.12210611 2.028338 4400672
1.2280003 0.12210611 2.028338 4400155
1.247939 0.12210611 2.028338 3940377
1.2678777 0.12210611 2.028338 3809051
1.2264916 0.11629152 1.9317503 3809052
1.2454808 0.11629152 1.9317503 4005919
1.26447 0.11629152 1.9317503 4203293
1.2834592 0.11629152 1.9317503 4399905
1.3024484 0.11629152 1.9317503 3150351
1.3875096 0.12210611 2.028338 2232854
1.3404268 0.11629152 1.9317503 655366
1.2976243 0.11100554 1.8439435 590089
1.3157504 0.11100554 1.8439435 721160
1.3338765 0.11100554 1.8439435 721160
1.4163835 0.11629152 1.9317503 590089
1.4353727 0.11629152 1.9317503 787468
1.5270802 0.12210611 2.028338 655625
1.5470188 0.12210611 2.028338 720903
1.5669575 0.12210611 2.028338 655880
1.5113295 0.11629152 1.9317503 721673
1.6068348 0.12210611 2.028338 852489
1.5493079 0.11629152 1.9317503 918282
1.568297 0.11629152 1.9317503 852489
1.515137 0.11100554 1.8439435 786954
1.4665993 0.10617922 1.763772 852489
1.4839373 0.10617922 1.763772 721675
1.5012753 0.10617922 1.763772 852491
1.5876411 0.11100554 1.8439435 852489
1.6822323 0.11629152 1.9317503 918282
1.7012215 0.11629152 1.9317503 852489
1.8062212 0.12210611 2.028338 721675
1.82616 0.12210611 2.028338 852233
1.9432616 0.12853274 2.1350925 918282
1.9642496 0.12853274 2.1350925 918282
2.2187951 0.14365424 2.3862798 918283
2.2422523 0.14365424 2.3862798 918283
2.2657096 0.14365424 2.3862798 852746
2.4322398 0.15263262 2.5354223 787210
2.312624 0.14365424 2.3862798 983818
2.3360813 0.14365424 2.3862798 984075
2.3595386 0.14365424 2.3862798 983562
2.2506073 0.13567345 2.2537088 1049098
2.2727613 0.13567345 2.2537088 984075
2.1741302 0.12853274 2.1350925 918282
1.8957839 0.11100554 1.8439435 1049098
1.7544174 0.10175508 1.6902815 918282
1.7710329 0.10175508 1.6902815 919052
1.7876486 0.10175508 1.6902815 3810072
1.9682881 0.11100554 1.8439435 5650473
2.0810053 0.11629152 1.9317503 5976610
2.0999944 0.11629152 1.9317503 8212277
2.3420346 0.12853274 2.1350925 8476224
2.6410253 0.14365424 2.3862798 8410177
2.6644826 0.14365424 2.3862798 8869955
2.6879399 0.14365424 2.3862798 9132867
2.7113969 0.14365424 2.3862798 9592646
2.7348542 0.14365424 2.3862798 9987143
2.605072 0.13567345 2.2537088 10315850
2.1495485 0.11100554 1.8439435 10644816
2.2708972 0.11629152 1.9317503 10841427
2.2898865 0.11629152 1.9317503 10315853
2.3088756 0.11629152 1.9317503 10052427
2.3278649 0.11629152 1.9317503 9528139
2.7379966 0.13567345 2.2537088 9462089
3.1051693 0.15263262 2.5354223 9725261
0 0 0 9593674
0 0 0 10053966
0 0 0 10053194
0 0 0 9790537
0 0 0 9397321
0 0 0 9528138
0 0 0 9724746
0 0 0 3874582
0 0 0 1312521
-4.0346217 0.23674124 3.380563 1444109
-4.0013905 0.23674124 3.380563 1509901
-4.3289013 0.25826317 3.687887 2890523
-4.2926493 0.25826317 3.687887 3611671
-4.2563972 0.25826317 3.687887 3676951
-4.2201452 0.25826317 3.687887 3874328
-4.1838932 0.25826317 3.687887 3809050
-4.1476407 0.25826317 3.687887 3874330
-4.5225282 0.28408951 4.0566759 3874328
-4.0751367 0.25826317 3.687887 3940121
-4.0388846 0.25826317 3.687887 4071194
-4.0026326 0.25826317 3.687887 3940121
-3.9663804 0.25826317 3.687887 3940121
-3.9301283 0.25826317 3.687887 4070936
-3.8938763 0.25826317 3.687887 4005398
-3.8576241 0.25826317 3.687887 4071192
-3.821372 0.25826317 3.687887 3742229
-3.78512 0.25826317 3.687887 3742742
-3.7488678 0.25826317 3.687887 2887951
-3.7126157 0.25826317 3.687887 1837836
-4.0440001 0.28408951 4.0566759 2035218
-4.4490256 0.31565502 4.5074177 2562073
-4.4047174 0.31565502 4.5074177 3021337
-4.3604093 0.31565502 4.5074177 3086616
-4.3161011 0.31565502 4.5074177 2955289
-4.2717929 0.31565502 4.5074177 2889754
-4.2274847 0.31565502 4.5074177 2758424
-4.183177 0.31565502 4.5074177 1903889
-4.6562271 0.3551119 5.0708447 852232
-4.0945606 0.31565502 4.5074177 721673
-4.0502524 0.31565502 4.5074177 918282
-4.0059443 0.31565502 4.5074177 918536
-3.9616363 0.31565502 4.5074177 852743
-3.9173281 0.31565502 4.5074177 786953
-3.8730199 0.31565502 4.5074177 918284
-3.8287117 0.31565502 4.5074177 918282
-3.7844038 0.31565502 4.5074177 852489
-3.7400956 0.31565502 4.5074177 786952
-3.6957874 0.31565502 4.5074177 787208
-3.6514795 0.31565502 4.5074177 786696
-3.6071713 0.31565502 4.5074177 852489
-3.5628631 0.31565502 4.5074177 1378060
-3.9583743 0.3551119 5.0708447 1574150
-3.9085276 0.3551119 5.0708447 1310979
-3.858681 0.3551119 5.0708447 1311749
-3.8088343 0.3551119 5.0708447 1245959
-3.7589877 0.3551119 5.0708447 1049349
-3.709141 0.3551119 5.0708447 918534
-3.6592944 0.3551119 5.0708447 983559
-3.6094477 0.3551119 5.0708447 918023
-4.0681157 0.40584216 5.7952509 918281
-4.011148 0.40584216 5.7952509 852489
-3.459908 0.3551119 5.0708447 918025
-3.4100614 0.3551119 5.0708447 852489
-3.3602147 0.3551119 5.0708447 852489
-3.3103681 0.3551119 5.0708447 786696
-2.6084173 0.28408951 4.0566759 786697
-2.8539333 0.31565502 4.5074177 852489
-2.8096251 0.31565502 4.5074177 721416
-2.765317 0.31565502 4.5074177 918284
-2.721009 0.31565502 4.5074177 3217692
-2.6767008 0.31565502 4.5074177 9196867
-2.6323926 0.31565502 4.5074177 9789761
-2.5880845 0.31565502 4.5074177 10185032
-2.8617485 0.3551119 5.0708447 10775368
-2.8119018 0.3551119 5.0708447 10776136
-3.1566343 0.40584216 5.7952509 10709573
-3.0996668 0.40584216 5.7952509 10710600
-2.6623619 0.3551119 5.0708447 10709575
-2.6125152 0.3551119 5.0708447 10973000
-2.5626686 0.3551119 5.0708447 10840902
-2.8717964 0.40584216 5.7952509 10906697
-2.8148289 0.40584216 5.7952509 10579017
-2.7578614 0.40584216 5.7952509 8015156
0 0 0 8606777
0 0 0 9000250
0 0 0 7357999
0 0 0 8738624
-0.42222351 0.069290124 0.98943311 8869945
-0.40267596 0.067640357 0.96587515 5648933
-0.39318138 0.067640357 0.96587515 1378575
-0.36624646 0.064565793 0.92197174 1378574
-0.34924603 0.063130997 0.90148348 1247244
-0.30634597 0.0568179 0.81133515 1312782
-0.29837051 0.0568179 0.81133515 984331
-0.29039505 0.0568179 0.81133515 984075
-0.28241959 0.0568179 0.81133515 1050126
-0.2638886 0.0546326 0.78012997 2496798
-0.25138554 0.05360179 0.76541048 2496541
-0.24386151 0.05360179 0.76541048 3022371
-0.2363375 0.05360179 0.76541048 2956578
-0.23321375 0.0546326 0.78012997 1838610
-0.22554503 0.0546326 0.78012997 918282
-0.21787633 0.0546326 0.78012997 918282
-0.20624141 0.05360179 0.76541048 852488
-0.19503745 0.052609168 0.75123626 917769
-0.18765277 0.052609168 0.75123626 852489
-0.18026808 0.052609168 0.75123626 655882
-0.17288339 0.052609168 0.75123626 852491
-0.16549872 0.052609168 0.75123626 852489
-0.15523921 0.051652636 0.73757738 721675
-0.1479888 0.051652636 0.73757738 918282
-0.1382252 0.050730269 0.72440636 852491
-0.13595997 0.052609168 0.75123626 918282
-0.12857528 0.052609168 0.75123626 852489
-0.12119059 0.052609168 0.75123626 655882
-0.1138059 0.052609168 0.75123626 655882
-0.12492926 0.061758585 0.88188601 918282
0 0 0 655882
0 0 0 655880
0 0 0 786696
-0.071580231 0.048980948 0.69942683 720903
-0.064704835 0.048980948 0.69942683 786698
-0.05782944 0.048980948 0.69942683 786697
-0.051847976 0.049840268 0.71169752 852489
-0.044851959 0.049840268 0.71169752 786698
-0.038531937 0.050730269 0.72440636 655625
-0.031410988 0.050730269 0.72440636 655881
-0.024290042 0.050730269 0.72440636 786697
-0.017169096 0.050730269 0.72440636 787209
-0.0098718647 0.049840268 0.71169752 983305
-0.0028758463 0.049840268 0.71169752 1049098
0.004120172 0.049840268 0.71169752 918536
0.011520416 0.051652636 0.73757738 1378059
0.019479167 0.05360179 0.76541048 1443852
0.02862338 0.0568179 0.81133515 1706254
0 0 0 2100495
0 0 0 5187612
0 0 0 5450784
0 0 0 5909534
0 0 0 4528660
0 0 0 4727836
0 0 0 5056285
0 0 0 5122078
0 0 0 5056028
0 0 0 5581086
0 0 0 3872525
0.69071621 0.31565502 4.5074177 4334878
0.73502433 0.31565502 4.5074177 4793884
0.77933246 0.31565502 4.5074177 4793883
0.82364053 0.31565502 4.5074177 5055772
0.97644222 0.3551119 5.0708447 4924443
1.0262889 0.3551119 5.0708447 4991005
1.0761355 0.3551119 5.0708447 9002055
1.000873 0.31565502 4.5074177 10184780
1.0451812 0.31565502 4.5074177 10907469
0.98054034 0.28408951 4.0566759 11236432
1.0204177 0.28408951 4.0566759 11892049
1.060295 0.28408951 4.0566759 12155220
1.1001723 0.28408951 4.0566759 12287830
1.0364087 0.25826317 3.687887 10116157
1.1799269 0.28408951 4.0566759 1312267
0.93831086 0.2185304 3.1205199 1115401
0.89977241 0.20292108 2.8976254 918537
0.86637247 0.189393 2.7044504 786952
0.95674002 0.20292108 2.8976254 984073
0.91954219 0.189393 2.7044504 918537
0.83481801 0.16711147 2.3862798 983817
0.69479424 0.13528071 1.9317503 983817
0.71378344 0.13528071 1.9317503 918282
0.76941133 0.14204475 2.028338 1049353
0.83089465 0.1495208 2.1350925 786951
0.8518827 0.1495208 2.1350925 983817
0.97556144 0.16711147 2.3862798 983561
0.99901867 0.16711147 2.3862798 786698
1.022476 0.16711147 2.3862798 917512
1.0459331 0.16711147 2.3862798 852489
1.0693904 0.16711147 2.3862798 786696
1.0928476 0.16711147 2.3862798 852489
1.1163049 0.16711147 2.3862798 721673
1.2109972 0.17755595 2.5354223 917512
1.2359205 0.17755595 2.5354223 720903
1.1866766 0.16711147 2.3862798 1180938
1.2101338 0.16711147 2.3862798 852489
1.2335911 0.16711147 2.3862798 852489
1.2570482 0.16711147 2.3862798 1049098
1.3605372 0.17755595 2.5354223 655882
1.3854605 0.17755595 2.5354223 918284
1.32742 0.16711147 2.3862798 787468
1.3508773 0.16711147 2.3862798 655881
1.2296677 0.1495208 2.1350925 721675
1.188123 0.14204475 2.028338 1903633
1.2080617 0.14204475 2.028338 6701366
1.2280003 0.14204475 2.028338 7820608
1.247939 0.14204475 2.028338 8543050
1.2678777 0.14204475 2.028338 8543051
1.2264916 0.13528071 1.9317503 8411980
1.2454808 0.13528071 1.9317503 6310467
1.26447 0.13528071 1.9317503 6769727
1.2834592 0.13528071 1.9317503 7293248
1.3024484 0.13528071 1.9317503 3609878
1.3214376 0.13528071 1.9317503 2626069
1.3404268 0.13528071 1.9317503 1114118
1.2976243 0.12913159 1.8439435 590088
1.3157504 0.12913159 1.8439435 786696
1.3338765 0.12913159 1.8439435 786696
1.4163835 0.13528071 1.9317503 655880
1.4353727 0.13528071 1.9317503 852489
1.4543619 0.13528071 1.9317503 721417
1.5470188 0.14204475 2.028338 655882
1.5669575 0.14204475 2.028338 786698
1.5113295 0.13528071 1.9317503 852490
1.5303187 0.13528071 1.9317503 721675
1.4788848 0.12913159 1.8439435 852491
1.4970108 0.12913159 1.8439435 721675
1.515137 0.12913159 1.8439435 721674
1.4665993 0.12351717 1.763772 721673
1.551389 0.12913159 1.8439435 787466
1.5695151 0.12913159 1.8439435 721675
1.5876411 0.12913159 1.8439435 918284
1.6822323 0.13528071 1.9317503 786953
1.7862827 0.14204475 2.028338 852489
1.9012855 0.1495208 2.1350925 787466
1.9222735 0.1495208 2.1350925 918283
1.9432616 0.1495208 2.1350925 852746
1.8660372 0.14204475 2.028338 721675
1.9852377 0.1495208 2.1350925 853004
2.2422523 0.16711147 2.3862798 984077
2.2657096 0.16711147 2.3862798 787212
2.4322398 0.17755595 2.5354223 1049098
2.312624 0.16711147 2.3862798 918282
2.3360813 0.16711147 2.3862798 918282
2.2284532 0.15782751 2.2537088 852489
2.132154 0.1495208 2.1350925 1049098
2.045485 0.14204475 2.028338 852489
1.9670701 0.13528071 1.9317503 852489
1.9860593 0.13528071 1.9317503 918282
1.8306965 0.12351717 1.763772 918282
1.7710329 0.11837062 1.6902815 984075
1.7876486 0.11837062 1.6902815 1773072
1.8827103 0.12351717 1.763772 1838095
1.9864142 0.12913159 1.8439435 1706770
2.0045402 0.12913159 1.8439435 5124133
2.0226662 0.12913159 1.8439435 7819062
2.1379728 0.13528071 1.9317503 8410430
2.6644826 0.16711147 2.3862798 8475967
2.6879399 0.16711147 2.3862798 8738877
2.5607641 0.15782751 2.2537088 9330500
2.5829182 0.15782751 2.2537088 9592645
2.605072 0.15782751 2.2537088 10184010
2.3645036 0.14204475 2.028338 10446669
2.2708972 0.13528071 1.9317503 10644561
2.2898865 0.13528071 1.9317503 10118219
2.3088756 0.13528071 1.9317503 9725512
2.4442582 0.14204475 2.028338 9461831
2.899055 0.16711147 2.3862798 9593930
2.9225123 0.16711147 2.3862798 9528137
0 0 0 9528137
0 0 0 9790796
0 0 0 9791309
0 0 0 9725514
0 0 0 9856074
0 0 0 9724231
0 0 0 9790281
0 0 0 4071187
0 0 0 1180935
-4.0346217 0.26997232 3.380563 1509645
-4.0013905 0.26997232 3.380563 1509644
-4.3289013 0.29451528 3.687887 2890010
-4.2926493 0.29451528 3.687887 3545624
-4.2563972 0.29451528 3.687887 3676951
-4.2201452 0.29451528 3.687887 3742229
-4.1838932 0.29451528 3.687887 3808535
-4.1476407 0.29451528 3.687887 3676950
-4.1113887 0.29451528 3.687887 3742742
-4.0751367 0.29451528 3.687887 3742741
-4.0388846 0.29451528 3.687887 3808791
-4.0026326 0.29451528 3.687887 3742742
-3.9663804 0.29451528 3.687887 3939864
-3.9301283 0.29451528 3.687887 3808535
-3.8938763 0.29451528 3.687887 3808792
-3.8576241 0.29451528 3.687887 3611412
-3.821372 0.29451528 3.687887 3545620
-3.78512 0.29451528 3.687887 3480084
-4.123755 0.32396683 4.0566759 2756621
-4.0838776 0.32396683 4.0566759 1443593
-4.0440001 0.32396683 4.0566759 1509645
-4.4490256 0.35996315 4.5074177 2101008
-4.4047174 0.35996315 4.5074177 1180420
-4.3604093 0.35996315 4.5074177 1114887
-4.3161011 0.35996315 4.5074177 983558
-4.2717929 0.35996315 4.5074177 917766
-4.2274847 0.35996315 4.5074177 786950
-4.183177 0.35996315 4.5074177 786696
-4.6562271 0.40495852 5.0708447 655881
-4.0945606 0.35996315 4.5074177 655880
-4.0502524 0.35996315 4.5074177 655880
-3.60535 0.32396683 4.0566759 721416
-3.9616363 0.35996315 4.5074177 852745
-3.9173281 0.35996315 4.5074177 984075
-3.8730199 0.35996315 4.5074177 787210
-3.8287117 0.35996315 4.5074177 787207
-3.7844038 0.35996315 4.5074177 852489
-3.7400956 0.35996315 4.5074177 786696
-3.6957874 0.35996315 4.5074177 721418
-3.6514795 0.35996315 4.5074177 590087
-3.6071713 0.35996315 4.5074177 917512
-3.5628631 0.35996315 4.5074177 852743
-3.9583743 0.40495852 5.0708447 984072
-3.9085276 0.40495852 5.0708447 918536
-3.858681 0.40495852 5.0708447 1049352
-3.8088343 0.40495852 5.0708447 852745
-3.7589877 0.40495852 5.0708447 918536
-3.709141 0.40495852 5.0708447 852743
-3.6592944 0.40495852 5.0708447 852489
-3.6094477 0.40495852 5.0708447 1049098
-3.5596011 0.40495852 5.0708447 918282
-3.119782 0.35996315 4.5074177 983818
-3.0754738 0.35996315 4.5074177 918025
-3.0311658 0.35996315 4.5074177 721417
-2.9868577 0.35996315 4.5074177 852488
-2.4075403 0.29451528 3.687887 655880
-2.3712883 0.29451528 3.687887 720904
-2.335036 0.29451528 3.687887 918282
-2.8096251 0.35996315 4.5074177 917770
-2.765317 0.35996315 4.5074177 918282
-2.721009 0.35996315 4.5074177 3217947
-3.0112882 0.40495852 5.0708447 7750982
-2.9614415 0.40495852 5.0708447 9460802
-2.9115949 0.40495852 5.0708447 10446405
-2.8617485 0.40495852 5.0708447 10316102
-2.8119018 0.40495852 5.0708447 10774597
-2.7620552 0.40495852 5.0708447 10250309
-2.7122085 0.40495852 5.0708447 10446915
-2.6623619 0.40495852 5.0708447 10381382
-2.6125152 0.40495852 5.0708447 10381382
-2.5626686 0.40495852 5.0708447 10644039
-2.8717964 0.46280971 5.7952509 10381380
-2.8148289 0.46280971 5.7952509 10117956
-2.7578614 0.46280971 5.7952509 9921090
-2.7008936 0.46280971 5.7952509 9462594
0 0 0 9068099
0 0 0 7357998
0 0 0 8673602
-0.42222351 0.079016298 0.98943311 9067332
-0.40267596 0.077134952 0.96587515 3020041
-0.38403764 0.07534112 0.94341296 1444111
-0.35810766 0.071992621 0.90148348 1378830
-0.31432143 0.064793363 0.81133515 1115917
-0.30634597 0.064793363 0.81133515 1444367
-0.29837051 0.064793363 0.81133515 853517
-0.28470105 0.063522905 0.79542661 918540
-0.27688196 0.063522905 0.79542661 1115405
-0.2638886 0.062301312 0.78012997 2497569
-0.25138554 0.061125811 0.76541048 2694177
-0.24855117 0.062301312 0.78012997 2563103
-0.2363375 0.061125811 0.76541048 2759712
-0.23321375 0.062301312 0.78012997 1576982
-0.22554503 0.062301312 0.78012997 853003
-0.21787633 0.062301312 0.78012997 918282
-0.21020761 0.062301312 0.78012997 1049866
-0.1987174 0.061125811 0.76541048 918282
-0.18765277 0.059993856 0.75123626 918284
-0.18026808 0.059993856 0.75123626 918284
-0.17288339 0.059993856 0.75123626 655628
-0.16549872 0.059993856 0.75123626 786696
-0.15523921 0.058903053 0.73757738 721673
-0.14534613 0.057851214 0.72440636 721673
-0.1382252 0.057851214 0.72440636 721673
-0.13110425 0.057851214 0.72440636 721673
-0.12857528 0.059993856 0.75123626 721675
-0.12119059 0.059993856 0.75123626 655880
-0.11595318 0.061125811 0.76541048 1049098
-0.12492926 0.070427567 0.88188601 983305
0 0 0 852489
0 0 0 590089
0 0 0 720903
-0.071580231 0.055856347 0.69942683 720903
-0.064704835 0.055856347 0.69942683 524294
-0.05782944 0.055856347 0.69942683 655882
-0.050954044 0.055856347 0.69942683 852489
-0.044078644 0.055856347 0.69942683 786696
-0.037855938 0.056836285 0.71169752 786696
-0.031410988 0.057851214 0.72440636 787209
-0.024290042 0.057851214 0.72440636 721160
-0.017169096 0.057851214 0.72440636 918025
-0.0098718647 0.056836285 0.71169752 918025
-0.0028758463 0.056836285 0.71169752 918282
0.004120172 0.056836285 0.71169752 918536
0.011520416 0.058903053 0.73757738 1312523
0.019479167 0.061125811 0.76541048 1378060
0.02862338 0.064793363 0.81133515 1575438
0.037345756 0.066115677 0.82789302 2035217
0 0 0 4005916
0 0 0 5515807
0 0 0 5713184
0 0 0 4332051
0 0 0 4925728
0 0 0 5581598
0 0 0 5056799
0 0 0 4728088
0 0 0 5055772
0 0 0 4793372
0.69071621 0.35996315 4.5074177 4662042
0.73502433 0.35996315 4.5074177 4924699
0.77933246 0.35996315 4.5074177 4924699
0.82364053 0.35996315 4.5074177 4990493
0.97644222 0.40495852 5.0708447 4333592
0.91225678 0.35996315 4.5074177 4530713
0.9565649 0.35996315 4.5074177 9725517
1.000873 0.35996315 4.5074177 11037765
0.94066304 0.32396683 4.0566759 11235663
0.98054034 0.32396683 4.0566759 11367252
1.0204177 0.32396683 4.0566759 11762262
0.81561148 0.24920525 3.1205199 10642496
0.91681015 0.26997232 3.380563 10182203
0.95004123 0.26997232 3.380563 8207657
1.0726607 0.29451528 3.687887 1246476
1.0165035 0.26997232 3.380563 1180684
1.0497345 0.26997232 3.380563 918537
0.81222421 0.20247926 2.5354223 786953
0.74413115 0.17998157 2.2537088 918281
0.76628524 0.17998157 2.2537088 917767
0.67580503 0.1542699 1.9317503 852232
0.63437736 0.14085513 1.763772 786695
0.65171534 0.14085513 1.763772 1049352
0.73277265 0.1542699 1.9317503 984074
0.78934997 0.16198342 2.028338 1114891
0.8518827 0.17050885 2.1350925 984330
0.97556144 0.19056872 2.3862798 918282
0.99901867 0.19056872 2.3862798 984845
1.022476 0.19056872 2.3862798 1180684
1.0459331 0.19056872 2.3862798 1246731
1.0693904 0.19056872 2.3862798 1312267
1.0928476 0.19056872 2.3862798 1049352
1.1163049 0.19056872 2.3862798 786696
1.1397622 0.19056872 2.3862798 786696
1.1632193 0.19056872 2.3862798 786696
1.1866766 0.19056872 2.3862798 852489
1.2101338 0.19056872 2.3862798 852491
1.2335911 0.19056872 2.3862798 852490
1.2570482 0.19056872 2.3862798 984075
1.2805055 0.19056872 2.3862798 918282
1.3039628 0.19056872 2.3862798 853260
1.32742 0.19056872 2.3862798 852489
1.2758286 0.17998157 2.2537088 852746
1.2296677 0.17050885 2.1350925 787209
1.188123 0.16198342 2.028338 1969168
1.2080617 0.16198342 2.028338 6635575
1.2280003 0.16198342 2.028338 7030581
1.247939 0.16198342 2.028338 7754048
1.2678777 0.16198342 2.028338 8214600
1.2878163 0.16198342 2.028338 7886404
1.3765841 0.17050885 2.1350925 6965311
1.26447 0.1542699 1.9317503 7096635
1.2834592 0.1542699 1.9317503 8145469
1.3024484 0.1542699 1.9317503 3675411
1.3214376 0.1542699 1.9317503 2756885
1.3404268 0.1542699 1.9317503 720903
1.2976243 0.14725764 1.8439435 589830
1.3157504 0.14725764 1.8439435 786696
1.3338765 0.14725764 1.8439435 655880
1.4163835 0.1542699 1.9317503 655882
1.3701285 0.14725764 1.8439435 786698
1.4543619 0.1542699 1.9317503 655882
1.5470188 0.16198342 2.028338 852489
1.5669575 0.16198342 2.028338 852489
1.5113295 0.1542699 1.9317503 852489
1.5303187 0.1542699 1.9317503 786697
1.4788848 0.14725764 1.8439435 983562
1.4970108 0.14725764 1.8439435 721675
1.5872862 0.1542699 1.9317503 852747
1.6062754 0.1542699 1.9317503 852489
1.551389 0.14725764 1.8439435 852489
1.5695151 0.14725764 1.8439435 787466
1.5876411 0.14725764 1.8439435 984077
1.766344 0.16198342 2.028338 918282
1.7862827 0.16198342 2.028338 918282
1.8062212 0.16198342 2.028338 852489
1.9222735 0.17050885 2.1350925 918282
1.9432616 0.17050885 2.1350925 721675
1.9642496 0.17050885 2.1350925 918284
1.8859758 0.16198342 2.028338 918282
1.8151566 0.1542699 1.9317503 918282
2.0272138 0.17050885 2.1350925 918282
2.2891667 0.19056872 2.3862798 1049098
2.184145 0.17998157 2.2537088 787468
1.8911134 0.1542699 1.9317503 1049352
1.9101025 0.1542699 1.9317503 983816
1.9290917 0.1542699 1.9317503 852744
1.9480809 0.1542699 1.9317503 852743
1.9670701 0.1542699 1.9317503 918536
1.9860593 0.1542699 1.9317503 984075
1.9139099 0.14725764 1.8439435 984075
1.7710329 0.13498616 1.6902815 918282
1.7876486 0.13498616 1.6902815 1575437
1.8827103 0.14085513 1.763772 2101013
1.9000483 0.14085513 1.763772 1312270
1.9173863 0.14085513 1.763772 2428170
1.9347242 0.14085513 1.763772 7226927
2.0407922 0.14725764 1.8439435 8015673
2.0589182 0.14725764 1.8439435 8016189
2.284749 0.16198342 2.028338 8410432
2.5607641 0.17998157 2.2537088 8870979
2.5829182 0.17998157 2.2537088 9068099
2.467963 0.17050885 2.1350925 9527880
2.488951 0.17050885 2.1350925 10053196
2.3844423 0.16198342 2.028338 9857614
2.4043808 0.16198342 2.028338 10053196
2.4243195 0.16198342 2.028338 9461833
2.7158425 0.17998157 2.2537088 9527370
2.899055 0.19056872 2.3862798 9527370
2.9225123 0.19056872 2.3862798 9330248
3.8524218 0.24920525 3.1205199 9527625
0 0 0 10052427
0 0 0 9725002
0 0 0 9462342
0 0 0 9658697
0 0 0 9593160
0 0 0 9593417
0 0 0 4333331
0 0 0 1050120
-4.0346217 0.30320343 3.380563 1443855
-4.0013905 0.30320343 3.380563 1378317
-4.3289013 0.33076736 3.687887 2889498
-4.2926493 0.33076736 3.687887 3545111
-4.6820374 0.36384413 4.0566759 3545111
-4.6421599 0.36384413 4.0566759 3610904
-4.6022825 0.36384413 4.0566759 3611158
-4.1476407 0.33076736 3.687887 3545878
-4.1113887 0.33076736 3.687887 3611158
-4.0751367 0.33076736 3.687887 3611158
-4.0388846 0.33076736 3.687887 3545878
-4.0026326 0.33076736 3.687887 3611413
-3.9663804 0.33076736 3.687887 3742230
-3.9301283 0.33076736 3.687887 3807767
-3.8938763 0.33076736 3.687887 3676694
-3.8576241 0.33076736 3.687887 3480085
-3.821372 0.33076736 3.687887 3348757
-4.1636324 0.36384413 4.0566759 3216916
-4.123755 0.36384413 4.0566759 2296844
-4.0838776 0.36384413 4.0566759 1312010
-4.4933338 0.40427125 4.5074177 1444110
-4.4490256 0.40427125 4.5074177 2298132
-4.955307 0.45480514 5.0708447 1114118
-4.3604093 0.40427125 4.5074177 852232
-4.3161011 0.40427125 4.5074177 655882
-4.2717929 0.40427125 4.5074177 524294
-4.2274847 0.40427125 4.5074177 655880
-4.183177 0.40427125 4.5074177 852489
-4.1388688 0.40427125 4.5074177 918282
-3.6851046 0.36384413 4.0566759 1049098
-3.6452272 0.36384413 4.0566759 1049352
-3.60535 0.36384413 4.0566759 983816
-3.5654726 0.36384413 4.0566759 984074
-3.5255952 0.36384413 4.0566759 984075
-3.8730199 0.40427125 4.5074177 984329
-3.8287117 0.40427125 4.5074177 787720
-3.7844038 0.40427125 4.5074177 918022
-3.7400956 0.40427125 4.5074177 721673
-3.6957874 0.40427125 4.5074177 721161
-4.107914 0.45480514 5.0708447 590087
-4.0580673 0.45480514 5.0708447 786695
-4.0082207 0.45480514 5.0708447 918536
-3.9583743 0.45480514 5.0708447 1115145
-3.9085276 0.45480514 5.0708447 1180681
-3.858681 0.45480514 5.0708447 1114891
-3.8088343 0.45480514 5.0708447 918537
-3.7589877 0.45480514 5.0708447 1049098
-3.709141 0.45480514 5.0708447 918282
-3.6592944 0.45480514 5.0708447 918282
-3.2083981 0.40427125 4.5074177 918536
-3.1640902 0.40427125 4.5074177 918282
-3.119782 0.40427125 4.5074177 852488
-3.0754738 0.40427125 4.5074177 1049098
-3.0311658 0.40427125 4.5074177 721416
-2.9868577 0.40427125 4.5074177 786696
-2.6482944 0.36384413 4.0566759 786696
-2.3712883 0.33076736 3.687887 655623
-2.8539333 0.40427125 4.5074177 918026
-2.8096251 0.40427125 4.5074177 852490
-2.765317 0.40427125 4.5074177 983818
-2.721009 0.40427125 4.5074177 2955033
-3.0112882 0.45480514 5.0708447 5056812
-2.9614415 0.45480514 5.0708447 9132097
-2.9115949 0.45480514 5.0708447 9724228
-2.8617485 0.45480514 5.0708447 9987137
-2.8119018 0.45480514 5.0708447 10184259
-2.7620552 0.45480514 5.0708447 10182979
-3.0996668 0.5197773 5.7952509 10380357
-2.6623619 0.45480514 5.0708447 10184003
-2.6125152 0.45480514 5.0708447 10117956
-2.5626686 0.45480514 5.0708447 10053190
-2.5128219 0.45480514 5.0708447 10052676
-2.4629753 0.45480514 5.0708447 9591612
-2.4131286 0.45480514 5.0708447 9723711
-2.7008936 0.5197773 5.7952509 9789504
0 0 0 9986624
0 0 0 8278325
0 0 0 10184262
-0.42222351 0.088742465 0.98943311 9067069
-0.40267596 0.086629547 0.96587515 1706496
-0.36696929 0.080854245 0.90148348 1378574
-0.35032272 0.079096548 0.88188601 1247246
-0.31432143 0.072768822 0.81133515 1181711
-0.30634597 0.072768822 0.81133515 1378830
-0.29837051 0.072768822 0.81133515 852748
-0.28470105 0.071341984 0.79542661 787467
-0.27688196 0.071341984 0.79542661 1445140
-0.2638886 0.069970027 0.78012997 2432032
-0.25621989 0.069970027 0.78012997 2364954
-0.2534247 0.071341984 0.79542661 2694176
-0.24560563 0.071341984 0.79542661 2562076
-0.23321375 0.069970027 0.78012997 983305
-0.22128946 0.068649828 0.76541048 984077
-0.21787633 0.069970027 0.78012997 853259
-0.21020761 0.069970027 0.78012997 918282
-0.1987174 0.068649828 0.76541048 787209
-0.18765277 0.067378543 0.75123626 852746
-0.18026808 0.067378543 0.75123626 852489
-0.17288339 0.067378543 0.75123626 786698
-0.16549872 0.067378543 0.75123626 721675
-0.15523921 0.066153474 0.73757738 852491
-0.14534613 0.064972162 0.72440636 852491
-0.1382252 0.064972162 0.72440636 721673
-0.13110425 0.064972162 0.72440636 852489
-0.12623754 0.066153474 0.73757738 852491
-0.11898712 0.066153474 0.73757738 721675
-0.10781612 0.063832305 0.71169752 786698
-0.12492926 0.079096548 0.88188601 721675
0 0 0 852489
0 0 0 786698
-0.078455634 0.062731743 0.69942683 721159
-0.071580231 0.062731743 0.69942683 590089
-0.064704835 0.062731743 0.69942683 524296
-0.05782944 0.062731743 0.69942683 786698
-0.050954044 0.062731743 0.69942683 786953
-0.044078644 0.062731743 0.69942683 655881
-0.037203249 0.062731743 0.69942683 655880
-0.030859921 0.063832305 0.71169752 852489
-0.023863902 0.063832305 0.71169752 852489
-0.017169096 0.064972162 0.72440636 852489
-0.010048147 0.064972162 0.72440636 1114891
-0.0028758463 0.063832305 0.71169752 983560
0.004120172 0.063832305 0.71169752 983559
0.011116191 0.063832305 0.71169752 1312524
0.019479167 0.068649828 0.76541048 1312524
0.02920753 0.074253902 0.82789302 1509646
0 0 0 1903631
0 0 0 2231313
0 0 0 5712416
0 0 0 5647391
0 0 0 4398357
0 0 0 5122592
0 0 0 5975327
0 0 0 6041120
0 0 0 5451036
0 0 0 5844256
0 0 0 5713184
0.69071621 0.40427125 4.5074177 4990490
0.73502433 0.40427125 4.5074177 4924699
0.5844993 0.30320343 3.380563 5056542
0.82364053 0.40427125 4.5074177 4925213
0.86794865 0.40427125 4.5074177 5516573
0.91225678 0.40427125 4.5074177 7488817
0.9565649 0.40427125 4.5074177 9985598
1.000873 0.40427125 4.5074177 10577988
0.85514814 0.33076736 3.687887 11498057
0.75426179 0.27988011 3.1205199 13338459
0.78493661 0.27988011 3.1205199 13078376
0.75735348 0.25988865 2.8976254 7816750
0.78583729 0.25988865 2.8976254 9986882
0.87696117 0.27988011 3.1205199 8867127
0.98327231 0.30320343 3.380563 1246220
0.93831086 0.27988011 3.1205199 918536
0.66299021 0.19149691 2.1350925 918282
0.51982349 0.14553764 1.6226703 917767
0.53577441 0.14553764 1.6226703 852745
0.55172533 0.14553764 1.6226703 1246989
0.5913294 0.15160172 1.6902815 1181196
0.63437736 0.1581931 1.763772 1115658
0.65171534 0.1581931 1.763772 1115145
0.66905326 0.1581931 1.763772 918281
0.75176179 0.17325909 1.9317503 918282
0.80928862 0.18192206 2.028338 1049096
0.97556144 0.21402594 2.3862798 918282
0.94351768 0.20213562 2.2537088 1049352
1.022476 0.21402594 2.3862798 1509903
1.0459331 0.21402594 2.3862798 3087134
1.0693904 0.21402594 2.3862798 1771790
1.0321339 0.20213562 2.2537088 1312266
0.90367538 0.17325909 1.9317503 983305
0.92266452 0.17325909 1.9317503 786695
1.0407752 0.19149691 2.1350925 720903
1.1207502 0.20213562 2.2537088 786696
1.1429043 0.20213562 2.2537088 852489
1.1650583 0.20213562 2.2537088 786953
1.1872123 0.20213562 2.2537088 787468
1.2093664 0.20213562 2.2537088 918284
1.3039628 0.21402594 2.3862798 786955
1.2536745 0.20213562 2.2537088 852489
1.2086797 0.19149691 2.1350925 787211
1.2979827 0.20213562 2.2537088 721675
1.2506558 0.19149691 2.1350925 1837579
1.2080617 0.18192206 2.028338 7687996
1.2280003 0.18192206 2.028338 6833723
1.247939 0.18192206 2.028338 7293760
1.2678777 0.18192206 2.028338 8147777
1.2878163 0.18192206 2.028338 7949629
1.3765841 0.19149691 2.1350925 6766905
1.3276936 0.18192206 2.028338 7950147
1.3476323 0.18192206 2.028338 8474947
1.3675709 0.18192206 2.028338 3741720
1.3214376 0.17325909 1.9317503 2888213
1.3404268 0.17325909 1.9317503 786698
1.359416 0.17325909 1.9317503 720905
1.3784052 0.17325909 1.9317503 720903
1.3973943 0.17325909 1.9317503 590087
1.4163835 0.17325909 1.9317503 721674
1.3701285 0.16538368 1.8439435 721416
1.3882545 0.16538368 1.8439435 786696
1.4063807 0.16538368 1.8439435 918282
1.4923403 0.17325909 1.9317503 853002
1.5113295 0.17325909 1.9317503 2233883
1.5303187 0.17325909 1.9317503 4009002
1.5493079 0.17325909 1.9317503 4403763
1.568297 0.17325909 1.9317503 3944241
1.5872862 0.17325909 1.9317503 3878705
1.6062754 0.17325909 1.9317503 3747633
1.551389 0.16538368 1.8439435 2036763
1.5695151 0.16538368 1.8439435 1115661
1.6632431 0.17325909 1.9317503 787466
1.766344 0.18192206 2.028338 721673
1.7862827 0.18192206 2.028338 852746
1.8062212 0.18192206 2.028338 983305
1.82616 0.18192206 2.028338 918284
1.9432616 0.19149691 2.1350925 918282
1.9642496 0.19149691 2.1350925 852491
1.8859758 0.18192206 2.028338 852490
1.8151566 0.17325909 1.9317503 918283
1.7507756 0.16538368 1.8439435 918026
1.853135 0.17325909 1.9317503 852490
1.8721242 0.17325909 1.9317503 721417
1.8911134 0.17325909 1.9317503 721673
1.8232797 0.16538368 1.8439435 984075
1.7613447 0.1581931 1.763772 1049098
1.7786826 0.1581931 1.763772 984329
1.9670701 0.17325909 1.9317503 984329
1.9860593 0.17325909 1.9317503 918282
2.0050485 0.17325909 1.9317503 918536
1.8480344 0.1581931 1.763772 984329
1.7876486 0.15160172 1.6902815 3611937
1.8827103 0.1581931 1.763772 4270628
1.9000483 0.1581931 1.763772 3415835
1.9173863 0.1581931 1.763772 1443599
1.9347242 0.1581931 1.763772 4335385
1.9520621 0.1581931 1.763772 7621169
1.9694002 0.1581931 1.763772 8081206
2.0770445 0.16538368 1.8439435 8475966
