# .PCD v0.7 - Point Cloud Data file format
VERSION 0.7
FIELDS x y z rgb
SIZE 4 4 4 4
TYPE F F F U
COUNT 1 1 1 1
WIDTH 1332
HEIGHT 1
VIEWPOINT 0 0 0 1 0 0 0
POINTS 1332
DATA ascii
0 0 0 1772303
0 0 0 1575438
0 0 0 1443852
-9.5235834 1.4454798 8.1133518 1509902
-9.4438286 1.4454798 8.1133518 1838098
0 0 0 2036253
0 0 0 4138795
0 0 0 10317910
0 0 0 10777174
0 0 0 10711637
-22.413252 3.6136992 20.283379 10646356
-4.4427733 0.72273988 4.0566759 10777685
-3.1449256 0.51624274 2.8976254 10908757
-2.0776279 0.34416184 1.9317503 10974550
-1.9650642 0.32851812 1.8439435 11039316
-1.8622886 0.3142347 1.763772 10974292
-1.8449507 0.3142347 1.763772 11301971
-1.910686 0.32851812 1.8439435 11039571
-2.0818162 0.36136994 2.028338 10712400
0 0 0 9000242
0 0 0 6240032
-4.4933338 0.80304432 4.5074177 3742476
-4.4490256 0.80304432 4.5074177 983554
-4.4047174 0.80304432 4.5074177 1049352
-3.9243684 0.72273988 4.0566759 1640975
-3.5313554 0.65703624 3.687887 2953748
-3.4951031 0.65703624 3.687887 3019794
-3.8047364 0.72273988 4.0566759 2954258
-3.7648592 0.72273988 4.0566759 3020050
-3.7249818 0.72273988 4.0566759 2888723
-4.0945606 0.80304432 4.5074177 2954514
-4.0502524 0.80304432 4.5074177 2888723
-4.0059443 0.80304432 4.5074177 2692116
-3.9616363 0.80304432 4.5074177 2691605
-3.5255952 0.72273988 4.0566759 2888724
-3.8730199 0.80304432 4.5074177 2888465
-3.8287117 0.80304432 4.5074177 2691857
-3.7844038 0.80304432 4.5074177 2493708
-3.7400956 0.80304432 4.5074177 1508360
-3.3262088 0.72273988 4.0566759 1049609
-3.2863314 0.72273988 4.0566759 984329
-3.2464542 0.72273988 4.0566759 917512
-2.9150696 0.65703624 3.687887 720905
-2.8788176 0.65703624 3.687887 917769
-2.8425655 0.65703624 3.687887 786695
-3.0869448 0.72273988 4.0566759 721416
-3.0470676 0.72273988 4.0566759 852489
-2.7338092 0.65703624 3.687887 2168343
-2.6975572 0.65703624 3.687887 1049351
-2.661305 0.65703624 3.687887 1378833
-3.2083981 0.80304432 4.5074177 2035475
-3.1640902 0.80304432 4.5074177 2298641
-3.119782 0.80304432 4.5074177 1378316
-3.459908 0.9034248 5.0708447 1443851
-3.4100614 0.9034248 5.0708447 1575694
-3.3602147 0.9034248 5.0708447 1444366
-3.7832778 1.0324855 5.7952509 1576209
-3.2605214 0.9034248 5.0708447 1773073
-3.2106748 0.9034248 5.0708447 1838606
-3.1608281 0.9034248 5.0708447 1970194
-3.1109815 0.9034248 5.0708447 2101010
-3.0611348 0.9034248 5.0708447 2298132
-3.0112882 0.9034248 5.0708447 2495766
-2.9614415 0.9034248 5.0708447 1772557
-2.9115949 0.9034248 5.0708447 1904401
-2.8617485 0.9034248 5.0708447 1969936
-2.8119018 0.9034248 5.0708447 1708053
-2.7620552 0.9034248 5.0708447 2824473
-2.7122085 0.9034248 5.0708447 2560278
-3.0426991 1.0324855 5.7952509 1641486
-2.9857316 1.0324855 5.7952509 1838608
-2.9287641 1.0324855 5.7952509 1706250
-2.8717964 1.0324855 5.7952509 1377540
-2.4629753 0.9034248 5.0708447 1838087
-2.4131286 0.9034248 5.0708447 1968393
-2.363282 0.9034248 5.0708447 1180680
-2.3134353 0.9034248 5.0708447 1509132
-2.2635887 0.9034248 5.0708447 1969937
-2.2137423 0.9034248 5.0708447 2297617
-2.1638956 0.9034248 5.0708447 3085846
-2.114049 0.9034248 5.0708447 3546652
-2.0642023 0.9034248 5.0708447 4136730
-2.0143557 0.9034248 5.0708447 4531742
-2.2451532 1.0324855 5.7952509 5646880
-2.1881855 1.0324855 5.7952509 5121566
-1.8648157 0.9034248 5.0708447 3019534
-1.8149691 0.9034248 5.0708447 3875616
-1.7651225 0.9034248 5.0708447 4859933
-1.7152759 0.9034248 5.0708447 6111292
-1.6654292 0.9034248 5.0708447 7161650
-1.84638 1.0324855 5.7952509 8869437
-1.7894125 1.0324855 5.7952509 8936256
-1.7324449 1.0324855 5.7952509 8673081
-1.6754773 1.0324855 5.7952509 8540984
-0.49258992 0.3142347 1.763772 8541236
-0.45544979 0.30114159 1.6902815 1507843
-0.23404494 0.16060886 0.90148348 721673
-0.22518331 0.16060886 0.90148348 918282
-0.19866279 0.14749794 0.82789302 786696
-0.18671407 0.14454797 0.81133515 656137
-0.17873861 0.14454797 0.81133515 524809
-0.16741484 0.14171369 0.79542661 786696
-0.15959577 0.14171369 0.79542661 590087
-0.15177669 0.14171369 0.79542661 524552
-0.14395761 0.14171369 0.79542661 327684
-0.13100122 0.13636601 0.76541048 721160
-0.12347721 0.13636601 0.76541048 589829
-0.11595318 0.13636601 0.76541048 655882
-0.10842916 0.13636601 0.76541048 852489
-0.10090514 0.13636601 0.76541048 786955
-0.093381122 0.13636601 0.76541048 655880
-0.085857108 0.13636601 0.76541048 655624
-0.078333087 0.13636601 0.76541048 590344
-0.069497794 0.13384071 0.75123626 524296
-0.060983773 0.13140725 0.73757738 655625
-0.053733353 0.13140725 0.73757738 1838613
-0.045652881 0.12906069 0.72440636 2364443
-0.039232515 0.13140725 0.73757738 786696
-0.031410988 0.12906069 0.72440636 786696
-0.024290042 0.12906069 0.72440636 2166806
-0.017169096 0.12906069 0.72440636 917512
-0.0098718647 0.12679647 0.71169752 1114886
-0.0028758463 0.12679647 0.71169752 984077
0.004120172 0.12679647 0.71169752 1114891
0.011116191 0.12679647 0.71169752 1312267
0.01843564 0.12906069 0.72440636 2364700
0.025556589 0.12906069 0.72440636 3086622
0.032104246 0.12679647 0.71169752 2891298
0.03842612 0.12461032 0.69942683 3086877
0.0445337 0.12249829 0.68757218 4466989
0.051292565 0.12249829 0.68757218 7486775
0.055242486 0.11657094 0.65430254 10305073
0.064810291 0.12249829 0.68757218 12271658
0.069222629 0.11848194 0.66502881 12206119
0.068975426 0.10787162 0.605474 12664869
0.072755456 0.1047449 0.587924 12337705
0.071301311 0.095097348 0.53377312 12796455
0.076548323 0.095097348 0.53377312 12862246
0.080733053 0.093862318 0.52684098 13190186
0.08591193 0.093862318 0.52684098 12665639
0.091090798 0.093862318 0.52684098 12599844
0.096269667 0.093862318 0.52684098 12665639
0.10144854 0.093862318 0.52684098 12796201
0.1066274 0.093862318 0.52684098 12664869
0.10761355 0.090342484 0.50708449 12796453
0.10985191 0.088139005 0.49471655 12665639
0.11613123 0.08922714 0.50082415 12731432
0.12105435 0.08922714 0.50082415 12666668
0.12916678 0.091486059 0.51350325 12731945
0 0 0 12862761
0 0 0 12600104
0 0 0 12796966
0 0 0 12797739
0 0 0 12797226
0 0 0 12863789
0 0 0 12929064
0 0 0 13126190
0 0 0 12797741
0 0 0 13191211
0 0 0 12863788
0 0 0 12995372
0 0 0 13060397
0 0 0 12798252
0.770751 0.34416184 1.9317503 12535850
0.82922727 0.36136994 2.028338 12536109
0.84916592 0.36136994 2.028338 12536110
0.96567178 0.40152216 2.2537088 12602414
0.88904321 0.36136994 2.028338 12274220
0.86569697 0.34416184 1.9317503 12274478
0.84447318 0.32851812 1.8439435 11946540
0.86259919 0.32851812 1.8439435 11683885
0.92266452 0.34416184 1.9317503 11356207
0.89885128 0.32851812 1.8439435 11029039
0.74716675 0.26768142 1.5024725 10897458
0.70938879 0.24922064 1.3988537 11094064
0.72313958 0.24922064 1.3988537 10634027
0.73689038 0.24922064 1.3988537 10765870
0.77744979 0.25812137 1.4488127 11486253
0.79169166 0.25812137 1.4488127 11355436
0.80593354 0.25812137 1.4488127 11027756
0.82017547 0.25812137 1.4488127 11158572
0.86532176 0.26768142 1.5024725 11289385
0.91394079 0.27797687 1.5602599 10830892
0.92927819 0.27797687 1.5602599 10175787
0.9446156 0.27797687 1.5602599 9978665
0.95995307 0.27797687 1.5602599 10633770
1.1025022 0.3142347 1.763772 11289644
1.1198401 0.3142347 1.763772 11354410
1.2454808 0.34416184 1.9317503 11616810
1.26447 0.34416184 1.9317503 11354665
1.2834592 0.34416184 1.9317503 11485226
1.2432462 0.32851812 1.8439435 11092007
1.3214376 0.34416184 1.9317503 10830122
1.3404268 0.34416184 1.9317503 10436906
1.189489 0.30114159 1.6902815 10370857
1.2061045 0.30114159 1.6902815 10960425
1.22272 0.30114159 1.6902815 10174248
1.1016316 0.26768142 1.5024725 10240298
1.1593395 0.27797687 1.5602599 10305065
1.174677 0.27797687 1.5602599 10239270
1.237615 0.28909594 1.6226703 10042662
1.2535659 0.28909594 1.6226703 10041894
1.2695168 0.28909594 1.6226703 10173481
1.3390288 0.30114159 1.6902815 10173480
1.3556443 0.30114159 1.6902815 10041894
1.4319234 0.3142347 1.763772 10371115
1.4492614 0.3142347 1.763772 10108202
1.4665993 0.3142347 1.763772 9846829
1.551389 0.32851812 1.8439435 8993578
1.5695151 0.32851812 1.8439435 8404783
1.5186132 0.3142347 1.763772 7748911
1.4130751 0.28909594 1.6226703 7223595
1.4885688 0.30114159 1.6902815 6698536
1.5051843 0.30114159 1.6902815 6501157
1.587965 0.3142347 1.763772 5844254
1.5384154 0.30114159 1.6902815 5318684
1.7771782 0.34416184 1.9317503 5121564
1.7961674 0.34416184 1.9317503 5910563
1.7326494 0.32851812 1.8439435 6698791
1.6746548 0.3142347 1.763772 6567466
1.6214931 0.30114159 1.6902815 5912108
1.6381086 0.30114159 1.6902815 6107944
1.6547242 0.30114159 1.6902815 6633516
1.6713398 0.30114159 1.6902815 6306604
1.6879553 0.30114159 1.6902815 6568493
1.7045708 0.30114159 1.6902815 6306603
1.7211864 0.30114159 1.6902815 6306352
1.8133585 0.3142347 1.763772 6174767
1.7544174 0.30114159 1.6902815 5912107
1.7710329 0.30114159 1.6902815 5452585
1.7876486 0.30114159 1.6902815 4795684
1.9682881 0.32851812 1.8439435 4598305
2.1850557 0.36136994 2.028338 4532258
2.2049944 0.36136994 2.028338 4335394
2.3420346 0.38038939 2.1350925 4203808
2.3630228 0.38038939 2.1350925 4137243
2.5164559 0.40152216 2.2537088 4202523
2.6879399 0.4251411 2.3862798 4137756
3.5456731 0.55595374 3.1205199 3940635
0 0 0 4072222
0 0 0 3874843
4.2990971 0.65703624 3.687887 3940123
4.3353491 0.65703624 3.687887 4071708
5.3430686 0.80304432 4.5074177 4137499
9.697278 1.4454798 8.1133518 4269340
9.7770329 1.4454798 8.1133518 4137755
0 0 0 4137501
0 0 0 4268830
0 0 0 4269344
0 0 0 4072222
0 0 0 4006430
0 0 0 4006175
0 0 0 4136732
0 0 0 4005916
0 0 0 4859164
0 0 0 1246987
0 0 0 1115145
0 0 0 1115146
0 0 0 918282
-11.904479 1.9065429 10.141689 984075
-11.804786 1.9065429 10.141689 1378317
0 0 0 1838614
0 0 0 2890023
0 0 0 8872272
0 0 0 10710612
0 0 0 10841940
0 0 0 10842454
-22.213865 3.8130858 20.283379 10908247
-4.4028959 0.76261717 4.0566759 11039576
-2.1815093 0.38130859 2.028338 10974294
-2.0586386 0.36315101 1.9317503 11171157
-1.7846932 0.31775713 1.6902815 11367767
-1.7680777 0.31775713 1.6902815 11104337
-1.910686 0.34664416 1.8439435 11171928
-2.0818162 0.38130859 2.028338 10908495
0 0 0 8869168
0 0 0 6174238
-4.0440001 0.76261717 4.0566759 3939599
-4.0041227 0.76261717 4.0566759 917762
-4.4047174 0.84735245 4.5074177 983816
-3.9243684 0.76261717 4.0566759 1772818
-3.5313554 0.69328833 3.687887 3085591
-3.8446138 0.76261717 4.0566759 3020306
-3.8047364 0.76261717 4.0566759 3217428
-3.7648592 0.76261717 4.0566759 3217172
-4.1388688 0.84735245 4.5074177 3151123
-4.0945606 0.84735245 4.5074177 3217429
-4.0502524 0.84735245 4.5074177 3151636
-3.60535 0.76261717 4.0566759 3085845
-3.9616363 0.84735245 4.5074177 3151634
-3.5255952 0.76261717 4.0566759 2954258
-3.8730199 0.84735245 4.5074177 2953743
-3.8287117 0.84735245 4.5074177 2757137
-3.7844038 0.84735245 4.5074177 2428175
-3.7400956 0.84735245 4.5074177 1508617
-3.6957874 0.84735245 4.5074177 655621
-3.2863314 0.76261717 4.0566759 1443596
-3.2464542 0.76261717 4.0566759 852742
-2.9150696 0.69328833 3.687887 590087
-2.8788176 0.69328833 3.687887 721671
-3.1268222 0.76261717 4.0566759 656137
-3.0869448 0.76261717 4.0566759 655880
-3.0470676 0.76261717 4.0566759 852487
-2.7338092 0.69328833 3.687887 2627866
-2.6975572 0.69328833 3.687887 1444106
-2.9274356 0.76261717 4.0566759 720905
-3.2083981 0.84735245 4.5074177 2560792
-3.1640902 0.84735245 4.5074177 2823702
-3.119782 0.84735245 4.5074177 1576979
-3.0754738 0.84735245 4.5074177 1839637
-3.4100614 0.95327145 5.0708447 1708051
-3.3602147 0.95327145 5.0708447 1838867
-3.7832778 1.0894531 5.7952509 1905174
-3.2605214 0.95327145 5.0708447 1970193
-3.2106748 0.95327145 5.0708447 2166800
-3.1608281 0.95327145 5.0708447 1969680
-3.1109815 0.95327145 5.0708447 2035217
-3.0611348 0.95327145 5.0708447 2101008
-3.0112882 0.95327145 5.0708447 1772045
-2.9614415 0.95327145 5.0708447 1773073
-2.9115949 0.95327145 5.0708447 2167573
-2.8617485 0.95327145 5.0708447 1575435
-2.8119018 0.95327145 5.0708447 1378316
-2.7620552 0.95327145 5.0708447 1378058
-2.7122085 0.95327145 5.0708447 1443339
-2.6623619 0.95327145 5.0708447 1181454
-2.6125152 0.95327145 5.0708447 7557457
-2.5626686 0.95327145 5.0708447 1574666
-2.5128219 0.95327145 5.0708447 1115661
-2.4629753 0.95327145 5.0708447 1247501
-2.7578614 1.0894531 5.7952509 1773074
-2.363282 0.95327145 5.0708447 2561559
-2.3134353 0.95327145 5.0708447 1838609
-2.2635887 0.95327145 5.0708447 1641747
-2.2137423 0.95327145 5.0708447 1576208
-2.1638956 0.95327145 5.0708447 2560274
-2.114049 0.95327145 5.0708447 2494482
-2.0642023 0.95327145 5.0708447 3479834
-2.0143557 0.95327145 5.0708447 4465695
-2.2451532 1.0894531 5.7952509 4924443
-2.1881855 1.0894531 5.7952509 4924958
-1.8648157 0.95327145 5.0708447 2822672
-1.8149691 0.95327145 5.0708447 4203295
-1.7651225 0.95327145 5.0708447 4530457
-1.7152759 0.95327145 5.0708447 1969424
-1.6654292 0.95327145 5.0708447 3810339
-1.84638 1.0894531 5.7952509 7819063
-1.7894125 1.0894531 5.7952509 8147766
-0.8084743 0.50841141 2.7044504 8738873
-0.68990242 0.44859833 2.3862798 9658689
-0.47206533 0.31775713 1.6902815 10117698
-0.37692398 0.26297143 1.3988537 9133372
-0.23404494 0.16947047 0.90148348 983303
-0.22518331 0.16947047 0.90148348 918282
-0.21161905 0.16578634 0.88188601 721675
-0.19052456 0.15563616 0.82789302 590087
-0.17873861 0.15252343 0.81133515 721160
-0.16741484 0.14953278 0.79542661 590087
-0.15959577 0.14953278 0.79542661 655366
-0.15177669 0.14953278 0.79542661 458757
-0.14395761 0.14953278 0.79542661 327685
-0.13352048 0.14665715 0.78012997 853002
-0.12347721 0.14389002 0.76541048 1246989
-0.11595318 0.14389002 0.76541048 1378317
-0.10842916 0.14389002 0.76541048 984075
-0.10090514 0.14389002 0.76541048 1049356
-0.093381122 0.14389002 0.76541048 984077
-0.085857108 0.14389002 0.76541048 590087
-0.076882474 0.1412254 0.75123626 524553
-0.06823419 0.13865766 0.73757738 524809
-0.060983773 0.13865766 0.73757738 655625
-0.053733353 0.13865766 0.73757738 1509648
-0.045652881 0.13618164 0.72440636 2036501
-0.039232515 0.13865766 0.73757738 919053
-0.031982098 0.13865766 0.73757738 720903
-0.024731679 0.13865766 0.73757738 1312524
-0.017169096 0.13618164 0.72440636 720903
-0.0098718647 0.13379249 0.71169752 655880
-0.0028758463 0.13379249 0.71169752 918281
0.004120172 0.13379249 0.71169752 1509388
0.011520416 0.13865766 0.73757738 3347993
0.019479167 0.14389002 0.76541048 5253931
0.027003186 0.14389002 0.76541048 7682867
0.034527205 0.14389002 0.76541048 10173489
0.039100263 0.13379249 0.71169752 11287336
0.045301516 0.13148572 0.69942683 11877414
0.049610838 0.12501921 0.66502881 12205604
0.056148101 0.12501921 0.66502881 12533283
0.064810291 0.12925716 0.68757218 12468006
0.069222629 0.12501921 0.66502881 12598309
0.068975426 0.11382346 0.605474 12599074
0.066054292 0.10034437 0.53377312 12205604
0.071301311 0.10034437 0.53377312 12402215
0.076548323 0.10034437 0.53377312 12599846
0.081795335 0.10034437 0.53377312 12599076
0.087042347 0.10034437 0.53377312 12730662
0.091090798 0.099041186 0.52684098 12927528
0.096269667 0.099041186 0.52684098 12861733
0.10144854 0.099041186 0.52684098 13059112
0.1066274 0.099041186 0.52684098 12927524
0.11180628 0.099041186 0.52684098 12862246
0.11259822 0.095327146 0.50708449 12861735
0.11758288 0.095327146 0.50708449 12993834
0.12105435 0.094150268 0.50082415 12862505
0.12916678 0.09653382 0.51350325 12994602
0.13421455 0.09653382 0.51350325 13190439
0.1428795 0.099041186 0.52684098 13190955
0 0 0 12863274
0 0 0 13059368
0 0 0 12731691
0 0 0 12929069
0 0 0 13060395
0 0 0 12995374
0 0 0 12732202
0 0 0 12732200
0 0 0 12928811
0 0 0 12863021
0 0 0 12995116
0 0 0 12929581
0 0 0 12929581
0 0 0 12732459
0.99901867 0.44859833 2.3862798 12732204
1.022476 0.44859833 2.3862798 12535595
0.98782581 0.42367622 2.2537088 12536107
0.86569697 0.36315101 1.9317503 12536109
0.77410042 0.31775713 1.6902815 11945512
0.86259919 0.34664416 1.8439435 12273196
0.88072526 0.34664416 1.8439435 12011566
0.89885128 0.34664416 1.8439435 12470318
0.84056258 0.31775713 1.6902815 12077099
0.822891 0.30504686 1.6226703 12141869
0.83884192 0.30504686 1.6226703 12207916
0.82191622 0.29331431 1.5602599 12142638
0.83725363 0.29331431 1.5602599 12207919
0.8525911 0.29331431 1.5602599 11486249
0.8679285 0.29331431 1.5602599 11224877
0.91859657 0.30504686 1.6226703 10569519
0.89860338 0.29331431 1.5602599 10502954
0.9504984 0.30504686 1.6226703 10634540
0.96644932 0.30504686 1.6226703 10174761
1.1163639 0.34664416 1.8439435 10962732
1.0851643 0.33157268 1.763772 11354921
1.1025022 0.33157268 1.763772 11355691
1.170742 0.34664416 1.8439435 11420459
1.2454808 0.36315101 1.9317503 11420203
1.26447 0.36315101 1.9317503 11157802
1.3476323 0.38130859 2.028338 11288617
1.3675709 0.38130859 2.028338 10960937
1.3214376 0.36315101 1.9317503 10436650
1.3404268 0.36315101 1.9317503 10371371
1.359416 0.36315101 1.9317503 10502443
1.3784052 0.36315101 1.9317503 10501672
1.3973943 0.36315101 1.9317503 10633258
1.4163835 0.36315101 1.9317503 10501673
1.1593395 0.29331431 1.5602599 10567207
1.174677 0.29331431 1.5602599 10502184
1.237615 0.30504686 1.6226703 10501927
1.2535659 0.30504686 1.6226703 10632745
1.3224133 0.31775713 1.6902815 10566696
1.3972476 0.33157268 1.763772 10370345
1.4145855 0.33157268 1.763772 10502188
1.4970108 0.34664416 1.8439435 10501161
1.5872862 0.36315101 1.9317503 10041895
1.6062754 0.36315101 1.9317503 9976614
1.551389 0.34664416 1.8439435 10239532
1.5695151 0.34664416 1.8439435 9844774
1.5876411 0.34664416 1.8439435 9845287
1.4719532 0.31775713 1.6902815 10107943
1.4885688 0.31775713 1.6902815 10042664
1.4449769 0.30504686 1.6226703 9648679
1.5217998 0.31775713 1.6902815 9583141
1.605303 0.33157268 1.763772 9517095
1.7771782 0.36315101 1.9317503 9255208
1.7961674 0.36315101 1.9317503 9321256
1.8151566 0.36315101 1.9317503 9518636
1.6746548 0.33157268 1.763772 9125162
1.6919928 0.33157268 1.763772 8928557
1.7093308 0.33157268 1.763772 8928815
1.6547242 0.31775713 1.6902815 8666416
1.6713398 0.31775713 1.6902815 8536110
1.6879553 0.31775713 1.6902815 8143405
1.7786826 0.33157268 1.763772 7356207
1.7960205 0.33157268 1.763772 7028015
1.8133585 0.33157268 1.763772 7093294
1.8306965 0.33157268 1.763772 7027501
1.932036 0.34664416 1.8439435 6764589
1.9501621 0.34664416 1.8439435 6567723
2.062016 0.36315101 1.9317503 6633003
2.1850557 0.38130859 2.028338 6699052
2.594111 0.44859833 2.3862798 6698799
2.617568 0.44859833 2.3862798 6634035
2.6410253 0.44859833 2.3862798 6175282
3.4843235 0.58662862 3.1205199 5912108
4.154089 0.69328833 3.687887 5649449
0 0 0 4926498
0 0 0 4859935
0 0 0 4530974
0 0 0 4531489
0 0 0 4203037
9.6175232 1.5252343 8.1133518 4006171
9.697278 1.5252343 8.1133518 4072222
9.7770329 1.5252343 8.1133518 4071709
0 0 0 3874330
0 0 0 3808283
0 0 0 3874331
0 0 0 4071709
0 0 0 4137501
0 0 0 4137501
0 0 0 4334623
0 0 0 4597022
0 0 0 4925213
0 0 0 918282
0 0 0 787209
0 0 0 787466
0 0 0 853003
0 0 0 918282
-23.609571 4.0124722 20.283379 1246731
0 0 0 1116431
0 0 0 1575958
0 0 0 4270899
0 0 0 10120786
0 0 0 10711376
0 0 0 10711123
0 0 0 10842195
-4.8921065 0.89166057 4.5074177 10908244
-3.3561683 0.61730343 3.1205199 10777427
-2.0586386 0.38214022 1.9317503 10909014
-1.9469382 0.3647702 1.8439435 10908245
-1.928812 0.3647702 1.8439435 11105113
-1.910686 0.3647702 1.8439435 10777688
-2.4491954 0.47205555 2.3862798 10711890
0 0 0 8935220
0 0 0 6174238
-4.0440001 0.80249453 4.0566759 3611150
-4.0041227 0.80249453 4.0566759 1180677
-4.4047174 0.89166057 4.5074177 918282
-4.3604093 0.89166057 4.5074177 1903376
-3.884491 0.80249453 4.0566759 3151382
-3.8446138 0.80249453 4.0566759 3217172
-3.8047364 0.80249453 4.0566759 3217429
-4.183177 0.89166057 4.5074177 3217431
-4.1388688 0.89166057 4.5074177 3217429
-4.0945606 0.89166057 4.5074177 3086102
-4.0502524 0.89166057 4.5074177 3020052
-4.0059443 0.89166057 4.5074177 3085330
-3.5654726 0.80249453 4.0566759 2888723
-3.5255952 0.80249453 4.0566759 2888981
-3.8730199 0.89166057 4.5074177 2757139
-3.8287117 0.89166057 4.5074177 2232081
-3.7844038 0.89166057 4.5074177 2493967
-3.7400956 0.89166057 4.5074177 1377543
-3.6957874 0.89166057 4.5074177 655622
-3.6514795 0.89166057 4.5074177 1312779
-3.2464542 0.80249453 4.0566759 1049608
-3.2065768 0.80249453 4.0566759 852489
-3.1666996 0.80249453 4.0566759 1181708
-3.1268222 0.80249453 4.0566759 1050122
-3.0869448 0.80249453 4.0566759 1182224
-3.0470676 0.80249453 4.0566759 1705998
-3.0071902 0.80249453 4.0566759 1509385
-2.9673131 0.80249453 4.0566759 1049095
-3.2527063 0.89166057 4.5074177 918025
-3.2083981 0.89166057 4.5074177 1115145
-3.1640902 0.89166057 4.5074177 1049350
-3.119782 0.89166057 4.5074177 1115658
-3.0754738 0.89166057 4.5074177 985099
-3.0311658 0.89166057 4.5074177 1049351
-3.3602147 1.003118 5.0708447 852491
-3.3103681 1.003118 5.0708447 1510673
-3.2605214 1.003118 5.0708447 2300700
-3.2106748 1.003118 5.0708447 1772815
-3.1608281 1.003118 5.0708447 1969680
-3.1109815 1.003118 5.0708447 1838608
-3.0611348 1.003118 5.0708447 1969681
-3.0112882 1.003118 5.0708447 2298387
-2.9614415 1.003118 5.0708447 4009253
-2.9115949 1.003118 5.0708447 2035217
-2.8617485 1.003118 5.0708447 2101266
-2.8119018 1.003118 5.0708447 1641488
-2.7620552 1.003118 5.0708447 1970194
-2.7122085 1.003118 5.0708447 2035728
-2.6623619 1.003118 5.0708447 2101267
-2.6125152 1.003118 5.0708447 2232851
-2.5626686 1.003118 5.0708447 3546653
-2.5128219 1.003118 5.0708447 4466978
-2.4629753 1.003118 5.0708447 4533024
-2.4131286 1.003118 5.0708447 5124647
-2.363282 1.003118 5.0708447 4795684
-2.3134353 1.003118 5.0708447 2234912
-2.2635887 1.003118 5.0708447 2038561
-2.2137423 1.003118 5.0708447 1775902
-2.4730234 1.1464206 5.7952509 2365468
-2.4160559 1.1464206 5.7952509 2234651
-2.0642023 1.003118 5.0708447 2498078
-2.0143557 1.003118 5.0708447 3285542
-1.964509 1.003118 5.0708447 3874339
-1.9146624 1.003118 5.0708447 3547424
-1.8648157 1.003118 5.0708447 2036756
-1.8149691 1.003118 5.0708447 3350046
-1.7651225 1.003118 5.0708447 3218978
-1.7152759 1.003118 5.0708447 2104611
-1.6654292 1.003118 5.0708447 2893357
-1.4360734 0.89166057 4.5074177 8674115
-1.043824 0.6687454 3.380563 9724741
-0.71335965 0.47205555 2.3862798 10316101
-0.58641708 0.40124726 2.028338 10316615
-0.47206533 0.3343727 1.6902815 11038026
-0.37692398 0.27672222 1.3988537 10973515
-0.23936415 0.1823851 0.92197174 9005127
-0.22518331 0.17833211 0.90148348 917766
-0.21161905 0.17445531 0.88188601 918284
-0.20295006 0.17445531 0.88188601 655880
-0.18238634 0.16377439 0.82789302 458759
-0.17076315 0.16049889 0.81133515 720903
-0.15959577 0.15735185 0.79542661 524551
-0.15177669 0.15735185 0.79542661 590088
-0.14395761 0.15735185 0.79542661 393220
-0.13352048 0.15432586 0.78012997 853002
-0.12347721 0.15141404 0.76541048 918282
-0.11595318 0.15141404 0.76541048 852231
-0.11051435 0.15432586 0.78012997 1115401
-0.10090514 0.15141404 0.76541048 918796
-0.093381122 0.15141404 0.76541048 1049610
-0.085857108 0.15141404 0.76541048 787210
-0.075484611 0.14590807 0.73757738 786696
-0.06823419 0.14590807 0.73757738 655625
-0.060983773 0.14590807 0.73757738 655368
-0.053733353 0.14590807 0.73757738 327686
-0.046482936 0.14590807 0.73757738 918283
-0.039959047 0.14861009 0.75123626 852233
-0.031982098 0.14590807 0.73757738 1049354
-0.024731679 0.14590807 0.73757738 1706512
-0.017169096 0.14330257 0.72440636 3085849
-0.0098718647 0.14078851 0.71169752 6108206
-0.0028758463 0.14078851 0.71169752 8666418
0.004120172 0.14078851 0.71169752 10763048
0.011733756 0.14861009 0.75123626 11352098
0.019479167 0.15141404 0.76541048 11418149
0.027003186 0.15141404 0.76541048 11548964
0.034527205 0.15141404 0.76541048 11352098
0.042051226 0.15141404 0.76541048 11680802
0.040422894 0.12346069 0.62410396 11812134
0.046557862 0.12346069 0.62410396 12271399
0.054365624 0.12738007 0.64391679 12533283
0.062685363 0.13155647 0.66502881 12796201
0.069222629 0.13155647 0.66502881 12270629
0.063306212 0.10993075 0.555709 12533029
0.066935018 0.10699926 0.5408901 12599076
0.071301311 0.10559138 0.53377312 12337192
0.076548323 0.10559138 0.53377312 12599076
0.081795335 0.10559138 0.53377312 12796455
0.087042347 0.10559138 0.53377312 12664869
0.091090798 0.10422006 0.52684098 12928041
0.096269667 0.10422006 0.52684098 13058596
0.10144854 0.10422006 0.52684098 12993319
0.1080304 0.10559138 0.53377312 13189669
0.11478779 0.10699926 0.5408901 12665637
0.12010476 0.10699926 0.5408901 13123878
0.12216402 0.10422006 0.52684098 12796455
0.12105435 0.099073388 0.50082415 12993834
0.12916678 0.10158158 0.51350325 13256492
0.13593525 0.10288391 0.52008665 13255977
0.1428795 0.10422006 0.52684098 12731174
0 0 0 12665639
0 0 0 12928040
0 0 0 12928554
0 0 0 13125162
0 0 0 13256491
0 0 0 13190698
0 0 0 12797741
0 0 0 13255975
0 0 0 13125932
0 0 0 12731687
0 0 0 13060654
0 0 0 12928298
0 0 0 13060395
0.92136365 0.44583029 2.2537088 12798252
0.94351768 0.44583029 2.2537088 12600876
0.96567178 0.44583029 2.2537088 12600875
0.88904321 0.40124726 2.028338 12535336
0.79041898 0.34891063 1.763772 12469803
0.74313641 0.32099777 1.6226703 12665899
0.75908732 0.32099777 1.6226703 12534826
0.77503824 0.32099777 1.6226703 12338219
0.79098916 0.32099777 1.6226703 12535082
0.84056258 0.3343727 1.6902815 12535596
0.822891 0.32099777 1.6226703 12338731
0.83884192 0.32099777 1.6226703 12142125
0.82191622 0.30865172 1.5602599 11814189
0.83725363 0.30865172 1.5602599 11485996
0.8525911 0.30865172 1.5602599 11289129
0.94025582 0.3343727 1.6902815 11354920
1.0935673 0.38214022 1.9317503 11420715
0.89860338 0.30865172 1.5602599 11486510
0.9504984 0.32099777 1.6226703 11879469
1.006718 0.3343727 1.6902815 12076589
1.1695241 0.38214022 1.9317503 11683628
1.1885133 0.38214022 1.9317503 11814188
1.1526159 0.3647702 1.8439435 11550761
1.2264916 0.38214022 1.9317503 11223340
1.2454808 0.38214022 1.9317503 10764331
1.3276936 0.40124726 2.028338 10306091
1.3476323 0.40124726 2.028338 9782058
1.3675709 0.40124726 2.028338 9913388
1.3875096 0.40124726 2.028338 9977640
1.3404268 0.38214022 1.9317503 9911591
1.359416 0.38214022 1.9317503 10370600
1.3784052 0.38214022 1.9317503 10698024
1.3973943 0.38214022 1.9317503 10894373
1.4163835 0.38214022 1.9317503 10762533
1.4353727 0.38214022 1.9317503 10501929
1.2216641 0.32099777 1.6226703 10764074
1.237615 0.32099777 1.6226703 10895917
1.3057978 0.3343727 1.6902815 10239273
1.4426327 0.3647702 1.8439435 10239529
1.4607588 0.3647702 1.8439435 10172966
1.4788848 0.3647702 1.8439435 10239273
1.568297 0.38214022 1.9317503 10566952
1.5872862 0.38214022 1.9317503 10501674
1.6062754 0.38214022 1.9317503 10238759
1.6252646 0.38214022 1.9317503 10107687
1.6442538 0.38214022 1.9317503 10305579
1.5876411 0.3647702 1.8439435 10107690
1.6057671 0.3647702 1.8439435 10369833
1.4885688 0.3343727 1.6902815 10042408
1.5051843 0.3343727 1.6902815 9582885
1.587965 0.34891063 1.763772 9452071
1.6782713 0.3647702 1.8439435 9321253
1.7771782 0.38214022 1.9317503 9452071
1.7145234 0.3647702 1.8439435 9911080
1.7326494 0.3647702 1.8439435 10174249
1.8341458 0.38214022 1.9317503 10241326
1.853135 0.38214022 1.9317503 10373168
1.7093308 0.34891063 1.763772 10175021
1.6547242 0.3343727 1.6902815 10175024
1.7440066 0.34891063 1.763772 9847345
1.7613447 0.34891063 1.763772 9847345
1.7786826 0.34891063 1.763772 9979185
1.7960205 0.34891063 1.763772 9978931
1.8957839 0.3647702 1.8439435 9913906
2.0050485 0.38214022 1.9317503 9848369
2.0240376 0.38214022 1.9317503 9848112
2.0430269 0.38214022 1.9317503 9781552
2.062016 0.38214022 1.9317503 9518639
2.1850557 0.40124726 2.028338 9189676
2.4499936 0.44583029 2.2537088 9256752
2.617568 0.47205555 2.3862798 9059373
3.4536486 0.61730343 3.1205199 8929327
0 0 0 8010542
0 0 0 7289901
0 0 0 6896686
0 0 0 6306605
0 0 0 6241586
9.4580145 1.6049891 8.1133518 5978416
0 0 0 5911852
0 0 0 5451045
0 0 0 5253666
0 0 0 4662557
0 0 0 4532512
0 0 0 4532257
0 0 0 4466209
0 0 0 4466467
0 0 0 4334879
0 0 0 4465949
0 0 0 4596765
0 0 0 4399645
0 0 0 4728865
0 0 0 918797
0 0 0 918282
-5.3794961 0.9359687 4.5074177 786696
-16.005562 2.8079059 13.522252 1049868
-15.872638 2.8079059 13.522252 984074
0 0 0 1050122
0 0 0 1049868
0 0 0 1313042
0 0 0 2365480
0 0 0 8215119
0 0 0 10449236
0 0 0 10842710
0 0 0 10580308
-4.8921065 0.9359687 4.5074177 10777687
-3.3561683 0.64797831 3.1205199 10908760
-2.2753375 0.44335356 2.1350925 10842710
-2.0396495 0.40112939 1.9317503 10908505
-1.928812 0.38289624 1.8439435 10842454
-2.1017547 0.42118591 2.028338 10842966
-2.4491954 0.49551281 2.3862798 10645839
0 0 0 8804408
-4.0838776 0.84237182 4.0566759 6174754
-4.0440001 0.84237182 4.0566759 3612179
-4.0041227 0.84237182 4.0566759 1049350
-4.4047174 0.9359687 4.5074177 983562
-4.3604093 0.9359687 4.5074177 2034961
-4.3161011 0.9359687 4.5074177 3086359
-3.8446138 0.84237182 4.0566759 3217431
-4.2274847 0.9359687 4.5074177 3151639
-4.183177 0.9359687 4.5074177 3085074
-4.1388688 0.9359687 4.5074177 3151638
-4.0945606 0.9359687 4.5074177 3086102
-4.0502524 0.9359687 4.5074177 3020307
-4.0059443 0.9359687 4.5074177 3085844
-3.9616363 0.9359687 4.5074177 2822675
-3.9173281 0.9359687 4.5074177 2692116
-3.8730199 0.9359687 4.5074177 2625553
-3.8287117 0.9359687 4.5074177 2428177
-3.7844038 0.9359687 4.5074177 2034704
-3.7400956 0.9359687 4.5074177 1180937
-3.6957874 0.9359687 4.5074177 720905
-3.6514795 0.9359687 4.5074177 1772817
-3.6071713 0.9359687 4.5074177 1114887
-3.2065768 0.84237182 4.0566759 1246219
-3.1666996 0.84237182 4.0566759 984075
-3.1268222 0.84237182 4.0566759 1247246
-3.0869448 0.84237182 4.0566759 984329
-3.0470676 0.84237182 4.0566759 786953
-3.0071902 0.84237182 4.0566759 1180684
-2.9673131 0.84237182 4.0566759 1049868
-3.2527063 0.9359687 4.5074177 1312269
-3.2083981 0.9359687 4.5074177 2101267
-3.1640902 0.9359687 4.5074177 3151381
-3.119782 0.9359687 4.5074177 1509900
-3.0754738 0.9359687 4.5074177 1903888
-3.0311658 0.9359687 4.5074177 2100751
-3.3602147 1.0529647 5.0708447 1969424
-3.3103681 1.0529647 5.0708447 1904403
-3.2605214 1.0529647 5.0708447 2363669
-3.2106748 1.0529647 5.0708447 2298389
-3.1608281 1.0529647 5.0708447 2627351
-3.1109815 1.0529647 5.0708447 3021851
-3.0611348 1.0529647 5.0708447 3481630
-3.0112882 1.0529647 5.0708447 2033671
-2.9614415 1.0529647 5.0708447 2231568
-2.9115949 1.0529647 5.0708447 3285532
-2.8617485 1.0529647 5.0708447 4203806
-2.8119018 1.0529647 5.0708447 4532512
-2.7620552 1.0529647 5.0708447 5256235
-2.7122085 1.0529647 5.0708447 5124647
-2.6623619 1.0529647 5.0708447 5124133
-2.6125152 1.0529647 5.0708447 4664614
-2.5626686 1.0529647 5.0708447 5123881
-2.5128219 1.0529647 5.0708447 6373166
-2.4629753 1.0529647 5.0708447 6701359
-2.4131286 1.0529647 5.0708447 6898478
-2.363282 1.0529647 5.0708447 6174766
-2.3134353 1.0529647 5.0708447 3155239
-2.2635887 1.0529647 5.0708447 2302243
-2.2137423 1.0529647 5.0708447 1971998
-2.4730234 1.2033882 5.7952509 1774879
-2.4160559 1.2033882 5.7952509 1511705
-2.0642023 1.0529647 5.0708447 1644318
-2.0143557 1.0529647 5.0708447 1840927
-1.964509 1.0529647 5.0708447 1972256
-1.9146624 1.0529647 5.0708447 2104094
-1.8648157 1.0529647 5.0708447 2563616
-1.8149691 1.0529647 5.0708447 3352871
-1.7651225 1.0529647 5.0708447 5192246
-1.7152759 1.0529647 5.0708447 7951177
-1.4803816 0.9359687 4.5074177 9659719
-1.4360734 0.9359687 4.5074177 10645066
-0.96352983 0.64797831 3.1205199 10972744
-0.71335965 0.49551281 2.3862798 10907466
-0.61728114 0.44335356 2.1350925 11301196
-0.56647843 0.42118591 2.028338 11498315
-0.40484428 0.31198955 1.5024725 11564620
-0.23936415 0.19144812 0.92197174 7618339
-0.22518331 0.18719372 0.90148348 4860451
-0.21161905 0.18312429 0.88188601 1114374
-0.19863197 0.17922802 0.86312246 786698
-0.18618605 0.17549412 0.84514076 655366
-0.17076315 0.16847436 0.81133515 720904
-0.16278769 0.16847436 0.81133515 458759
-0.15177669 0.16517094 0.79542661 589832
-0.14395761 0.16517094 0.79542661 524294
-0.13352048 0.16199458 0.78012997 1114892
-0.12585177 0.16199458 0.78012997 721417
-0.11818306 0.16199458 0.78012997 590087
-0.11051435 0.16199458 0.78012997 590087
-0.10090514 0.15893807 0.76541048 1246989
-0.089985445 0.1531585 0.73757738 720903
-0.082735032 0.1531585 0.73757738 721416
-0.074136674 0.15042353 0.72440636 786697
-0.06823419 0.1531585 0.73757738 1115661
-0.060983773 0.1531585 0.73757738 1049870
-0.053733353 0.1531585 0.73757738 2299421
-0.046482936 0.1531585 0.73757738 3482150
-0.039959047 0.15599477 0.75123626 6568244
-0.031982098 0.1531585 0.73757738 9584945
-0.024731679 0.1531585 0.73757738 11550249
-0.017169096 0.15042353 0.72440636 12205862
-0.010048147 0.15042353 0.72440636 12008740
-0.0028758463 0.14778453 0.71169752 11745571
0.0041937465 0.15042353 0.72440636 12007714
0.011520416 0.1531585 0.73757738 11877411
0.018770834 0.1531585 0.73757738 12139813
0.025108228 0.14778453 0.71169752 11353380
0.034527205 0.15893807 0.76541048 11811105
0.036536314 0.13809374 0.66502881 11614757
0.040422894 0.12959565 0.62410396 11811107
0.046557862 0.12959565 0.62410396 11942693
0.052692834 0.12959565 0.62410396 12008227
0.060695354 0.1337098 0.64391679 12401184
0.063978486 0.12763208 0.61464781 12205606
0.061618045 0.11231624 0.5408901 11943461
0.066935018 0.11231624 0.5408901 12468006
0.07225199 0.11231624 0.5408901 12271397
0.077568963 0.11231624 0.5408901 12467236
0.081795335 0.11083839 0.53377312 12402983
0.087042347 0.11083839 0.53377312 12665639
0.091090798 0.10939892 0.52684098 12796455
0.097536378 0.11083839 0.53377312 12862248
0.10278339 0.11083839 0.53377312 12993832
0.10947081 0.11231624 0.5408901 13059114
0 0 0 13124389
0 0 0 12928039
0 0 0 12862248
0 0 0 13256234
0.13252176 0.10939892 0.52684098 12993576
0.13593525 0.10799638 0.52008665 12731174
0 0 0 12534823
0 0 0 12469032
0 0 0 12796966
0 0 0 12928040
0 0 0 12993834
0 0 0 12731430
0 0 0 12863016
0 0 0 12928039
0 0 0 12469030
0.85827523 0.49551281 2.3862798 12993832
0.88173252 0.49551281 2.3862798 13191211
0.6994648 0.38289624 1.8439435 13060395
0.71759081 0.38289624 1.8439435 12863016
0.770751 0.40112939 1.9317503 12730919
0.7897402 0.40112939 1.9317503 12601387
0.80872941 0.40112939 1.9317503 12535080
0.75574309 0.36624858 1.763772 12535596
0.773081 0.36624858 1.763772 12076328
0.72718549 0.33694872 1.6226703 12600875
0.74313641 0.33694872 1.6226703 12535083
0.72989166 0.32398915 1.5602599 12600616
0.69199842 0.30084705 1.4488127 12797225
0.7062403 0.30084705 1.4488127 12600619
0.74716675 0.31198955 1.5024725 12600874
0.822891 0.33694872 1.6226703 12469546
0.83884192 0.33694872 1.6226703 12600875
0.85479283 0.33694872 1.6226703 12009767
0.83725363 0.32398915 1.5602599 12140840
0.92364031 0.35098824 1.6902815 11748136
0.94025582 0.35098824 1.6902815 12403498
0.99847448 0.36624858 1.763772 12074792
0.9734869 0.35098824 1.6902815 11878951
0.99010247 0.35098824 1.6902815 11682088
1.006718 0.35098824 1.6902815 11812646
1.1695241 0.40112939 1.9317503 11551275
1.1885133 0.40112939 1.9317503 11616297
1.1526159 0.38289624 1.8439435 11222570
1.170742 0.38289624 1.8439435 11223597
1.307755 0.42118591 2.028338 11354922
1.3276936 0.42118591 2.028338 11223849
1.3476323 0.42118591 2.028338 11223851
1.3675709 0.42118591 2.028338 11223339
1.3875096 0.42118591 2.028338 10960678
1.3404268 0.40112939 1.9317503 10829352
1.359416 0.40112939 1.9317503 10699048
1.3157504 0.38289624 1.8439435 10566952
1.3973943 0.40112939 1.9317503 10698023
1.4163835 0.40112939 1.9317503 10566950
1.4353727 0.40112939 1.9317503 10960679
1.4543619 0.40112939 1.9317503 9715243
1.3452337 0.36624858 1.763772 9714983
1.3625716 0.36624858 1.763772 10436392
1.4426327 0.38289624 1.8439435 10435621
1.4607588 0.38289624 1.8439435 10303781
1.5493079 0.40112939 1.9317503 10500646
1.6467121 0.42118591 2.028338 10632234
1.6666507 0.42118591 2.028338 10435366
1.6062754 0.40112939 1.9317503 10369831
1.6252646 0.40112939 1.9317503 10041892
1.6442538 0.40112939 1.9317503 10304292
1.5876411 0.38289624 1.8439435 10173480
1.5359511 0.36624858 1.763772 10435111
1.6238931 0.38289624 1.8439435 10238761
1.6420193 0.38289624 1.8439435 9715243
1.6601453 0.38289624 1.8439435 9649966
1.6782713 0.38289624 1.8439435 9714473
1.6963974 0.38289624 1.8439435 9975847
1.7145234 0.38289624 1.8439435 10238758
1.8151566 0.40112939 1.9317503 10371371
1.8341458 0.40112939 1.9317503 10503981
1.853135 0.40112939 1.9317503 10438447
1.7870276 0.38289624 1.8439435 10175792
1.7266687 0.36624858 1.763772 10373171
1.7440066 0.36624858 1.763772 10372912
1.7613447 0.36624858 1.763772 10109742
1.7786826 0.36624858 1.763772 10044208
1.7960205 0.36624858 1.763772 9715503
1.8957839 0.38289624 1.8439435 10044208
2.0050485 0.40112939 1.9317503 9388073
2.0240376 0.40112939 1.9317503 9454379
2.0430269 0.40112939 1.9317503 9716786
2.062016 0.40112939 1.9317503 10111028
2.4278398 0.46798435 2.2537088 9847345
2.594111 0.49551281 2.3862798 9847344
3.4229739 0.64797831 3.1205199 9847601
0 0 0 9847602
0 0 0 9716784
0 0 0 9848113
0 0 0 9847859
5.1658363 0.9359687 4.5074177 10044982
7.8152161 1.403953 6.761126 9782323
0 0 0 9323570
0 0 0 8996921
0 0 0 8668985
0 0 0 8537145
0 0 0 8471609
0 0 0 7618868
0 0 0 6435624
0 0 0 5515808
0 0 0 5122851
0 0 0 4728608
0 0 0 4991522
0 0 0 4859424
0 0 0 5319202
0 0 0 5582373
0 0 0 787466
0 0 0 853259
-4.8415465 0.88224912 4.0566759 722186
-16.005562 2.9408302 13.522252 852746
0 0 0 918284
0 0 0 918284
0 0 0 918797
0 0 0 787214
0 0 0 1510939
0 0 0 4797759
0 0 0 10383446
0 0 0 10580310
-8.8855467 1.7644982 8.1133518 10580823
-4.8921065 0.98027682 4.5074177 10973526
-3.6358488 0.73520756 3.380563 10973525
-2.2753375 0.46434161 2.1350925 11039319
-2.0396495 0.4201186 1.9317503 10973526
-2.0206602 0.4201186 1.9317503 10646099
-2.1017547 0.44112456 2.028338 10907984
-2.4491954 0.51897001 2.3862798 10776652
-3.4364622 0.73520756 3.380563 9002045
-3.7126157 0.80204457 3.687887 6175528
-4.0440001 0.88224912 4.0566759 3940889
-4.0041227 0.88224912 4.0566759 1180938
-4.4047174 0.98027682 4.5074177 786696
-4.3604093 0.98027682 4.5074177 1575436
-4.3161011 0.98027682 4.5074177 2822673
-4.2717929 0.98027682 4.5074177 2888466
-4.2274847 0.98027682 4.5074177 2888723
-4.183177 0.98027682 4.5074177 2757135
-4.1388688 0.98027682 4.5074177 2757908
-4.0945606 0.98027682 4.5074177 2692115
-4.0502524 0.98027682 4.5074177 2559760
-4.0059443 0.98027682 4.5074177 2625553
-3.9616363 0.98027682 4.5074177 2165517
-3.9173281 0.98027682 4.5074177 1771530
-3.8730199 0.98027682 4.5074177 1376774
-3.8287117 0.98027682 4.5074177 1180679
-3.4059634 0.88224912 4.0566759 917508
-3.7400956 0.98027682 4.5074177 786696
-3.6957874 0.98027682 4.5074177 720905
-3.6514795 0.98027682 4.5074177 1772817
-3.6071713 0.98027682 4.5074177 1312264
-3.5628631 0.98027682 4.5074177 1115404
-3.1666996 0.88224912 4.0566759 1115663
-3.1268222 0.88224912 4.0566759 1049098
-3.0869448 0.88224912 4.0566759 1312267
-3.0470676 0.88224912 4.0566759 1115658
-3.0071902 0.88224912 4.0566759 919052
-2.9673131 0.88224912 4.0566759 1115661
-3.2527063 0.98027682 4.5074177 1510160
-3.2083981 0.98027682 4.5074177 1772817
-3.1640902 0.98027682 4.5074177 1509902
-3.119782 0.98027682 4.5074177 2824732
-3.0754738 0.98027682 4.5074177 3283738
-3.0311658 0.98027682 4.5074177 3415067
-3.3602147 1.1028113 5.0708447 3284507
-3.3103681 1.1028113 5.0708447 3679006
-3.2605214 1.1028113 5.0708447 3810077
-3.2106748 1.1028113 5.0708447 3941406
-3.1608281 1.1028113 5.0708447 4204576
-3.1109815 1.1028113 5.0708447 4467491
-3.0611348 1.1028113 5.0708447 4993320
-3.0112882 1.1028113 5.0708447 5649963
-2.9614415 1.1028113 5.0708447 6044461
-2.9115949 1.1028113 5.0708447 6570030
-2.8617485 1.1028113 5.0708447 6635823
-2.8119018 1.1028113 5.0708447 6832687
-2.7620552 1.1028113 5.0708447 6833198
-2.7122085 1.1028113 5.0708447 7160624
-2.6623619 1.1028113 5.0708447 6898478
-2.6125152 1.1028113 5.0708447 7293493
-2.5626686 1.1028113 5.0708447 7424049
-2.5128219 1.1028113 5.0708447 7489843
-2.4629753 1.1028113 5.0708447 7949879
-2.4131286 1.1028113 5.0708447 8081460
-2.363282 1.1028113 5.0708447 8146746
-2.3134353 1.1028113 5.0708447 8212537
-2.2635887 1.1028113 5.0708447 8278585
-2.2137423 1.1028113 5.0708447 8278845
-2.1638956 1.1028113 5.0708447 7820097
-2.114049 1.1028113 5.0708447 7951425
-2.0642023 1.1028113 5.0708447 8148034
-2.0143557 1.1028113 5.0708447 8279875
-1.964509 1.1028113 5.0708447 7884858
-1.9146624 1.1028113 5.0708447 9132609
-1.8648157 1.1028113 5.0708447 9395265
-1.8149691 1.1028113 5.0708447 9725253
-1.7651225 1.1028113 5.0708447 9856069
-1.7152759 1.1028113 5.0708447 10513227
-1.4803816 0.98027682 4.5074177 10841161
-1.4360734 0.98027682 4.5074177 11038535
-1.043824 0.73520756 3.380563 11301964
-0.71335965 0.51897001 2.3862798 11366987
-0.61728114 0.46434161 2.1350925 11433549
-0.45318273 0.35289964 1.6226703 11893841
-0.40484428 0.32675892 1.5024725 11695948
-0.23936415 0.20051114 0.92197174 6698020
-0.22518331 0.19605535 0.90148348 6369062
-0.21161905 0.19179328 0.88188601 5122083
-0.20295006 0.19179328 0.88188601 1771018
-0.18618605 0.18380189 0.84514076 720903
-0.17424811 0.18005084 0.82789302 655368
-0.16278769 0.17644982 0.81133515 655366
-0.15177669 0.17299001 0.79542661 720901
-0.14395761 0.17299001 0.79542661 327685
-0.13352048 0.1696633 0.78012997 983562
-0.12585177 0.1696633 0.78012997 655882
-0.12050037 0.17299001 0.79542661 721416
-0.11268129 0.17299001 0.79542661 786696
-0.10695945 0.17644982 0.81133515 1115145
-0.09517692 0.1696633 0.78012997 984075
-0.087508209 0.1696633 0.78012997 1904662
-0.075484611 0.16040891 0.73757738 3941927
-0.06823419 0.16040891 0.73757738 7551796
-0.060983773 0.16040891 0.73757738 9912883
-0.053733353 0.16040891 0.73757738 12009510
-0.047343731 0.16337946 0.75123626 12270885
-0.039959047 0.16337946 0.75123626 12402213
-0.031982098 0.16040891 0.73757738 12336420
-0.024731679 0.16040891 0.73757738 12336675
-0.017169096 0.15754448 0.72440636 12599846
-0.010048147 0.15754448 0.72440636 12140069
-0.0029272006 0.15754448 0.72440636 12139813
0.0041937465 0.15754448 0.72440636 12140070
0.011116191 0.15478055 0.71169752 11287330
0.017799929 0.1521119 0.69942683 11746339
0.024675326 0.1521119 0.69942683 11417376
0.031550724 0.1521119 0.69942683 11679777
0.03714525 0.1470415 0.67611259 11614755
0.040422894 0.13573062 0.62410396 11614755
0.046557862 0.13573062 0.62410396 12008740
0.051119912 0.13167897 0.605474 12468006
0.057936471 0.1336741 0.61464781 12205604
0.06302359 0.13167897 0.605474 12336422
0.061618045 0.11763321 0.5408901 11811875
0.066935018 0.11763321 0.5408901 11943459
0.07225199 0.11763321 0.5408901 12074018
0.077568963 0.11763321 0.5408901 12271397
0.081795335 0.1160854 0.53377312 12730147
0.087042347 0.1160854 0.53377312 12009506
0.092289366 0.1160854 0.53377312 12468776
0.097536378 0.1160854 0.53377312 12796455
0.10278339 0.1160854 0.53377312 13190182
0.1066274 0.1145778 0.52684098 13123878
0.11180628 0.1145778 0.52684098 12599594
0 0 0 12600362
0 0 0 12731432
0 0 0 12533797
0 0 0 12731431
0 0 0 12797224
0 0 0 12731689
0 0 0 12534053
0 0 0 12863017
0 0 0 12993835
0 0 0 12731432
0 0 0 12797223
0 0 0 12928809
0 0 0 12666668
0 0 0 12600616
0 0 0 12796968
0.59957808 0.35289964 1.6226703 12731944
0.615529 0.35289964 1.6226703 12731433
0.65779161 0.36760378 1.6902815 12666154
0.70372921 0.38358656 1.763772 12600874
0.75384295 0.40102229 1.8439435 12535337
0.73840511 0.38358656 1.763772 12600875
0.75574309 0.38358656 1.763772 12600362
0.71123457 0.35289964 1.6226703 12928041
0.69921684 0.33932659 1.5602599 12534571
0.64063483 0.30422381 1.3988537 12731948
0.65438563 0.30422381 1.3988537 12535084
0.66813642 0.30422381 1.3988537 12011309
0.68188721 0.30422381 1.3988537 12076333
0.74716675 0.32675892 1.5024725 12207147
0.79124135 0.33932659 1.5602599 12403754
0.83884192 0.35289964 1.6226703 12272168
0.82191622 0.33932659 1.5602599 12272424
0.87074375 0.35289964 1.6226703 12271145
0.92364031 0.36760378 1.6902815 12206119
0.94025582 0.36760378 1.6902815 12534569
0.95687139 0.36760378 1.6902815 12272939
0.9734869 0.36760378 1.6902815 12075305
0.99010247 0.36760378 1.6902815 11878440
0.96644932 0.35289964 1.6226703 11878438
0.98240024 0.35289964 1.6226703 11812134
1.1344899 0.40102229 1.8439435 11813160
1.1526159 0.40102229 1.8439435 11616297
1.170742 0.40102229 1.8439435 12075563
1.2454808 0.4201186 1.9317503 11747883
1.3276936 0.44112456 2.028338 11878698
1.3476323 0.44112456 2.028338 11682603
1.3675709 0.44112456 2.028338 11419945
1.3875096 0.44112456 2.028338 11026215
1.2238679 0.38358656 1.763772 10632997
1.1419095 0.35289964 1.6226703 10502440
1.1133273 0.33932659 1.5602599 10042923
1.2758818 0.38358656 1.763772 10108970
1.2932198 0.38358656 1.763772 10173991
1.3105577 0.38358656 1.763772 10304547
1.3278956 0.38358656 1.763772 10566948
1.4733511 0.4201186 1.9317503 10434848
1.4923403 0.4201186 1.9317503 10697253
1.5113295 0.4201186 1.9317503 10828326
1.5303187 0.4201186 1.9317503 10763302
1.5493079 0.4201186 1.9317503 10501159
1.568297 0.4201186 1.9317503 10173735
1.6666507 0.44112456 2.028338 9779494
1.6062754 0.4201186 1.9317503 9452073
1.6252646 0.4201186 1.9317503 9321258
1.6442538 0.4201186 1.9317503 9255462
1.5186132 0.38358656 1.763772 9189672
1.4719532 0.36760378 1.6902815 9189415
1.6238931 0.40102229 1.8439435 9452330
1.6420193 0.40102229 1.8439435 9714728
1.6601453 0.40102229 1.8439435 10107687
1.758189 0.4201186 1.9317503 10303781
1.6963974 0.40102229 1.8439435 10369060
1.7145234 0.40102229 1.8439435 10501159
1.7326494 0.40102229 1.8439435 10370859
1.8341458 0.4201186 1.9317503 10831153
1.7689016 0.40102229 1.8439435 10371375
1.7870276 0.40102229 1.8439435 10306606
1.8051536 0.40102229 1.8439435 10043952
1.8232797 0.40102229 1.8439435 9452587
1.9290917 0.4201186 1.9317503 9518633
1.8595318 0.40102229 1.8439435 10109481
1.8776579 0.40102229 1.8439435 10175022
1.8957839 0.40102229 1.8439435 10044978
1.9139099 0.40102229 1.8439435 9912622
1.932036 0.40102229 1.8439435 10371888
2.0430269 0.4201186 1.9317503 9913135
2.4056857 0.49013841 2.2537088 10239534
2.5706537 0.51897001 2.3862798 10043438
2.7562428 0.55140567 2.5354223 9912368
3.4229739 0.67865318 3.1205199 10371119
0 0 0 10043693
0 0 0 9847340
0 0 0 9913133
5.7617188 1.1028113 5.0708447 9716012
5.1658363 0.98027682 4.5074177 9649964
5.861412 1.1028113 5.0708447 9781036
9.4580145 1.7644982 8.1133518 9781034
0 0 0 10044981
0 0 0 9783864
0 0 0 10177337
0 0 0 10045493
0 0 0 9718069
0 0 0 9061939
0 0 0 7945517
0 0 0 7158574
0 0 0 6371116
0 0 0 6043434
0 0 0 5779238
0 0 0 6107944
0 0 0 7423800
0 0 0 984075
0 0 0 983818
-5.3794961 1.0245849 4.5074177 983819
0 0 0 984075
0 0 0 918536
0 0 0 984074
0 0 0 918284
0 0 0 918543
0 0 0 1115409
0 0 0 2234150
0 0 0 8084054
0 0 0 10382413
-8.8855467 1.8442528 8.1133518 10317649
-7.3381596 1.5368773 6.761126 10317649
-3.6358488 0.76843864 3.380563 10973780
-2.4017453 0.51229244 2.2537088 10712148
-2.0396495 0.43910778 1.9317503 10974037
-2.0206602 0.43910778 1.9317503 10580307
-2.1017547 0.46106321 2.028338 10776654
-2.3131289 0.51229244 2.2537088 10712398
-2.7491696 0.61475092 2.7044504 9527622
-3.4032311 0.76843864 3.380563 6240552
-4.0440001 0.92212641 4.0566759 5386529
-4.0041227 0.92212641 4.0566759 1707022
-4.4047174 1.0245849 4.5074177 917512
-4.3604093 1.0245849 4.5074177 984588
-4.3161011 1.0245849 4.5074177 1707278
-4.2717929 1.0245849 4.5074177 1312265
-4.2274847 1.0245849 4.5074177 1115144
-4.183177 1.0245849 4.5074177 852743
-4.1388688 1.0245849 4.5074177 786950
-4.6063805 1.152658 5.0708447 721413
-4.0502524 1.0245849 4.5074177 655621
-4.5066872 1.152658 5.0708447 786696
-4.4568405 1.152658 5.0708447 786953
-4.4069939 1.152658 5.0708447 786696
-3.8730199 1.0245849 4.5074177 786696
-3.8287117 1.0245849 4.5074177 721157
-3.7844038 1.0245849 4.5074177 590085
-3.7400956 1.0245849 4.5074177 720903
-3.6957874 1.0245849 4.5074177 918796
-4.107914 1.152658 5.0708447 1968655
-4.0580673 1.152658 5.0708447 1509130
-4.0082207 1.152658 5.0708447 1444108
-3.5185549 1.0245849 4.5074177 1707281
-3.1268222 0.92212641 4.0566759 1970453
-3.0869448 0.92212641 4.0566759 2364951
-3.3856306 1.0245849 4.5074177 2233366
-3.3413227 1.0245849 4.5074177 1180939
-2.9673131 0.92212641 4.0566759 1050379
-2.9274356 0.92212641 4.0566759 1706508
-2.8875585 0.92212641 4.0566759 2824470
-3.1640902 1.0245849 4.5074177 3021335
