# .PCD v0.7 - Point Cloud Data file format
VERSION 0.7
FIELDS x y z rgb
SIZE 4 4 4 4
TYPE F F F U
COUNT 1 1 1 1
WIDTH 1316
HEIGHT 1
VIEWPOINT 0 0 0 1 0 0 0
POINTS 1316
DATA ascii
1.8296801 0.13567345 2.2537088 918282
1.5872862 0.11629152 1.9317503 852489
1.533263 0.11100554 1.8439435 721673
1.4221066 0.10175508 1.6902815 852489
1.5695151 0.11100554 1.8439435 918282
1.5186132 0.10617922 1.763772 721418
1.6057671 0.11100554 1.8439435 918282
1.6238931 0.11100554 1.8439435 655882
1.7202107 0.11629152 1.9317503 918284
1.7391998 0.11629152 1.9317503 852489
1.758189 0.11629152 1.9317503 918282
1.8660372 0.12210611 2.028338 918281
1.8859758 0.12210611 2.028338 852747
1.9059145 0.12210611 2.028338 918539
1.9258533 0.12210611 2.028338 983819
1.853135 0.11629152 1.9317503 918283
1.8721242 0.11629152 1.9317503 852746
1.8911134 0.11629152 1.9317503 984076
1.9101025 0.11629152 1.9317503 787210
1.8414057 0.11100554 1.8439435 984073
1.8595318 0.11100554 1.8439435 853259
1.7960205 0.10617922 1.763772 984075
1.7378019 0.10175508 1.6902815 1049098
1.7544174 0.10175508 1.6902815 1049868
1.7710329 0.10175508 1.6902815 1115661
1.8653724 0.10617922 1.763772 3677730
1.8827103 0.10617922 1.763772 5451297
2.0810053 0.11629152 1.9317503 5056285
2.2049944 0.12210611 2.028338 7686193
2.2249329 0.12210611 2.028338 8607297
2.3630228 0.12853274 2.1350925 8542015
2.5164559 0.13567345 2.2537088 8674373
2.53861 0.13567345 2.2537088 9067589
2.4259868 0.12853274 2.1350925 9527110
2.3246262 0.12210611 2.028338 9790023
2.2329187 0.11629152 1.9317503 10053450
2.2519081 0.11629152 1.9317503 10514258
2.1676745 0.11100554 1.8439435 10446923
2.1858006 0.11100554 1.8439435 10185552
2.3088756 0.11629152 1.9317503 9659208
2.3278649 0.11629152 1.9317503 9593928
2.4641969 0.12210611 2.028338 9725002
0 0 0 9790539
0 0 0 9790540
0 0 0 10053713
0 0 0 9922123
0 0 0 9921866
0 0 0 9922381
0 0 0 9725001
0 0 0 9856075
0 0 0 3874325
0 0 0 1115401
-4.0346217 0.23674124 3.380563 1312781
-4.0013905 0.23674124 3.380563 1443852
-3.9681594 0.23674124 3.380563 2890267
-3.9349284 0.23674124 3.380563 3611417
-4.2563972 0.25826317 3.687887 3611671
-4.2201452 0.25826317 3.687887 3874328
-4.1838932 0.25826317 3.687887 3874328
-4.1476407 0.25826317 3.687887 3874330
-4.1113887 0.25826317 3.687887 3808537
-4.0751367 0.25826317 3.687887 3940375
-4.0388846 0.25826317 3.687887 3874328
-4.0026326 0.25826317 3.687887 3940121
-3.9663804 0.25826317 3.687887 4005656
-4.3231416 0.28408951 4.0566759 4071191
-4.2832642 0.28408951 4.0566759 4071192
-4.7148743 0.31565502 4.5074177 3874071
-4.2035093 0.28408951 4.0566759 3743512
-4.1636324 0.28408951 4.0566759 3873558
-3.7488678 0.25826317 3.687887 3019278
-3.7126157 0.25826317 3.687887 1641228
-4.0440001 0.28408951 4.0566759 1969681
-4.4490256 0.31565502 4.5074177 2627096
-4.4047174 0.31565502 4.5074177 2955287
-4.3604093 0.31565502 4.5074177 3021080
-4.3161011 0.31565502 4.5074177 2889752
-4.2717929 0.31565502 4.5074177 2692888
-4.2274847 0.31565502 4.5074177 2692888
-4.183177 0.31565502 4.5074177 1903889
-4.6562271 0.3551119 5.0708447 786696
-4.6063805 0.3551119 5.0708447 721673
-4.5565338 0.3551119 5.0708447 721673
-4.0059443 0.31565502 4.5074177 918282
-3.9616363 0.31565502 4.5074177 721673
-3.9173281 0.31565502 4.5074177 721673
-3.8730199 0.31565502 4.5074177 918282
-3.8287117 0.31565502 4.5074177 1049352
-3.7844038 0.31565502 4.5074177 852743
-3.7400956 0.31565502 4.5074177 918536
-4.1577606 0.3551119 5.0708447 786954
-4.107914 0.3551119 5.0708447 655882
-3.6071713 0.31565502 4.5074177 721675
-4.0082207 0.3551119 5.0708447 984075
-3.9583743 0.3551119 5.0708447 1312008
-3.9085276 0.3551119 5.0708447 1180678
-3.858681 0.3551119 5.0708447 1115142
-3.8088343 0.3551119 5.0708447 1245959
-3.7589877 0.3551119 5.0708447 1049350
-3.709141 0.3551119 5.0708447 983559
-3.6592944 0.3551119 5.0708447 786951
-3.6094477 0.3551119 5.0708447 852488
-3.1640902 0.31565502 4.5074177 852489
-2.8078039 0.28408951 4.0566759 918282
-2.1291742 0.2185304 3.1205199 853003
-1.7050307 0.17755595 2.5354223 787209
-1.2218962 0.12913159 1.8439435 852489
-1.1514323 0.12351717 1.763772 721418
-1.0868404 0.11837062 1.6902815 787210
-1.2842699 0.14204475 2.028338 2497062
0 0 0 5649455
0 0 0 5254441
-0.44525596 0.051652636 0.73757738 4925478
-0.30885008 0.036421731 0.52008665 4859685
-0.30373761 0.036421731 0.52008665 4728354
-0.29862514 0.036421731 0.52008665 4793890
-0.30123666 0.0373802 0.53377312 4595998
-0.31243354 0.039456878 0.56342721 4793631
0 0 0 4858397
0 0 0 4727322
0 0 0 4595736
0 0 0 4727322
0 0 0 4924188
0 0 0 5056035
0 0 0 10251085
0 0 0 7883059
0 0 0 1771524
0 0 0 1378063
0 0 0 1181198
-0.32199883 0.051652636 0.73757738 1114891
-0.33290702 0.0546326 0.78012997 852748
-0.33161551 0.055703826 0.79542661 852490
-0.32379642 0.055703826 0.79542661 852748
-0.30405366 0.05360179 0.76541048 918539
-0.29652965 0.05360179 0.76541048 786953
-0.27849633 0.051652636 0.73757738 656138
-0.26172853 0.049840268 0.71169752 918282
-0.25473252 0.049840268 0.71169752 786698
-0.23933865 0.048150767 0.68757218 721674
-0.23257978 0.048150767 0.68757218 852489
-0.22205722 0.04734825 0.67611259 852489
-0.21187969 0.046572052 0.66502881 655882
-0.19882362 0.045093574 0.64391679 655368
-0.18948616 0.044388987 0.63385558 655882
-0.18043603 0.043706078 0.62410396 524296
-0.17430106 0.043706078 0.62410396 918282
-0.16816609 0.043706078 0.62410396 655368
-0.16203111 0.043706078 0.62410396 721159
-0.15589614 0.043706078 0.62410396 852489
-0.14976117 0.043706078 0.62410396 524296
-0.14818577 0.045093574 0.64391679 720903
-0.14185603 0.045093574 0.64391679 590089
-0.13771221 0.045820888 0.65430254 786698
-0.13128039 0.045820888 0.65430254 786698
-0.12689526 0.046572052 0.66502881 786698
-0.12035801 0.046572052 0.66502881 852489
-0.11571775 0.04734825 0.67611259 720905
-0.10907153 0.04734825 0.67611259 786698
-0.10595722 0.048980948 0.69942683 721421
-0.10082011 0.049840268 0.71169752 721675
-0.093824089 0.049840268 0.71169752 655880
-0.088378564 0.050730269 0.72440636 721673
-0.079832047 0.049840268 0.71169752 852491
-0.072836034 0.049840268 0.71169752 1049098
-0.06823419 0.051652636 0.73757738 1050122
-0.060983773 0.051652636 0.73757738 1180938
-0.053733353 0.051652636 0.73757738 983305
-0.047343731 0.052609168 0.75123626 852489
-0.04071299 0.05360179 0.76541048 852490
-0.033188969 0.05360179 0.76541048 983562
-0.027204847 0.0568179 0.81133515 983562
-0.02003061 0.059185311 0.84514076 984075
0 0 0 1312524
0 0 0 1574408
0 0 0 5385761
0 0 0 5976610
0 0 0 5975840
0 0 0 5253918
0 0 0 5844000
0 0 0 5515805
0 0 0 5713186
0 0 0 6041379
0.38055938 0.31565502 4.5074177 4659474
0.42486748 0.31565502 4.5074177 5056287
0.46917561 0.31565502 4.5074177 5056285
0.5134837 0.31565502 4.5074177 5188125
0.55779183 0.31565502 4.5074177 5056284
0.67736244 0.3551119 5.0708447 5121819
0.72720903 0.3551119 5.0708447 4069906
0.77705568 0.3551119 5.0708447 4662814
0.82690233 0.3551119 5.0708447 4924956
0.87674892 0.3551119 5.0708447 5056285
0.92659557 0.3551119 5.0708447 5122079
0.97644222 0.3551119 5.0708447 5056028
1.1729015 0.40584216 5.7952509 4859163
1.0761355 0.3551119 5.0708447 9133126
1.000873 0.31565502 4.5074177 10118729
1.0451812 0.31565502 4.5074177 11038540
1.0894892 0.31565502 4.5074177 11301455
1.1337974 0.31565502 4.5074177 11564368
1.060295 0.28408951 4.0566759 11827538
1.1001723 0.28408951 4.0566759 12091993
1.0364087 0.25826317 3.687887 9721917
1.0726607 0.25826317 3.687887 1312270
1.0165035 0.23674124 3.380563 1115401
1.0497345 0.23674124 3.380563 918281
0.99966061 0.2185304 3.1205199 983305
1.0303354 0.2185304 3.1205199 984330
1.0610102 0.2185304 3.1205199 918540
0.83481801 0.16711147 2.3862798 852745
0.81059337 0.15782751 2.2537088 918282
0.8327474 0.15782751 2.2537088 984075
0.85490143 0.15782751 2.2537088 918282
0.92864698 0.16711147 2.3862798 852489
0.89920956 0.15782751 2.2537088 917767
0.92136365 0.15782751 2.2537088 917767
0.94351768 0.15782751 2.2537088 852489
1.022476 0.16711147 2.3862798 786696
1.0459331 0.16711147 2.3862798 721673
1.0099798 0.15782751 2.2537088 721160
0.97781104 0.1495208 2.1350925 721673
0.99879909 0.1495208 2.1350925 655880
0.96879786 0.14204475 2.028338 786696
1.0407752 0.1495208 2.1350925 786696
0.91697735 0.12913159 1.8439435 1114891
0.89444673 0.12351717 1.763772 852489
0.91178471 0.12351717 1.763772 786954
1.2570482 0.16711147 2.3862798 721675
1.1457155 0.1495208 2.1350925 721675
1.0076076 0.12913159 1.8439435 918540
1.0257336 0.12913159 1.8439435 787468
1.1482457 0.14204475 2.028338 721675
1.2979827 0.15782751 2.2537088 984075
1.2506558 0.1495208 2.1350925 1837838
1.2716439 0.1495208 2.1350925 7095094
1.2280003 0.14204475 2.028338 7688260
1.31362 0.1495208 2.1350925 8346185
1.2678777 0.14204475 2.028338 8608844
1.2878163 0.14204475 2.028338 8280394
1.307755 0.14204475 2.028338 6835779
1.26447 0.13528071 1.9317503 7097923
1.2834592 0.13528071 1.9317503 7556162
1.3024484 0.13528071 1.9317503 3478805
1.3875096 0.14204475 2.028338 2888471
1.4074482 0.14204475 2.028338 1114117
1.5859854 0.15782751 2.2537088 655626
2.412209 0.23674124 3.380563 786698
1.3973943 0.13528071 1.9317503 721162
1.4163835 0.13528071 1.9317503 786698
1.3701285 0.12913159 1.8439435 721675
1.5270802 0.14204475 2.028338 656136
1.5470188 0.14204475 2.028338 655880
1.5669575 0.14204475 2.028338 852489
1.5113295 0.13528071 1.9317503 918282
1.3972476 0.12351717 1.763772 918282
1.4145855 0.12351717 1.763772 918284
1.4970108 0.12913159 1.8439435 786696
1.515137 0.12913159 1.8439435 852747
1.405491 0.11837062 1.6902815 852491
1.4221066 0.11837062 1.6902815 918284
1.5012753 0.12351717 1.763772 787468
1.5186132 0.12351717 1.763772 853004
1.6057671 0.12913159 1.8439435 787209
1.6238931 0.12913159 1.8439435 852747
1.7202107 0.13528071 1.9317503 787468
1.7391998 0.13528071 1.9317503 787211
1.758189 0.13528071 1.9317503 852747
1.7771782 0.13528071 1.9317503 721675
1.7961674 0.13528071 1.9317503 787468
1.8151566 0.13528071 1.9317503 787467
1.9258533 0.14204475 2.028338 918541
1.9457918 0.14204475 2.028338 787468
1.8721242 0.13528071 1.9317503 787468
1.8911134 0.13528071 1.9317503 787468
1.9101025 0.13528071 1.9317503 918284
1.8414057 0.12913159 1.8439435 852489
1.8595318 0.12913159 1.8439435 1049098
1.7960205 0.12351717 1.763772 983305
1.8133585 0.12351717 1.763772 984075
1.7544174 0.11837062 1.6902815 1114891
1.7710329 0.11837062 1.6902815 984075
1.7876486 0.11837062 1.6902815 1575696
1.8827103 0.12351717 1.763772 1903890
1.9000483 0.12351717 1.763772 1640461
1.9173863 0.12351717 1.763772 4664353
2.1189837 0.13528071 1.9317503 8015671
2.1379728 0.13528071 1.9317503 8344381
2.5164559 0.15782751 2.2537088 8476222
2.4049988 0.1495208 2.1350925 8870466
2.4259868 0.1495208 2.1350925 9198917
2.3246262 0.14204475 2.028338 9396038
2.3445649 0.14204475 2.028338 9659210
2.3645036 0.14204475 2.028338 9987916
2.2708972 0.13528071 1.9317503 10184010
2.2898865 0.13528071 1.9317503 9987401
2.3088756 0.13528071 1.9317503 9791309
2.4442582 0.14204475 2.028338 9462090
2.5938914 0.1495208 2.1350925 9724490
0 0 0 9658698
0 0 0 9593163
0 0 0 9856335
0 0 0 9856587
0 0 0 9857100
0 0 0 9987661
0 0 0 9659209
0 0 0 9857101
0 0 0 4070417
0 0 0 1246728
-4.0346217 0.26997232 3.380563 1313037
-4.0013905 0.26997232 3.380563 1378572
-3.9681594 0.26997232 3.380563 2890267
-4.2926493 0.29451528 3.687887 3414808
-4.6820374 0.32396683 4.0566759 3676951
-4.6421599 0.32396683 4.0566759 3873815
-4.6022825 0.32396683 4.0566759 3808024
-4.1476407 0.29451528 3.687887 3676954
-4.1113887 0.29451528 3.687887 3545878
-4.0751367 0.29451528 3.687887 3808279
-4.0388846 0.29451528 3.687887 3808280
-4.0026326 0.29451528 3.687887 3808536
-3.9663804 0.29451528 3.687887 3808793
-3.9301283 0.29451528 3.687887 3808536
-4.2832642 0.32396683 4.0566759 3874072
-4.2433867 0.32396683 4.0566759 3479829
-4.2035093 0.32396683 4.0566759 3742232
-4.1636324 0.32396683 4.0566759 3807769
-4.123755 0.32396683 4.0566759 2691086
-4.0838776 0.32396683 4.0566759 1378058
-4.0440001 0.32396683 4.0566759 1575183
-4.4490256 0.35996315 4.5074177 1969680
-4.4047174 0.35996315 4.5074177 983300
-4.3604093 0.35996315 4.5074177 918279
-4.3161011 0.35996315 4.5074177 852742
-4.2717929 0.35996315 4.5074177 786949
-4.2274847 0.35996315 4.5074177 721157
-4.183177 0.35996315 4.5074177 852489
-4.6562271 0.40495852 5.0708447 721673
-4.6063805 0.40495852 5.0708447 786954
-4.5565338 0.40495852 5.0708447 721416
-4.0059443 0.35996315 4.5074177 786953
-3.9616363 0.35996315 4.5074177 983818
-3.9173281 0.35996315 4.5074177 984587
-3.8730199 0.35996315 4.5074177 918282
-3.8287117 0.35996315 4.5074177 721673
-3.7844038 0.35996315 4.5074177 983305
-3.7400956 0.35996315 4.5074177 852489
-3.6957874 0.35996315 4.5074177 852490
-3.6514795 0.35996315 4.5074177 720903
-3.6071713 0.35996315 4.5074177 786696
-3.5628631 0.35996315 4.5074177 918282
-3.5185549 0.35996315 4.5074177 1050122
-3.9085276 0.40495852 5.0708447 852743
-3.858681 0.40495852 5.0708447 918282
-3.8088343 0.40495852 5.0708447 1180426
-3.7589877 0.40495852 5.0708447 918536
-3.709141 0.40495852 5.0708447 852489
-3.6592944 0.40495852 5.0708447 852489
-2.8875585 0.32396683 4.0566759 918282
-2.847681 0.32396683 4.0566759 1049353
-2.5525486 0.29451528 3.687887 852233
-2.1291742 0.24920525 3.1205199 918025
-1.8186992 0.21597786 2.7044504 852232
-1.3440859 0.16198342 2.028338 786696
-1.2037702 0.14725764 1.8439435 721674
-1.1856441 0.14725764 1.8439435 721418
-1.5109057 0.19056872 2.3862798 1510167
0 0 0 5583924
0 0 0 5319721
-0.44525596 0.058903053 0.73757738 4990758
-0.30885008 0.041534208 0.52008665 4793892
-0.30373761 0.041534208 0.52008665 4793890
-0.29862514 0.041534208 0.52008665 4859683
-0.30123666 0.042627212 0.53377312 4990496
0 0 0 4727838
0 0 0 4858397
0 0 0 4726809
0 0 0 4661016
0 0 0 4923418
0 0 0 4988697
0 0 0 4530459
0 0 0 9133381
0 0 0 9790532
0 0 0 2428679
0 0 0 1247247
-0.32336983 0.057851214 0.72440636 1115661
-0.31624886 0.057851214 0.72440636 1049353
-0.33290702 0.062301312 0.78012997 984077
-0.32523829 0.062301312 0.78012997 1510162
-0.32379642 0.063522905 0.79542661 918283
-0.30405366 0.061125811 0.76541048 852490
-0.29652965 0.061125811 0.76541048 655880
-0.27849633 0.058903053 0.73757738 786954
-0.26172853 0.056836285 0.71169752 787211
-0.25473252 0.056836285 0.71169752 786698
-0.24346517 0.055856347 0.69942683 787211
-0.23257978 0.054909632 0.68757218 721675
-0.21841694 0.053109314 0.66502881 918283
-0.20846227 0.05225271 0.65430254 524550
-0.19882362 0.051423304 0.64391679 786698
-0.18948616 0.050619815 0.63385558 655368
-0.18043603 0.04984105 0.62410396 787212
-0.17430106 0.04984105 0.62410396 786696
-0.16816609 0.04984105 0.62410396 852489
-0.16203111 0.04984105 0.62410396 786698
-0.15589614 0.04984105 0.62410396 590089
-0.15210119 0.050619815 0.63385558 721675
-0.14818577 0.051423304 0.64391679 786696
-0.14185603 0.051423304 0.64391679 786698
-0.13771221 0.05225271 0.65430254 655880
-0.13128039 0.05225271 0.65430254 852489
-0.12689526 0.053109314 0.66502881 590087
-0.12236396 0.053994466 0.67611259 720903
-0.11571775 0.053994466 0.67611259 852489
-0.10907153 0.053994466 0.67611259 786696
-0.10416134 0.054909632 0.68757218 917512
-0.097402476 0.054909632 0.68757218 786696
-0.093824089 0.056836285 0.71169752 852489
-0.088378564 0.057851214 0.72440636 786696
-0.081257619 0.057851214 0.72440636 1049098
-0.075484611 0.058903053 0.73757738 918282
-0.06823419 0.058903053 0.73757738 1050122
-0.062113106 0.059993856 0.75123626 1049352
-0.054728419 0.059993856 0.75123626 917767
-0.048237007 0.061125811 0.76541048 852489
-0.04071299 0.061125811 0.76541048 853002
-0.033188969 0.061125811 0.76541048 918281
-0.027204847 0.064793363 0.81133515 852489
-0.019621823 0.066115677 0.82789302 983560
0 0 0 1049352
0 0 0 1312267
0 0 0 2493706
0 0 0 6238499
0 0 0 5581598
0 0 0 5384989
0 0 0 6107426
0 0 0 5712414
0 0 0 5647645
0 0 0 5909793
0.38055938 0.35996315 4.5074177 4660244
0.42486748 0.35996315 4.5074177 5319971
0.42225805 0.32396683 4.0566759 5910817
0.5134837 0.35996315 4.5074177 5188639
0.55779183 0.35996315 4.5074177 4990746
0.60209996 0.35996315 4.5074177 5122078
0.64640808 0.35996315 4.5074177 4924953
0.77705568 0.40495852 5.0708447 4793628
0.73502433 0.35996315 4.5074177 4924442
0.87674892 0.40495852 5.0708447 4924699
0.92659557 0.40495852 5.0708447 4990492
0.97644222 0.40495852 5.0708447 4464664
1.0262889 0.40495852 5.0708447 4531226
0.9565649 0.35996315 4.5074177 10252116
1.000873 0.35996315 4.5074177 11038789
1.0451812 0.35996315 4.5074177 10972489
1.0894892 0.35996315 4.5074177 11367246
1.0204177 0.32396683 4.0566759 11498064
0.88357908 0.26997232 3.380563 10116666
0.91681015 0.26997232 3.380563 9722679
0.95004123 0.26997232 3.380563 7289382
0.98327231 0.26997232 3.380563 1312524
1.0165035 0.26997232 3.380563 1180683
1.399646 0.35996315 4.5074177 918282
0.99966061 0.24920525 3.1205199 786952
0.83714753 0.20247926 2.5354223 983560
0.86207086 0.20247926 2.5354223 918024
0.83481801 0.19056872 2.3862798 852489
0.66321272 0.14725764 1.8439435 721416
0.71378344 0.1542699 1.9317503 1114891
0.76941133 0.16198342 2.028338 984075
0.87705553 0.17998157 2.2537088 918282
0.89920956 0.17998157 2.2537088 1049868
0.92136365 0.17998157 2.2537088 919052
0.94351768 0.17998157 2.2537088 984845
0.96567178 0.17998157 2.2537088 853261
0.98782581 0.17998157 2.2537088 1312524
1.0099798 0.17998157 2.2537088 1246731
0.97781104 0.17050885 2.1350925 1246731
0.94885921 0.16198342 2.028338 786696
0.88072526 0.14725764 1.8439435 917512
0.89885128 0.14725764 1.8439435 655882
0.84056258 0.13498616 1.6902815 655880
0.85717809 0.13498616 1.6902815 852489
0.87379366 0.13498616 1.6902815 787468
0.92912263 0.14085513 1.763772 918282
0.98948157 0.14725764 1.8439435 787468
1.0076076 0.14725764 1.8439435 918283
1.0257336 0.14725764 1.8439435 852489
1.1482457 0.16198342 2.028338 918539
1.2979827 0.17998157 2.2537088 721675
1.188123 0.16198342 2.028338 1706765
1.2716439 0.17050885 2.1350925 5584682
1.2280003 0.16198342 2.028338 6504754
1.247939 0.16198342 2.028338 7294014
1.2678777 0.16198342 2.028338 8213831
1.2878163 0.16198342 2.028338 7688518
1.3765841 0.17050885 2.1350925 6966333
1.3276936 0.16198342 2.028338 7162173
1.2834592 0.1542699 1.9317503 8211010
1.3675709 0.16198342 2.028338 3413527
1.3875096 0.16198342 2.028338 2954264
1.4074482 0.16198342 2.028338 786696
1.5025125 0.17050885 2.1350925 720903
1.5235004 0.17050885 2.1350925 852489
1.3973943 0.1542699 1.9317503 852489
1.4163835 0.1542699 1.9317503 721675
1.4353727 0.1542699 1.9317503 655882
1.4543619 0.1542699 1.9317503 721161
1.4733511 0.1542699 1.9317503 852489
1.5669575 0.16198342 2.028338 918284
1.5868961 0.16198342 2.028338 852491
1.6068348 0.16198342 2.028338 852491
1.5493079 0.1542699 1.9317503 787212
1.4970108 0.14725764 1.8439435 918028
1.515137 0.14725764 1.8439435 852746
1.4665993 0.14085513 1.763772 983818
1.4221066 0.13498616 1.6902815 917769
1.5012753 0.14085513 1.763772 852491
1.5876411 0.14725764 1.8439435 721675
1.6057671 0.14725764 1.8439435 786954
1.6238931 0.14725764 1.8439435 1049098
1.7202107 0.1542699 1.9317503 918282
1.82616 0.16198342 2.028338 918282
1.758189 0.1542699 1.9317503 918282
1.7771782 0.1542699 1.9317503 852489
1.7961674 0.1542699 1.9317503 918537
1.8151566 0.1542699 1.9317503 853003
2.0272138 0.17050885 2.1350925 852490
2.1619909 0.17998157 2.2537088 918283
1.8721242 0.1542699 1.9317503 853259
1.8051536 0.14725764 1.8439435 787468
1.7440066 0.14085513 1.763772 984075
1.8414057 0.14725764 1.8439435 787466
1.8595318 0.14725764 1.8439435 852489
1.8776579 0.14725764 1.8439435 984075
1.8133585 0.14085513 1.763772 984075
1.7544174 0.13498616 1.6902815 1115661
1.7710329 0.13498616 1.6902815 984075
1.7876486 0.13498616 1.6902815 1902092
1.8827103 0.14085513 1.763772 2362902
1.9000483 0.14085513 1.763772 1377806
1.9173863 0.14085513 1.763772 2363149
1.9347242 0.14085513 1.763772 7095341
2.0407922 0.14725764 1.8439435 8080951
2.1569622 0.1542699 1.9317503 8409404
2.284749 0.16198342 2.028338 8476224
2.4259868 0.17050885 2.1350925 8739653
2.3246262 0.16198342 2.028338 8805444
2.3445649 0.16198342 2.028338 9199172
2.3645036 0.16198342 2.028338 9856072
2.3844423 0.16198342 2.028338 9726028
2.4043808 0.16198342 2.028338 9856587
2.4243195 0.16198342 2.028338 9395784
2.4442582 0.16198342 2.028338 9330506
2.5938914 0.17050885 2.1350925 9658443
2.9225123 0.19056872 2.3862798 9658442
0 0 0 9592649
0 0 0 9987405
0 0 0 9659721
0 0 0 9724232
0 0 0 9527627
0 0 0 9462092
0 0 0 9396811
0 0 0 4201746
0 0 0 1115657
-4.0346217 0.30320343 3.380563 1247248
-4.0013905 0.30320343 3.380563 1378317
-4.3289013 0.33076736 3.687887 2758424
-4.2926493 0.33076736 3.687887 3479831
-4.6820374 0.36384413 4.0566759 3479831
-4.6421599 0.36384413 4.0566759 3611158
-4.6022825 0.36384413 4.0566759 3545624
-4.5624051 0.36384413 4.0566759 3545624
-4.1113887 0.33076736 3.687887 3611417
-4.0751367 0.33076736 3.687887 3676697
-4.0388846 0.33076736 3.687887 3676697
-4.0026326 0.33076736 3.687887 3545622
-3.9663804 0.33076736 3.687887 3480085
-3.9301283 0.33076736 3.687887 3545622
-4.2832642 0.36384413 4.0566759 3611158
-4.2433867 0.36384413 4.0566759 3479829
-4.2035093 0.36384413 4.0566759 3414292
-4.1636324 0.36384413 4.0566759 3282963
-4.5819497 0.40427125 4.5074177 2297357
-4.0838776 0.36384413 4.0566759 1180682
-4.4933338 0.40427125 4.5074177 1378316
-4.4490256 0.40427125 4.5074177 2167314
-4.4047174 0.40427125 4.5074177 852230
-4.3604093 0.40427125 4.5074177 655881
-4.8556137 0.45480514 5.0708447 721674
-4.8057671 0.45480514 5.0708447 655882
-4.2274847 0.40427125 4.5074177 655882
-4.183177 0.40427125 4.5074177 721675
-4.1388688 0.40427125 4.5074177 918284
-4.0945606 0.40427125 4.5074177 918284
-4.0502524 0.40427125 4.5074177 852489
-4.0059443 0.40427125 4.5074177 1115404
-3.9616363 0.40427125 4.5074177 1114890
-3.5255952 0.36384413 4.0566759 1312524
-3.485718 0.36384413 4.0566759 1049352
-3.8287117 0.40427125 4.5074177 787210
-3.7844038 0.40427125 4.5074177 851975
-3.7400956 0.40427125 4.5074177 853003
-3.6957874 0.40427125 4.5074177 786698
-3.6514795 0.40427125 4.5074177 720904
-3.6071713 0.40427125 4.5074177 786696
-3.5628631 0.40427125 4.5074177 984075
-3.5185549 0.40427125 4.5074177 1115145
-3.474247 0.40427125 4.5074177 1180681
-3.4299388 0.40427125 4.5074177 1115145
-3.3856306 0.40427125 4.5074177 1049352
-3.7589877 0.45480514 5.0708447 1049352
-3.2970145 0.40427125 4.5074177 918282
-3.2527063 0.40427125 4.5074177 984075
-2.6250529 0.33076736 3.687887 983305
-2.3730674 0.30320343 3.380563 918282
-2.1598489 0.27988011 3.1205199 852489
-2.1291742 0.27988011 3.1205199 918282
-1.8186992 0.24256274 2.7044504 786697
-1.4934288 0.20213562 2.2537088 852489
-1.3938391 0.19149691 2.1350925 786696
-1.3042086 0.18192206 2.028338 786697
-1.5109057 0.21402594 2.3862798 1115407
0 0 0 5321525
0 0 0 5320750
0 0 0 4859941
-0.30885008 0.046646684 0.52008665 4662564
-0.30373761 0.046646684 0.52008665 4793890
-0.29862514 0.046646684 0.52008665 4793890
-0.29351267 0.046646684 0.52008665 4662045
-0.3081536 0.049841661 0.555709 4596252
0 0 0 4530459
0 0 0 4661531
0 0 0 4595225
0 0 0 4661018
0 0 0 4857882
0 0 0 4726807
0 0 0 5516577
0 0 0 9592383
0 0 0 2165507
0 0 0 1115661
-0.41156158 0.082691841 0.92197174 1180684
-0.37680715 0.077413641 0.86312246 984075
-0.37632966 0.079096548 0.88188601 1905692
-0.34515086 0.074253902 0.82789302 2167579
-0.31157768 0.068649828 0.76541048 1181453
-0.30405366 0.068649828 0.76541048 852746
-0.30815828 0.071341984 0.79542661 655880
-0.27849633 0.066153474 0.73757738 787468
-0.26172853 0.063832305 0.71169752 721675
-0.25473252 0.063832305 0.71169752 655624
-0.2477365 0.063832305 0.71169752 852490
-0.23658976 0.062731743 0.69942683 984075
-0.21841694 0.059646577 0.66502881 852489
-0.20846227 0.058684535 0.65430254 786441
-0.19571699 0.056850642 0.63385558 655882
-0.186571 0.055976018 0.62410396 655882
-0.18043603 0.055976018 0.62410396 721675
-0.17430106 0.055976018 0.62410396 655880
-0.16816609 0.055976018 0.62410396 524296
-0.15957609 0.055127893 0.61464781 721418
-0.15589614 0.055976018 0.62410396 786697
-0.15210119 0.056850642 0.63385558 720904
-0.14587036 0.056850642 0.63385558 786698
-0.14185603 0.057753034 0.64391679 655882
-0.13771221 0.058684535 0.65430254 786696
-0.13343252 0.059646577 0.66502881 786696
-0.12689526 0.059646577 0.66502881 786696
-0.12236396 0.060640685 0.67611259 786698
-0.11571775 0.060640685 0.67611259 786698
-0.10907153 0.060640685 0.67611259 590087
-0.10416134 0.061668497 0.68757218 721159
-0.10082011 0.063832305 0.71169752 721673
-0.093824089 0.063832305 0.71169752 786696
-0.088378564 0.064972162 0.72440636 655882
-0.081257619 0.064972162 0.72440636 917512
-0.075484611 0.066153474 0.73757738 721673
-0.06823419 0.066153474 0.73757738 918536
-0.062113106 0.067378543 0.75123626 786696
-0.055761028 0.068649828 0.76541048 852489
-0.048237007 0.068649828 0.76541048 852489
-0.04071299 0.068649828 0.76541048 918024
-0.033188969 0.068649828 0.76541048 918025
-0.026158508 0.069970027 0.78012997 852489
-0.019229386 0.072768822 0.81133515 1049352
0 0 0 1115145
0 0 0 1246474
0 0 0 1312264
0 0 0 6238499
0 0 0 5581598
0 0 0 5187612
0 0 0 6106659
0 0 0 5843741
0 0 0 5909280
0 0 0 5844254
0.28541949 0.30320343 3.380563 4660244
0.3186506 0.30320343 3.380563 5319198
0.35188168 0.30320343 3.380563 6106913
0.38511276 0.30320343 3.380563 5910561
0.50201267 0.36384413 4.0566759 5844000
0.60209996 0.40427125 4.5074177 5778977
0.64640808 0.40427125 4.5074177 5647904
0.69071621 0.40427125 4.5074177 5186842
0.73502433 0.40427125 4.5074177 5121565
0.77933246 0.40427125 4.5074177 5056542
0.92659557 0.45480514 5.0708447 5319713
0.97644222 0.45480514 5.0708447 6240038
1.0262889 0.45480514 5.0708447 8211511
0.9565649 0.40427125 4.5074177 9657405
1.000873 0.40427125 4.5074177 10051393
1.0451812 0.40427125 4.5074177 10708800
0.98054034 0.36384413 4.0566759 12090196
0.78493661 0.27988011 3.1205199 11632212
0.75735348 0.25988865 2.8976254 7684138
0.84628636 0.27988011 3.1205199 9723710
0.95004123 0.30320343 3.380563 8144688
0.98327231 0.30320343 3.380563 984075
1.0165035 0.30320343 3.380563 853003
1.399646 0.40427125 4.5074177 1049611
0 0 0 852489
0 0 0 918281
0.86207086 0.22740257 2.5354223 1378318
0.67580503 0.17325909 1.9317503 1181451
0.66321272 0.16538368 1.8439435 1378060
0.68133873 0.16538368 1.8439435 1180938
0.73277265 0.17325909 1.9317503 984329
0.75176179 0.17325909 1.9317503 918282
0.770751 0.17325909 1.9317503 983562
0.8728708 0.19149691 2.1350925 1049098
0.89385885 0.19149691 2.1350925 1114891
0.96567178 0.20213562 2.2537088 1379087
0.98782581 0.20213562 2.2537088 3152413
1.0099798 0.20213562 2.2537088 1772560
0.97781104 0.19149691 2.1350925 1049868
0.86259919 0.16538368 1.8439435 1049352
0.84243286 0.1581931 1.763772 721159
0.82394701 0.15160172 1.6902815 918025
0.84056258 0.15160172 1.6902815 786696
0.822891 0.14553764 1.6226703 852489
0.87379366 0.15160172 1.6902815 852748
0.89040917 0.15160172 1.6902815 787466
0.98948157 0.16538368 1.8439435 787468
1.0076076 0.16538368 1.8439435 787211
1.074578 0.17325909 1.9317503 983561
1.0935673 0.17325909 1.9317503 787211
1.2296677 0.19149691 2.1350925 852489
1.188123 0.18192206 2.028338 1705994
1.2716439 0.19149691 2.1350925 7556925
1.2926319 0.19149691 2.1350925 6767671
1.31362 0.19149691 2.1350925 6964533
1.2678777 0.18192206 2.028338 7819580
1.2878163 0.18192206 2.028338 7949629
1.307755 0.18192206 2.028338 7096895
1.3276936 0.18192206 2.028338 7557185
1.3476323 0.18192206 2.028338 8277314
1.3675709 0.18192206 2.028338 3610906
1.3875096 0.18192206 2.028338 2954006
1.4074482 0.18192206 2.028338 786698
1.5025125 0.19149691 2.1350925 655624
1.5235004 0.19149691 2.1350925 721675
1.4672642 0.18192206 2.028338 590089
1.4872029 0.18192206 2.028338 655882
1.4353727 0.17325909 1.9317503 721419
1.5270802 0.18192206 2.028338 786698
1.4733511 0.17325909 1.9317503 852490
1.5669575 0.18192206 2.028338 918282
1.5868961 0.18192206 2.028338 2431262
1.6068348 0.18192206 2.028338 4666160
1.5493079 0.17325909 1.9317503 5193017
1.4970108 0.16538368 1.8439435 5128510
1.515137 0.16538368 1.8439435 5128510
1.533263 0.16538368 1.8439435 4799290
1.4839373 0.1581931 1.763772 2957348
1.5012753 0.1581931 1.763772 1378063
1.5876411 0.16538368 1.8439435 787468
1.6822323 0.17325909 1.9317503 852747
1.9847585 0.20213562 2.2537088 721675
1.8062212 0.18192206 2.028338 918282
1.82616 0.18192206 2.028338 918282
1.8460985 0.18192206 2.028338 918282
1.7771782 0.17325909 1.9317503 918282
1.7961674 0.17325909 1.9317503 852490
1.8151566 0.17325909 1.9317503 852491
2.0272138 0.19149691 2.1350925 786953
2.2891667 0.21402594 2.3862798 918283
1.8721242 0.17325909 1.9317503 852490
1.7266687 0.1581931 1.763772 852489
1.6713398 0.15160172 1.6902815 984075
1.6879553 0.15160172 1.6902815 1114891
1.8595318 0.16538368 1.8439435 1180684
1.8776579 0.16538368 1.8439435 1180938
1.8133585 0.1581931 1.763772 1049352
1.8306965 0.1581931 1.763772 984329
1.7710329 0.15160172 1.6902815 1180938
1.7876486 0.15160172 1.6902815 4596763
1.8827103 0.1581931 1.763772 5321256
1.8208796 0.15160172 1.6902815 4598566
1.9173863 0.1581931 1.763772 1443599
1.8541107 0.15160172 1.6902815 4138260
1.9520621 0.1581931 1.763772 7423018
2.0589182 0.16538368 1.8439435 8212538
2.1759512 0.17325909 1.9317503 8475712
2.3046875 0.18192206 2.028338 8475710
2.3246262 0.18192206 2.028338 8541501
2.3445649 0.18192206 2.028338 8935745
2.3645036 0.18192206 2.028338 9264452
2.3844423 0.18192206 2.028338 9527622
2.4043808 0.18192206 2.028338 9593415
2.4243195 0.18192206 2.028338 9067332
2.5729032 0.19149691 2.1350925 9133127
2.7379966 0.20213562 2.2537088 9001797
2.9225123 0.21402594 2.3862798 9067846
3.8524218 0.27988011 3.1205199 9396299
0 0 0 9658956
0 0 0 9725516
0 0 0 9592393
0 0 0 9526600
0 0 0 9724492
0 0 0 9462090
0 0 0 4267537
0 0 0 1050121
-4.0346217 0.33643451 3.380563 1312270
-4.0013905 0.33643451 3.380563 1378317
-4.3289013 0.36701947 3.687887 2692118
-4.2926493 0.36701947 3.687887 3414039
-4.6820374 0.40372145 4.0566759 3414292
-4.6421599 0.40372145 4.0566759 3414293
-4.6022825 0.40372145 4.0566759 3545366
-4.5624051 0.40372145 4.0566759 3676439
-4.1113887 0.36701947 3.687887 3414296
-4.0751367 0.36701947 3.687887 3480858
-4.0388846 0.36701947 3.687887 3941409
-4.0026326 0.36701947 3.687887 4072995
-4.3630185 0.40372145 4.0566759 4071966
-3.6026175 0.33643451 3.380563 3546135
-3.8938763 0.36701947 3.687887 3546134
-4.2433867 0.40372145 4.0566759 3742999
-4.6705661 0.44857937 4.5074177 3611156
-4.6262579 0.44857937 4.5074177 3414293
-4.5819497 0.44857937 4.5074177 2232079
-4.5376415 0.44857937 4.5074177 1049609
-4.4933338 0.44857937 4.5074177 1312780
-4.4490256 0.44857937 4.5074177 2166802
-4.955307 0.50465178 5.0708447 918280
-4.9054604 0.50465178 5.0708447 852489
-4.3161011 0.44857937 4.5074177 918282
-4.2717929 0.44857937 4.5074177 918795
-4.2274847 0.44857937 4.5074177 983819
-4.183177 0.44857937 4.5074177 852489
-4.1388688 0.44857937 4.5074177 853003
-4.0945606 0.44857937 4.5074177 1115915
-4.0502524 0.44857937 4.5074177 1115661
-4.0059443 0.44857937 4.5074177 984844
-3.9616363 0.44857937 4.5074177 984329
-3.5255952 0.40372145 4.0566759 1115915
-3.485718 0.40372145 4.0566759 1181707
-3.4458406 0.40372145 4.0566759 1378059
-3.4059634 0.40372145 4.0566759 983559
-3.366086 0.40372145 4.0566759 852489
-3.3262088 0.40372145 4.0566759 786698
-3.2863314 0.40372145 4.0566759 655882
-3.2464542 0.40372145 4.0566759 786696
-3.2065768 0.40372145 4.0566759 720903
-3.5185549 0.44857937 4.5074177 918024
-3.474247 0.44857937 4.5074177 1049608
-3.4299388 0.44857937 4.5074177 918280
-3.3856306 0.44857937 4.5074177 983816
-3.3413227 0.44857937 4.5074177 1114891
-3.2970145 0.44857937 4.5074177 1181194
-2.9274356 0.40372145 4.0566759 1050122
-2.4062984 0.33643451 3.380563 917512
-2.3730674 0.33643451 3.380563 852489
-2.1598489 0.31055495 3.1205199 721673
-2.1291742 0.31055495 3.1205199 1049352
-1.8186992 0.2691476 2.7044504 852489
-1.5812775 0.23748319 2.3862798 852489
-1.4712747 0.22428969 2.2537088 786696
-1.4491206 0.22428969 2.2537088 1049098
-1.5109057 0.23748319 2.3862798 1114891
0 0 0 4862261
0 0 0 5648942
0 0 0 4860196
-0.31286111 0.052431352 0.52684098 4663075
-0.30373761 0.051759157 0.52008665 4990499
-0.29862514 0.051759157 0.52008665 4859683
-0.29351267 0.051759157 0.52008665 4530205
-0.28840017 0.051759157 0.52008665 4661790
-0.28696674 0.052431352 0.52684098 4727324
-0.28178787 0.052431352 0.52684098 4661017
0 0 0 4595738
0 0 0 4595225
0 0 0 4595737
0 0 0 4595225
0 0 0 4530205
0 0 0 8870209
0 0 0 3017989
0 0 0 1116431
0 0 0 1247248
-0.39355415 0.089715868 0.90148348 918282
-0.38469252 0.089715868 0.90148348 1905949
-0.36766067 0.087765522 0.88188601 2102810
-0.35135356 0.085898168 0.86312246 1379603
-0.31597736 0.079161063 0.79542661 787210
-0.31432143 0.080744281 0.81133515 786953
-0.30033919 0.079161063 0.79542661 918282
-0.26172853 0.070828319 0.71169752 786954
-0.25473252 0.070828319 0.71169752 852746
-0.2477365 0.070828319 0.71169752 1049612
-0.23658976 0.069607139 0.69942683 918026
-0.21841694 0.066183843 0.66502881 655368
-0.20846227 0.065116361 0.65430254 590089
-0.19270596 0.062110987 0.62410396 590087
-0.186571 0.062110987 0.62410396 787466
-0.18043603 0.062110987 0.62410396 590087
-0.17702451 0.063081473 0.63385558 590345
-0.16816609 0.062110987 0.62410396 787211
-0.16203111 0.062110987 0.62410396 786696
-0.15353407 0.061169907 0.61464781 852489
-0.15210119 0.063081473 0.63385558 721673
-0.14587036 0.063081473 0.63385558 786698
-0.14185603 0.064082764 0.64391679 720903
-0.13771221 0.065116361 0.65430254 720905
-0.13343252 0.066183843 0.66502881 852489
-0.12689526 0.066183843 0.66502881 590087
-0.12236396 0.067286901 0.67611259 786698
-0.11571775 0.067286901 0.67611259 589835
-0.10907153 0.067286901 0.67611259 720905
-0.10242531 0.067286901 0.67611259 786696
-0.10082011 0.070828319 0.71169752 655880
-0.095499516 0.072093107 0.72440636 852489
-0.088378564 0.072093107 0.72440636 918282
-0.081257619 0.072093107 0.72440636 786696
-0.075484611 0.073403895 0.73757738 1049868
-0.06823419 0.073403895 0.73757738 852491
-0.063285045 0.076173849 0.76541048 1049352
-0.055761028 0.076173849 0.76541048 786953
-0.048237007 0.076173849 0.76541048 852488
-0.04071299 0.076173849 0.76541048 918026
-0.033827219 0.077638738 0.78012997 983818
-0.026158508 0.077638738 0.78012997 918282
-0.01885234 0.079161063 0.79542661 918537
-0.011972261 0.085898168 0.86312246 1115145
0 0 0 1180684
0 0 0 1246731
0 0 0 6107426
0 0 0 5581598
0 0 0 5121819
0 0 0 6106911
0 0 0 5581598
0 0 0 5909534
0 0 0 5975073
0.2283356 0.2691476 2.7044504 4660246
0.27312908 0.28837243 2.8976254 4596250
0.30161285 0.28837243 2.8976254 4728349
0.35548872 0.31055495 3.1205199 4924699
0.38616356 0.31055495 3.1205199 4990492
0.41683844 0.31055495 3.1205199 6107943
0.58176726 0.40372145 4.0566759 7159083
0.69071621 0.44857937 4.5074177 7948339
0.73502433 0.44857937 4.5074177 8473393
0.77933246 0.44857937 4.5074177 8604980
0.82364053 0.44857937 4.5074177 8539187
0.97644222 0.50465178 5.0708447 8670256
0.91225678 0.44857937 4.5074177 8999222
0.9565649 0.44857937 4.5074177 8932660
1.000873 0.44857937 4.5074177 8933685
1.0451812 0.44857937 4.5074177 8605493
0.75426179 0.31055495 3.1205199 8539957
0.72886968 0.28837243 2.8976254 8210994
0.75735348 0.28837243 2.8976254 7751216
0.73344809 0.2691476 2.7044504 9261879
0.87696117 0.31055495 3.1205199 5975322
0.98327231 0.33643451 3.380563 1049868
1.355338 0.44857937 4.5074177 852489
0 0 0 852489
0 0 0 983818
0.83714753 0.25232589 2.5354223 1509647
0.59970146 0.17553104 1.763772 1837582
0.56767625 0.16148856 1.6226703 1772302
0.58362716 0.16148856 1.6226703 1706252
0.62456053 0.16821726 1.6902815 1837582
0.6994648 0.18350974 1.8439435 1706254
0.75176179 0.19224828 1.9317503 1574668
0.770751 0.19224828 1.9317503 1443339
0.7897402 0.19224828 1.9317503 1180681
0.80872941 0.19224828 1.9317503 918536
0.82771862 0.19224828 1.9317503 852489
0.84670776 0.19224828 1.9317503 984074
1.0099798 0.22428969 2.2537088 918283
0.92892057 0.20186073 2.028338 1246731
0.82509488 0.17553104 1.763772 721673
0.8073315 0.16821726 1.6902815 655625
0.79098916 0.16148856 1.6226703 1049611
0.80694008 0.16148856 1.6226703 3285021
0.822891 0.16148856 1.6226703 3218716
0.87379366 0.16821726 1.6902815 3021082
0.92912263 0.17553104 1.763772 2955547
0.98948157 0.18350974 1.8439435 2429719
1.0076076 0.18350974 1.8439435 1312268
1.074578 0.19224828 1.9317503 852747
1.1482457 0.20186073 2.028338 852747
1.2296677 0.21248496 2.1350925 721418
1.188123 0.20186073 2.028338 1640972
1.2716439 0.21248496 2.1350925 7160112
1.2280003 0.20186073 2.028338 6308149
1.247939 0.20186073 2.028338 6964796
1.2678777 0.20186073 2.028338 7885636
1.2878163 0.20186073 2.028338 7951173
1.307755 0.20186073 2.028338 7819330
1.26447 0.19224828 1.9317503 7359293
1.2834592 0.19224828 1.9317503 7095870
1.3024484 0.19224828 1.9317503 3545113
1.3875096 0.20186073 2.028338 3282455
1.4074482 0.20186073 2.028338 786696
1.4273869 0.20186073 2.028338 655368
1.4473255 0.20186073 2.028338 590089
1.4672642 0.20186073 2.028338 721418
1.4872029 0.20186073 2.028338 787209
1.5071415 0.20186073 2.028338 655882
1.5270802 0.20186073 2.028338 721416
1.5470188 0.20186073 2.028338 786698
1.6494288 0.21248496 2.1350925 852489
1.5868961 0.20186073 2.028338 2890524
1.6068348 0.20186073 2.028338 6767410
1.5493079 0.19224828 1.9317503 6898482
1.4970108 0.18350974 1.8439435 7950398
1.515137 0.18350974 1.8439435 8739144
1.533263 0.18350974 1.8439435 7950143
1.551389 0.18350974 1.8439435 6833977
1.5695151 0.18350974 1.8439435 4071457
1.5876411 0.18350974 1.8439435 984077
1.6822323 0.19224828 1.9317503 852490
1.9847585 0.22428969 2.2537088 852746
1.8062212 0.20186073 2.028338 786953
1.82616 0.20186073 2.028338 721416
1.758189 0.19224828 1.9317503 721160
1.7771782 0.19224828 1.9317503 852489
1.7961674 0.19224828 1.9317503 852489
1.8151566 0.19224828 1.9317503 918282
1.8341458 0.19224828 1.9317503 852489
1.7689016 0.18350974 1.8439435 918282
1.7093308 0.17553104 1.763772 1049353
1.7266687 0.17553104 1.763772 1049868
1.7440066 0.17553104 1.763772 918282
1.6879553 0.16821726 1.6902815 721673
1.7045708 0.16821726 1.6902815 852489
1.8776579 0.18350974 1.8439435 983559
1.8957839 0.18350974 1.8439435 918282
1.8306965 0.17553104 1.763772 983818
1.7710329 0.16821726 1.6902815 1246477
1.7876486 0.16821726 1.6902815 6371884
1.8827103 0.17553104 1.763772 8280640
1.9000483 0.17553104 1.763772 7821128
1.9173863 0.17553104 1.763772 1904403
1.9347242 0.17553104 1.763772 2297346
1.8707262 0.16821726 1.6902815 9133377
1.8873417 0.16821726 1.6902815 9396808
1.9867381 0.17553104 1.763772 8673861
2.0951705 0.18350974 1.8439435 7950398
2.2139297 0.19224828 1.9317503 7753017
2.3445649 0.20186073 2.028338 7818810
2.3645036 0.20186073 2.028338 8081982
2.3844423 0.20186073 2.028338 8476994
2.4043808 0.20186073 2.028338 8739912
2.5519152 0.21248496 2.1350925 8672836
2.7158425 0.22428969 2.2537088 8935747
2.7379966 0.22428969 2.2537088 8935489
3.1051693 0.25232589 2.5354223 9133126
3.8524218 0.31055495 3.1205199 9264714
0 0 0 9461836
0 0 0 9593163
0 0 0 9592650
0 0 0 9658186
0 0 0 9395271
0 0 0 9462092
0 0 0 4267534
0 0 0 1246726
-4.0346217 0.36966559 3.380563 1444110
-4.0013905 0.36966559 3.380563 1378317
-3.9681594 0.36966559 3.380563 3152155
-4.2926493 0.40327156 3.687887 3545368
-4.2563972 0.40327156 3.687887 3808537
-4.2201452 0.40327156 3.687887 3743257
-4.1838932 0.40327156 3.687887 3742742
-4.1476407 0.40327156 3.687887 3742744
-4.1113887 0.40327156 3.687887 3611671
-4.0751367 0.40327156 3.687887 3349015
-4.0388846 0.40327156 3.687887 3217686
-4.0026326 0.40327156 3.687887 3480085
-3.9663804 0.40327156 3.687887 3611159
-3.6026175 0.36966559 3.380563 3545621
-3.5693865 0.36966559 3.380563 3479829
-4.2433867 0.44359875 4.0566759 3545108
-4.6705661 0.4928875 4.5074177 3479059
-4.6262579 0.4928875 4.5074177 3085328
-4.5819497 0.4928875 4.5074177 2231566
-4.5376415 0.4928875 4.5074177 917765
-4.4933338 0.4928875 4.5074177 1049352
-4.4490256 0.4928875 4.5074177 1049867
-4.955307 0.55449843 5.0708447 1049868
-4.9054604 0.55449843 5.0708447 984075
-4.3161011 0.4928875 4.5074177 918282
-4.2717929 0.4928875 4.5074177 984075
-4.2274847 0.4928875 4.5074177 1049352
-4.183177 0.4928875 4.5074177 984845
-3.7249818 0.44359875 4.0566759 919052
-3.6851046 0.44359875 4.0566759 918537
-4.0502524 0.4928875 4.5074177 1115403
-3.60535 0.44359875 4.0566759 1049866
-3.5654726 0.44359875 4.0566759 918536
-3.5255952 0.44359875 4.0566759 984329
-3.485718 0.44359875 4.0566759 918536
-3.4458406 0.44359875 4.0566759 918536
-3.4059634 0.44359875 4.0566759 1049866
-3.366086 0.44359875 4.0566759 1049610
-3.0238259 0.40327156 3.687887 852489
-3.2863314 0.44359875 4.0566759 852489
-3.2464542 0.44359875 4.0566759 852489
-3.2065768 0.44359875 4.0566759 786952
-3.5185549 0.4928875 4.5074177 1181195
-3.1268222 0.44359875 4.0566759 1180684
-3.4299388 0.4928875 4.5074177 1049098
-3.3856306 0.4928875 4.5074177 786953
-3.3413227 0.4928875 4.5074177 1049611
-3.2970145 0.4928875 4.5074177 918537
-2.9274356 0.44359875 4.0566759 984072
-2.4062984 0.36966559 3.380563 918280
-2.3730674 0.36966559 3.380563 1115661
-2.1598489 0.3412298 3.1205199 984072
-2.1291742 0.3412298 3.1205199 984329
-1.8186992 0.29573247 2.7044504 984074
-1.4934288 0.24644375 2.2537088 1246731
-1.3938391 0.23347302 2.1350925 1114891
-1.4491206 0.24644375 2.2537088 984075
-1.4269667 0.24644375 2.2537088 1181454
0 0 0 3086879
0 0 0 5583406
0 0 0 5320234
-0.31286111 0.057610221 0.52684098 4991269
-0.30373761 0.056871634 0.52008665 4859683
-0.29862514 0.056871634 0.52008665 4925475
-0.29351267 0.056871634 0.52008665 4793376
-0.28840017 0.056871634 0.52008665 4793375
-0.2832877 0.056871634 0.52008665 4595999
-0.28178787 0.057610221 0.52684098 4530202
-0.276609 0.057610221 0.52684098 4529945
0 0 0 4529945
0 0 0 4595481
0 0 0 4924186
0 0 0 4858395
0 0 0 5517093
0 0 0 3806471
0 0 0 1049868
0 0 0 1115663
0 0 0 918283
-0.39343554 0.10081789 0.92197174 1839386
-0.37583092 0.098577492 0.90148348 1839384
-0.36696929 0.098577492 0.90148348 1970711
-0.35810766 0.098577492 0.90148348 918282
-0.31432143 0.088719748 0.81133515 984075
-0.27352318 0.079214059 0.72440636 721418
-0.26172853 0.077824339 0.71169752 787468
-0.25473252 0.077824339 0.71169752 918282
-0.2477365 0.077824339 0.71169752 1115662
-0.22870344 0.073933117 0.67611259 787209
-0.21841694 0.072721101 0.66502881 589832
-0.20846227 0.071548179 0.65430254 655882
-0.19270596 0.068245955 0.62410396 786955
-0.186571 0.068245955 0.62410396 786698
-0.18043603 0.068245955 0.62410396 852489
-0.17702451 0.069312304 0.63385558 852491
-0.16816609 0.068245955 0.62410396 786697
-0.16203111 0.068245955 0.62410396 524294
-0.15589614 0.068245955 0.62410396 590089
-0.14976117 0.068245955 0.62410396 655880
-0.14587036 0.069312304 0.63385558 720905
-0.13963954 0.069312304 0.63385558 786696
-0.13771221 0.071548179 0.65430254 590089
-0.13343252 0.072721101 0.66502881 590089
-0.12689526 0.072721101 0.66502881 590089
-0.12035801 0.072721101 0.66502881 590089
-0.11571775 0.073933117 0.67611259 590089
-0.10907153 0.073933117 0.67611259 655882
-0.10242531 0.073933117 0.67611259 720903
-0.099081822 0.076482534 0.69942683 786696
-0.093824089 0.077824339 0.71169752 787466
-0.088378564 0.079214059 0.72440636 917512
-0.081257619 0.079214059 0.72440636 852489
-0.075484611 0.080654308 0.73757738 721673
-0.06823419 0.080654308 0.73757738 590089
-0.063285045 0.08369787 0.76541048 918284
-0.055761028 0.08369787 0.76541048 786696
-0.048237007 0.08369787 0.76541048 786697
-0.041495934 0.085307449 0.78012997 852232
-0.033827219 0.085307449 0.78012997 918279
-0.026158508 0.085307449 0.78012997 983817
-0.019229386 0.088719748 0.81133515 1114889
-0.011483598 0.090530351 0.82789302 1115145
-0.0035635484 0.096434504 0.88188601 984075
0 0 0 1312267
0 0 0 5778977
0 0 0 5778209
0 0 0 4990233
0 0 0 5647393
0 0 0 5712414
0 0 0 5712414
0 0 0 6501669
0.16309686 0.21123749 1.9317503 6436389
0.18208605 0.21123749 1.9317503 6567977
0.24838707 0.26094043 2.3862798 6699048
0.33009666 0.31685624 2.8976254 6829859
0.35858044 0.31685624 2.8976254 6961961
0.38706425 0.31685624 2.8976254 7421996
0.44751328 0.3412298 3.1205199 7881775
0.62164456 0.44359875 4.0566759 8144174
0.73502433 0.4928875 4.5074177 8472624
0.77933246 0.4928875 4.5074177 8276528
0.82364053 0.4928875 4.5074177 8473136
0.86794865 0.4928875 4.5074177 8735537
0.91225678 0.4928875 4.5074177 8801328
0.9565649 0.4928875 4.5074177 8932915
1.000873 0.4928875 4.5074177 9066296
1.0451812 0.4928875 4.5074177 9590583
0.81711692 0.36966559 3.380563 9984573
0.72886968 0.31685624 2.8976254 9722425
0.70686322 0.29573247 2.7044504 9460028
0.73344809 0.29573247 2.7044504 9788221
0.81432104 0.31685624 2.8976254 2033417
0.90763605 0.3412298 3.1205199 1115147
0.93831086 0.3412298 3.1205199 918282
0.96898574 0.3412298 3.1205199 852490
0.51982349 0.1774395 1.6226703 983305
0.53577441 0.1774395 1.6226703 1049353
0.53050512 0.1706149 1.5602599 1114890
0.54584259 0.1706149 1.5602599 983560
0.56118 0.1706149 1.5602599 1180939
0.59957808 0.1774395 1.6226703 1180938
0.64117604 0.1848328 1.6902815 1114891
0.71759081 0.20163578 1.8439435 918282
0.73571688 0.20163578 1.8439435 984072
0.7897402 0.21123749 1.9317503 918536
0.80872941 0.21123749 1.9317503 852489
0.82771862 0.21123749 1.9317503 918282
0.84670776 0.21123749 1.9317503 918283
0.86569697 0.21123749 1.9317503 918282
0.77410042 0.1848328 1.6902815 918282
0.75908732 0.1774395 1.6226703 786696
0.77503824 0.1774395 1.6226703 655625
0.79098916 0.1774395 1.6226703 1443599
0.80694008 0.1774395 1.6226703 4531227
0.822891 0.1774395 1.6226703 4531998
0.87379366 0.1848328 1.6902815 4269341
0.92912263 0.19286901 1.763772 4137759
0.98948157 0.20163578 1.8439435 2363152
1.0555888 0.21123749 1.9317503 2692374
1.074578 0.21123749 1.9317503 2561303
1.1482457 0.22179937 2.028338 3152409
1.1681844 0.22179937 2.028338 3479833
1.188123 0.22179937 2.028338 2560272
1.2716439 0.23347302 2.1350925 4398871
1.2280003 0.22179937 2.028338 4464664
1.247939 0.22179937 2.028338 4334111
1.2678777 0.22179937 2.028338 4530457
1.2878163 0.22179937 2.028338 4662043
1.307755 0.22179937 2.028338 4530972
1.26447 0.21123749 1.9317503 4596250
1.2834592 0.21123749 1.9317503 5057832
1.3024484 0.21123749 1.9317503 3217430
1.3875096 0.22179937 2.028338 2954517
1.4074482 0.22179937 2.028338 1903119
1.4273869 0.22179937 2.028338 1641233
1.4473255 0.22179937 2.028338 1839123
1.4672642 0.22179937 2.028338 1839381
1.4872029 0.22179937 2.028338 1642004
1.5071415 0.22179937 2.028338 1444626
1.6074528 0.23347302 2.1350925 1444626
1.6284407 0.23347302 2.1350925 1510161
1.6494288 0.23347302 2.1350925 1444110
1.5868961 0.22179937 2.028338 2430745
1.5303187 0.21123749 1.9317503 6176046
1.4788848 0.20163578 1.8439435 7425339
1.4970108 0.20163578 1.8439435 6503730
1.515137 0.20163578 1.8439435 7356982
1.533263 0.20163578 1.8439435 6898230
1.551389 0.20163578 1.8439435 6701625
1.5695151 0.20163578 1.8439435 4466475
1.5876411 0.20163578 1.8439435 1115408
1.6057671 0.20163578 1.8439435 852232
1.6238931 0.20163578 1.8439435 918282
1.6420193 0.20163578 1.8439435 655880
1.6601453 0.20163578 1.8439435 919052
1.6782713 0.20163578 1.8439435 787466
1.6963974 0.20163578 1.8439435 1180684
1.7145234 0.20163578 1.8439435 1049868
1.7326494 0.20163578 1.8439435 787466
1.6746548 0.19286901 1.763772 787210
1.6919928 0.19286901 1.763772 852489
1.7093308 0.19286901 1.763772 918282
1.7266687 0.19286901 1.763772 787209
1.7440066 0.19286901 1.763772 787209
1.6879553 0.1848328 1.6902815 787466
1.7045708 0.1848328 1.6902815 918282
1.7960205 0.19286901 1.763772 917768
1.8133585 0.19286901 1.763772 918282
1.9139099 0.20163578 1.8439435 1114891
1.932036 0.20163578 1.8439435 1180938
1.9501621 0.20163578 1.8439435 3479318
1.9682881 0.20163578 1.8439435 3612691
1.9000483 0.19286901 1.763772 7163194
1.9173863 0.19286901 1.763772 3675928
1.8541107 0.1848328 1.6902815 4006691
1.8707262 0.1848328 1.6902815 7951424
1.8873417 0.1848328 1.6902815 8344636
1.9867381 0.19286901 1.763772 8212539
2.0951705 0.20163578 1.8439435 8607556
2.1132965 0.20163578 1.8439435 8279362
2.2329187 0.21123749 1.9317503 7686456
