# .PCD v0.7 - Point Cloud Data file format
VERSION 0.7
FIELDS x y z rgb
SIZE 4 4 4 4
TYPE F F F U
COUNT 1 1 1 1
WIDTH 1316
HEIGHT 1
VIEWPOINT 0 0 0 1 0 0 0
POINTS 1316
DATA ascii
0.80624425 0.69599324 1.5024725 11680550
0.8525911 0.72276223 1.5602599 11483683
0.8679285 0.72276223 1.5602599 11482913
0.88326591 0.72276223 1.5602599 11680293
0.89860338 0.72276223 1.5602599 11680035
0.99010247 0.78299236 1.6902815 11417635
1.006718 0.78299236 1.6902815 11286819
1.0233335 0.78299236 1.6902815 11221285
1.0399491 0.78299236 1.6902815 11155748
1.0565646 0.78299236 1.6902815 11023905
1.0731802 0.78299236 1.6902815 11483171
1.188868 0.85417348 1.8439435 11286821
1.1545161 0.8170355 1.763772 11090214
1.1230268 0.78299236 1.6902815 11089185
1.0940567 0.75167269 1.6226703 11221798
1.1100076 0.75167269 1.6226703 11155234
1.1259586 0.75167269 1.6226703 10827813
1.1419095 0.75167269 1.6226703 11023908
1.1578604 0.75167269 1.6226703 11089957
1.1286647 0.72276223 1.5602599 10695968
1.1440022 0.72276223 1.5602599 10696226
1.1593395 0.72276223 1.5602599 10893604
1.174677 0.72276223 1.5602599 10761762
1.1900145 0.72276223 1.5602599 10696994
1.2053518 0.72276223 1.5602599 10433568
1.2206893 0.72276223 1.5602599 10238245
1.2854677 0.75167269 1.6226703 10566439
1.3014187 0.75167269 1.6226703 10631204
1.3173696 0.75167269 1.6226703 10303265
1.3333205 0.75167269 1.6226703 10237731
1.3492714 0.75167269 1.6226703 10172966
1.4221066 0.78299236 1.6902815 10172452
1.4387221 0.78299236 1.6902815 10303267
1.3971242 0.75167269 1.6226703 10368804
1.4130751 0.75167269 1.6226703 10172709
1.429026 0.75167269 1.6226703 10237476
1.5051843 0.78299236 1.6902815 10105890
1.5217998 0.78299236 1.6902815 10368290
1.4768788 0.75167269 1.6226703 10303528
1.4928297 0.75167269 1.6226703 10303783
1.5716465 0.78299236 1.6902815 10172454
1.6573169 0.8170355 1.763772 10500389
2.2657096 1.105401 2.3862798 10435368
2.2891667 1.105401 2.3862798 10237989
2.4571631 1.1744885 2.5354223 10106914
2.4820864 1.1744885 2.5354223 10172196
2.5070097 1.1744885 2.5354223 10172712
1.9290917 0.89484841 1.9317503 9910054
1.9480809 0.89484841 1.9317503 9976101
2.2949152 1.0439899 2.2537088 9976101
2.6067028 1.1744885 2.5354223 10042153
2.6316261 1.1744885 2.5354223 10041636
2.6565495 1.1744885 2.5354223 10107686
2.5237391 1.105401 2.3862798 10173478
2.7063961 1.1744885 2.5354223 10041893
3.1215079 1.3422726 2.8976254 10304550
3.6749904 1.5659847 3.380563 10041892
3.7082214 1.5659847 3.380563 10566437
2.6410253 1.105401 2.3862798 10501159
2.6644826 1.105401 2.3862798 10501161
2.53861 1.0439899 2.2537088 10435368
2.3046875 0.93959087 2.028338 10436138
2.2139297 0.89484841 1.9317503 10501931
1.3791558 0.55270052 1.1931399 10633515
1.3136131 0.52199495 1.1268544 10174764
1.4451164 0.56944895 1.2292956 10305836
0 0 0 10502445
0 0 0 10372142
0 0 0 10438191
0 0 0 10502958
0 0 0 10436650
0 0 0 10370859
0 0 0 10370346
0 0 0 9190441
0 0 0 7419432
0 0 0 6040354
0 0 0 5515555
0 0 0 5910311
0 0 0 9057313
0 0 0 9057314
-1.1259409 0.44629279 0.94341296 9122595
-1.043841 0.41718674 0.88188601 9187872
-1.0351721 0.41718674 0.88188601 9253409
-0.96365601 0.39164469 0.82789302 9450018
-0.93640739 0.3838118 0.81133515 9384738
-0.92843193 0.3838118 0.81133515 9253409
-0.9024083 0.37628609 0.79542661 9319202
-0.89458925 0.37628609 0.79542661 9318176
-0.85330707 0.36208659 0.76541048 9450016
-0.84578305 0.36208659 0.76541048 9384222
0 0 0 9581602
0 0 0 9581601
-0.89041197 0.39164469 0.82789302 9581088
-0.88227373 0.39164469 0.82789302 9778468
-0.8237046 0.36904982 0.78012997 9646624
-0.78581238 0.35538131 0.75123626 10106916
-0.76427442 0.34891981 0.73757738 10106146
-0.771043 0.35538131 0.75123626 10106147
-0.80857933 0.37628609 0.79542661 10106402
-0.8167755 0.3838118 0.81133515 10303266
-0.80880004 0.3838118 0.81133515 10565411
-0.80082458 0.3838118 0.81133515 10762275
-0.8090297 0.39164469 0.82789302 10565668
-0.80089146 0.39164469 0.82789302 10433570
-0.79275328 0.39164469 0.82789302 10827812
-0.80096114 0.39980394 0.84514076 10762275
-0.79265338 0.39980394 0.84514076 10696994
-0.80103379 0.40831041 0.86312246 10368288
-0.90853214 0.46806318 0.98943311 10433822
0 0 0 10564897
0 0 0 10630690
0 0 0 10564895
0 0 0 10696994
0 0 0 10565408
0 0 0 10762273
-1.8136003 1.0100311 2.1350925 10631714
-1.7029817 0.95952952 2.028338 10565411
-1.683043 0.95952952 2.028338 10697253
-1.6631044 0.95952952 2.028338 10696995
-1.6431657 0.95952952 2.028338 10630947
-1.70866 1.0100311 2.1350925 10696740
-2.0041103 1.1994119 2.5354223 10762274
-2.1111329 1.2793726 2.7044504 11090725
-2.4052479 1.4761993 3.1205199 11090214
-2.572454 1.5992157 3.380563 11155748
-3.0470676 1.919059 4.0566759 11024675
-3.3413227 2.132288 4.5074177 10894117
-3.709141 2.3988237 5.0708447 10894373
-7.3185887 4.7976475 10.141689 11090725
-7.2188954 4.7976475 10.141689 11156259
-7.1192021 4.7976475 10.141689 11155746
-7.0195093 4.7976475 10.141689 11221540
-6.919816 4.7976475 10.141689 11221539
-3.0311658 2.132288 4.5074177 11352355
-1.7921144 1.2793726 2.7044504 11222052
-1.7655295 1.2793726 2.7044504 11353638
-1.6302607 1.1994119 2.5354223 11418404
-1.351863 1.0100311 2.1350925 11418148
-0.443625 0.33667701 0.71169752 11680548
-0.421828 0.32526425 0.68757218 11680802
-0.41506916 0.32526425 0.68757218 11352355
-0.40831029 0.32526425 0.68757218 11483171
-0.39485887 0.31984314 0.67611259 11220769
-0.38821265 0.31984314 0.67611259 11351584
-0.38156644 0.31984314 0.67611259 11746341
-0.40170023 0.3426891 0.72440636 11221539
-0.39457929 0.3426891 0.72440636 11221283
-0.39450303 0.34891981 0.73757738 11286564
0 0 0 11549221
0 0 0 11418916
0 0 0 11549734
0 0 0 11812136
0 0 0 11811878
-0.25401354 0.25250778 0.53377312 11680291
-0.24238791 0.24603321 0.52008665 11746341
-0.23727544 0.24603321 0.52008665 11877157
-0.23216295 0.24603321 0.52008665 11812134
-0.22705048 0.24603321 0.52008665 11614497
-0.2248203 0.24922843 0.52684098 11746340
-0.21964143 0.24922843 0.52684098 11549474
-0.21446256 0.24922843 0.52684098 11483941
-0.21203743 0.25250778 0.53377312 11680548
-0.28574675 0.34891981 0.73757738 11745573
0 0 0 11745571
-0.30445972 0.39164469 0.82789302 11680033
-0.29632148 0.39164469 0.82789302 11942948
-0.28818327 0.39164469 0.82789302 11680547
-0.28004503 0.39164469 0.82789302 11614755
-0.27190682 0.39164469 0.82789302 11812388
-0.24386151 0.36208659 0.76541048 11811621
-0.24560563 0.37628609 0.79542661 11745571
-0.24749213 0.39164469 0.82789302 11877156
-0.23935391 0.39164469 0.82789302 11680289
-0.23121569 0.39164469 0.82789302 11746341
-0.22307746 0.39164469 0.82789302 11483171
-0.21493924 0.39164469 0.82789302 11680292
-0.20680101 0.39164469 0.82789302 11680289
-0.20280159 0.39980394 0.84514076 11549219
-0.19449382 0.39980394 0.84514076 11745826
-0.19014744 0.40831041 0.86312246 11679778
-0.18561211 0.41718674 0.88188601 11811107
-0.1808752 0.42645755 0.90148348 11876387
-0.20370029 0.50501555 1.0675462 11745314
-0.19320627 0.50501555 1.0675462 11876899
-0.19837329 0.54830259 1.1590502 11876641
-0.19831187 0.58153301 1.2292956 11680035
0 0 0 11745568
0 0 0 11745568
0 0 0 11810848
0 0 0 11877670
0 0 0 11745570
-0.10125985 0.46806318 0.98943311 11680034
-0.089354299 0.45691881 0.96587515 11876898
-0.079859704 0.45691881 0.96587515 11418146
-0.072081327 0.46806318 0.98943311 11680546
-0.06087051 0.45691881 0.96587515 11680034
-0.051375914 0.45691881 0.96587515 11745571
-0.041881319 0.45691881 0.96587515 11877157
-0.034006059 0.47976476 1.014169 11876897
-0.025985656 0.5186646 1.0963988 12270629
-0.017051402 0.58153301 1.2292956 12008228
-0.0049673705 0.58153301 1.2292956 12467236
0 0 0 11680548
0.02437011 0.73809963 1.5602599 11942947
0.041295838 0.7676236 1.6226703 12336420
0.05724676 0.7676236 1.6226703 12401443
0 0 0 12007970
0 0 0 12008739
0 0 0 11680289
0 0 0 11679778
0.42812929 2.3988237 5.0708447 11746083
0.4779759 2.3988237 5.0708447 11614755
0.70376337 3.1984315 6.761126 11680547
0.92427069 3.8381181 8.1133518 11943203
0.83668768 3.1984315 6.761126 11877414
0.7741285 2.7415128 5.7952509 11614755
0.64640808 2.132288 4.5074177 11812134
0.62164456 1.919059 4.0566759 11746082
0.55126822 1.5992157 3.380563 11877154
0.5844993 1.5992157 3.380563 12008486
0.7412765 1.919059 4.0566759 11811618
0.7811538 1.919059 4.0566759 11942947
0.54735404 1.2793726 2.7044504 11943461
0.53806776 1.1994119 2.5354223 12205605
0.50043648 1.066144 2.2537088 12140326
0.52259058 1.066144 2.2537088 11942950
0.54474461 1.066144 2.2537088 11877154
0.60024565 1.1288582 2.3862798 12139813
0.5049023 0.91383761 1.9317503 12205093
0.50007826 0.87229955 1.8439435 12336422
0.49567369 0.83437347 1.763772 12205606
0.47197074 0.7676236 1.6226703 12140326
0.48792166 0.7676236 1.6226703 12009254
0.48449287 0.73809963 1.5602599 12140070
0.51982349 0.7676236 1.6226703 11943720
0.53577441 0.7676236 1.6226703 11812904
0.55172533 0.7676236 1.6226703 12008740
0.54584259 0.73809963 1.5602599 11877414
0.54039556 0.71076262 1.5024725 11877156
0.55516493 0.71076262 1.5024725 11877414
0.56993431 0.71076262 1.5024725 11680037
0.60719228 0.73809963 1.5602599 11943204
0.62252969 0.73809963 1.5602599 11746083
0.66338181 0.7676236 1.6226703 11680548
0.67933273 0.7676236 1.6226703 11877414
0.69528365 0.7676236 1.6226703 11549221
0.68387938 0.73809963 1.5602599 10826785
0.69921684 0.73809963 1.5602599 11090214
0.71455425 0.73809963 1.5602599 11222054
0.75908732 0.7676236 1.6226703 11877413
0.77503824 0.7676236 1.6226703 11942693
0.73239738 0.71076262 1.5024725 11483685
0.74716675 0.71076262 1.5024725 11286562
0.76193613 0.71076262 1.5024725 11352355
0.7767055 0.71076262 1.5024725 11418149
0.76320785 0.68537819 1.4488127 11221539
0.83725363 0.73809963 1.5602599 11287076
0.8525911 0.73809963 1.5602599 11090468
0.8679285 0.73809963 1.5602599 11156261
0.88326591 0.73809963 1.5602599 11156261
0.93454748 0.7676236 1.6226703 11352612
0.9504984 0.7676236 1.6226703 11417122
0.96644932 0.7676236 1.6226703 11613728
0.98240024 0.7676236 1.6226703 11352612
1.0399491 0.79960787 1.6902815 11287075
1.0565646 0.79960787 1.6902815 11221027
1.170742 0.87229955 1.8439435 11417380
1.2454808 0.91383761 1.9317503 11745830
1.26447 0.91383761 1.9317503 11548964
1.1230268 0.79960787 1.6902815 11352098
1.0940567 0.7676236 1.6226703 11220257
1.1100076 0.7676236 1.6226703 10958882
1.1259586 0.7676236 1.6226703 11089955
1.1419095 0.7676236 1.6226703 11089959
1.1578604 0.7676236 1.6226703 11023908
1.1738113 0.7676236 1.6226703 10696484
1.1440022 0.73809963 1.5602599 10367775
1.1593395 0.73809963 1.5602599 10893346
1.174677 0.73809963 1.5602599 10958370
1.1900145 0.73809963 1.5602599 10762273
1.2053518 0.73809963 1.5602599 10696226
1.2206893 0.73809963 1.5602599 10237733
1.2360268 0.73809963 1.5602599 10237475
1.3014187 0.7676236 1.6226703 10041380
1.3173696 0.7676236 1.6226703 10237474
1.3333205 0.7676236 1.6226703 10500648
1.3492714 0.7676236 1.6226703 10434341
1.3652223 0.7676236 1.6226703 10238759
1.3811733 0.7676236 1.6226703 10237989
1.3971242 0.7676236 1.6226703 10368549
1.4130751 0.7676236 1.6226703 10171685
1.429026 0.7676236 1.6226703 10106406
1.4449769 0.7676236 1.6226703 9975333
1.5217998 0.79960787 1.6902815 9975075
1.5384154 0.79960787 1.6902815 10171942
1.5550309 0.79960787 1.6902815 10107173
1.6399789 0.83437347 1.763772 10107173
1.8151566 0.91383761 1.9317503 10237989
2.1398368 1.066144 2.2537088 10303782
2.1619909 1.066144 2.2537088 10040865
2.4571631 1.1994119 2.5354223 10040609
2.4820864 1.1994119 2.5354223 9843746
2.6741436 1.2793726 2.7044504 9975333
2.5319331 1.1994119 2.5354223 9975333
2.4064529 1.1288582 2.3862798 10106919
2.4299102 1.1288582 2.3862798 9844261
2.6067028 1.1994119 2.5354223 10106919
2.6316261 1.1994119 2.5354223 10041894
2.6565495 1.1994119 2.5354223 10107946
3.0645404 1.3707564 2.8976254 10238759
3.093024 1.3707564 2.8976254 10041895
3.1215079 1.3707564 2.8976254 10238757
3.1499918 1.3707564 2.8976254 10370605
2.617568 1.1288582 2.3862798 10370601
2.6410253 1.1288582 2.3862798 10566439
2.6644826 1.1288582 2.3862798 10632747
2.4049988 1.0100311 2.1350925 10566954
2.3046875 0.95952952 2.028338 10436136
2.2139297 0.91383761 1.9317503 10304809
2.2329187 0.91383761 1.9317503 10435366
1.9704195 0.79960787 1.6902815 10304809
1.8341863 0.73809963 1.5602599 10305323
0 0 0 10239530
0 0 0 10436652
0 0 0 10568238
0 0 0 10634542
0 0 0 10370859
0 0 0 10501930
0 0 0 10303780
0 0 0 10304811
0 0 0 9518123
0 0 0 7745828
0 0 0 5711649
0 0 0 5514785
0 0 0 9122082
0 0 0 9056547
0 0 0 9122083
-1.5489254 0.63191491 1.3086051 9318947
-1.0351721 0.4258557 0.88188601 9450019
-0.96365601 0.39978293 0.82789302 9383971
-0.95551777 0.39978293 0.82789302 9187361
-0.94737953 0.39978293 0.82789302 9450018
-0.92045647 0.39178726 0.81133515 9450018
-0.89458925 0.38410515 0.79542661 9319201
-0.88677013 0.38410515 0.79542661 9384738
-0.84578305 0.36961061 0.76541048 9581091
-0.85437948 0.37671852 0.78012997 9450016
-0.83073503 0.36961061 0.76541048 9713189
-0.83904207 0.37671852 0.78012997 9778466
-0.815687 0.36961061 0.76541048 10106403
-0.8237046 0.37671852 0.78012997 10040608
-0.80063897 0.36961061 0.76541048 9975330
-0.75062662 0.34981003 0.72440636 9974304
-0.74350572 0.34981003 0.72440636 10171683
-0.76365829 0.362766 0.75123626 10499876
-0.8167755 0.39178726 0.81133515 10237474
-0.82530618 0.39978293 0.82789302 10434083
-0.81716794 0.39978293 0.82789302 10500646
-0.77730304 0.38410515 0.79542661 10499876
-0.75468624 0.37671852 0.78012997 10631205
-0.79275328 0.39978293 0.82789302 10500129
-0.78461504 0.39978293 0.82789302 10499361
-0.79265338 0.40811172 0.84514076 10368290
-0.78434557 0.40811172 0.84514076 10434081
-0.82777369 0.43531916 0.90148348 10302496
-0.81891209 0.43531916 0.90148348 10565412
-0.81005043 0.43531916 0.90148348 10762533
-0.78377163 0.4258557 0.88188601 10565154
0 0 0 10828068
0 0 0 10696740
0 0 0 10565667
-1.8136003 1.0310191 2.1350925 10631460
-1.7926122 1.0310191 2.1350925 10565667
-1.7716242 1.0310191 2.1350925 10762533
-1.8478937 1.088298 2.2537088 10696742
-1.7296481 1.0310191 2.1350925 10696740
-1.70866 1.0310191 2.1350925 10894116
-1.7814316 1.088298 2.2537088 11025445
-2.1111329 1.3059574 2.7044504 10762787
-2.4052479 1.5068741 3.1205199 10959398
-2.572454 1.6324469 3.380563 11024419
-2.5392227 1.6324469 3.380563 11089955
-3.0071902 1.9589363 4.0566759 11156261
-3.709141 2.4486704 5.0708447 11221284
-9.7581186 6.5297875 13.522252 11287589
-7.2188954 4.8973408 10.141689 11155746
-7.1192021 4.8973408 10.141689 11287332
-7.0195093 4.8973408 10.141689 11156261
-6.919816 4.8973408 10.141689 11155747
-5.4560986 3.9178727 8.1133518 11221795
-1.9201226 1.3992401 2.8976254 11287332
-1.7655295 1.3059574 2.7044504 11025188
-1.7389446 1.3059574 2.7044504 11221797
-1.6053374 1.2243352 2.5354223 11090468
-0.443625 0.34367305 0.71169752 11287589
-0.41479751 0.32648936 0.67611259 11222054
-0.4081513 0.32648936 0.67611259 11156003
-0.39492306 0.3211371 0.66502881 11090468
-0.3883858 0.3211371 0.66502881 11287076
-0.38184851 0.3211371 0.66502881 11548964
-0.36925787 0.31595746 0.65430254 11417634
-0.368774 0.3211371 0.66502881 11286818
-0.368274 0.32648936 0.67611259 11548963
-0.38745835 0.34981003 0.72440636 11549734
0 0 0 11483171
0 0 0 11484711
0 0 0 11483170
0 0 0 11680293
0 0 0 11614242
-0.25071466 0.25440732 0.52684098 11680290
-0.24238791 0.25114569 0.52008665 11680035
-0.23427194 0.24796662 0.51350325 11614499
-0.22922418 0.24796662 0.51350325 11614498
-0.22705048 0.25114569 0.52008665 11549986
-0.22193801 0.25114569 0.52008665 11548962
-0.21682553 0.25114569 0.52008665 11418147
-0.21446256 0.25440732 0.52684098 11417891
-0.20928369 0.25440732 0.52684098 11417378
-0.23111871 0.28807887 0.59656996 11548962
-0.25110325 0.3211371 0.66502881 11680035
0 0 0 11548964
-0.27395758 0.36961061 0.76541048 11680035
-0.26643357 0.36961061 0.76541048 11877157
-0.24074048 0.34367305 0.71169752 11811105
-0.23374446 0.34367305 0.71169752 11745568
-0.2307975 0.34981003 0.72440636 11877154
-0.24560563 0.38410515 0.79542661 11876900
-0.23778656 0.38410515 0.79542661 11745571
-0.22996747 0.38410515 0.79542661 11614497
-0.2221484 0.38410515 0.79542661 11483682
-0.19519277 0.34981003 0.72440636 11483169
-0.21064045 0.39178726 0.81133515 11615525
-0.20680101 0.39978293 0.82789302 11484453
-0.19866279 0.39978293 0.82789302 11615270
-0.19052456 0.39978293 0.82789302 11548962
-0.18618605 0.40811172 0.84514076 11811621
-0.18561211 0.4258557 0.88188601 11680035
-0.1808752 0.43531916 0.90148348 11614497
0 0 0 11877412
-0.19320627 0.51550955 1.0675462 11679777
0 0 0 11811104
0 0 0 11483169
0 0 0 11811361
0 0 0 12008227
0 0 0 12073766
0 0 0 11811361
0 0 0 11483939
-0.10125985 0.47778934 0.98943311 11942693
-0.085292742 0.44521278 0.92197174 11811362
-0.076229714 0.44521278 0.92197174 11811617
-0.072081327 0.47778934 0.98943311 12139299
-0.06087051 0.46641338 0.96587515 11942692
-0.051375914 0.46641338 0.96587515 11811363
-0.041881319 0.46641338 0.96587515 11745568
-0.033176642 0.47778934 0.98943311 11745825
-0.025985656 0.52944225 1.0963988 12204322
0 0 0 12270114
0 0 0 11810848
0 0 0 11877154
0.025344914 0.78357452 1.6226703 12008226
0.041295838 0.78357452 1.6226703 12139299
0.059632037 0.81622344 1.6902815 12074019
0 0 0 12139555
0 0 0 12008482
0 0 0 12008225
0 0 0 12008225
0.38055938 2.1765959 4.5074177 11876642
0.42486748 2.1765959 4.5074177 11680035
0.46917561 2.1765959 4.5074177 11811361
0.57766914 2.4486704 5.0708447 12008227
0.55779183 2.1765959 4.5074177 11810594
0.60209996 2.1765959 4.5074177 11287332
0.64640808 2.1765959 4.5074177 11615779
0.69071621 2.1765959 4.5074177 11811621
0.73502433 2.1765959 4.5074177 11943461
0.70139921 1.9589363 4.0566759 11746338
0.7412765 1.9589363 4.0566759 11811876
0.7811538 1.9589363 4.0566759 12008997
0.82103109 1.9589363 4.0566759 12008740
0.61493456 1.3992401 2.8976254 11811621
0.56299102 1.2243352 2.5354223 12140326
0.55333114 1.1523155 2.3862798 12140326
0.57678843 1.1523155 2.3862798 12008740
0.60024565 1.1523155 2.3862798 12074278
0.62370288 1.1523155 2.3862798 12074020
0.61120683 1.088298 2.2537088 12074020
0.51820433 0.89042556 1.8439435 12008742
0.53633034 0.89042556 1.8439435 12140069
0.48792166 0.78357452 1.6226703 12205604
0.50387257 0.78357452 1.6226703 11943207
0.51982349 0.78357452 1.6226703 11943206
0.53577441 0.78357452 1.6226703 12008740
0.55172533 0.78357452 1.6226703 11746340
0.56767625 0.78357452 1.6226703 11549220
0.58362716 0.78357452 1.6226703 11548960
0.5765174 0.75343704 1.5602599 11614242
0.59185487 0.75343704 1.5602599 11615525
0.60719228 0.75343704 1.5602599 11746341
0.62252969 0.75343704 1.5602599 11811877
0.66338181 0.78357452 1.6226703 11745830
0.67933273 0.78357452 1.6226703 11877155
0.72425377 0.81622344 1.6902815 11942947
0.71123457 0.78357452 1.6226703 11811107
0.72718549 0.78357452 1.6226703 11548964
0.74313641 0.78357452 1.6226703 11679779
0.75908732 0.78357452 1.6226703 11876900
0.77503824 0.78357452 1.6226703 11746343
0.79098916 0.78357452 1.6226703 11418148
0.77590394 0.75343704 1.5602599 11614755
0.76193613 0.725532 1.5024725 11483171
0.7767055 0.725532 1.5024725 11417636
0.79147488 0.725532 1.5024725 11548962
0 0 0 11417377
0.96379858 0.85171139 1.763772 11483173
0.9811365 0.85171139 1.763772 11155749
0.99847448 0.85171139 1.763772 11025189
0.9734869 0.81622344 1.6902815 10827812
0.99010247 0.81622344 1.6902815 11089701
0.96644932 0.78357452 1.6226703 11156002
0.98240024 0.78357452 1.6226703 11155746
1.0399491 0.81622344 1.6902815 11286307
1.2075025 0.93282676 1.9317503 11089953
1.2264916 0.93282676 1.9317503 11287075
1.2454808 0.93282676 1.9317503 11155234
1.26447 0.93282676 1.9317503 11417379
1.2251202 0.89042556 1.8439435 11351585
1.1396424 0.81622344 1.6902815 11417633
1.20653 0.85171139 1.763772 11352355
1.1728734 0.81622344 1.6902815 11351843
1.189489 0.81622344 1.6902815 11221284
1.1578604 0.78357452 1.6226703 10761503
1.1738113 0.78357452 1.6226703 11024679
1.1440022 0.75343704 1.5602599 10893345
1.2057132 0.78357452 1.6226703 10761503
1.2216641 0.78357452 1.6226703 11024162
1.237615 0.78357452 1.6226703 10696482
1.2053518 0.75343704 1.5602599 10368290
1.2206893 0.75343704 1.5602599 10368292
1.2854677 0.78357452 1.6226703 10237734
1.3014187 0.78357452 1.6226703 10172196
1.3173696 0.78357452 1.6226703 10237989
1.3333205 0.78357452 1.6226703 10500648
1.3492714 0.78357452 1.6226703 10697514
1.3652223 0.78357452 1.6226703 10238502
1.3811733 0.78357452 1.6226703 10172966
1.4553376 0.81622344 1.6902815 9976101
1.4719532 0.81622344 1.6902815 10041894
1.4885688 0.81622344 1.6902815 10172456
1.5051843 0.81622344 1.6902815 10171683
1.587965 0.85171139 1.763772 10106405
1.605303 0.85171139 1.763772 10237989
1.622641 0.85171139 1.763772 10106147
1.9852377 1.0310191 2.1350925 10041126
1.8151566 0.93282676 1.9317503 10041380
2.0272138 1.0310191 2.1350925 10172966
2.1619909 1.088298 2.2537088 9975332
2.4571631 1.2243352 2.5354223 9909283
2.4820864 1.2243352 2.5354223 9975076
2.5070097 1.2243352 2.5354223 9712161
2.5319331 1.2243352 2.5354223 10040610
2.4064529 1.1523155 2.3862798 10105890
2.4299102 1.1523155 2.3862798 9712675
2.4533675 1.1523155 2.3862798 9581347
3.0075727 1.3992401 2.8976254 9713446
3.2695994 1.5068741 3.1205199 9976360
3.3002744 1.5068741 3.1205199 10172966
3.3309493 1.5068741 3.1205199 10107433
3.1215079 1.3992401 2.8976254 10304299
2.7562428 1.2243352 2.5354223 10239271
2.617568 1.1523155 2.3862798 10370343
2.4943018 1.088298 2.2537088 10436650
2.5164559 1.088298 2.2537088 10370343
2.4049988 1.0310191 2.1350925 10174508
2.3046875 0.97946817 2.028338 10042923
2.3246262 0.97946817 2.028338 10305837
2.3445649 0.97946817 2.028338 10370344
2.2519081 0.93282676 1.9317503 10501671
1.987035 0.81622344 1.6902815 10370601
1.8495237 0.75343704 1.5602599 10633263
2.0202661 0.81622344 1.6902815 10305066
0 0 0 10108713
0 0 0 10043690
0 0 0 10370091
0 0 0 10370861
0 0 0 10304811
0 0 0 10107947
0 0 0 10239021
0 0 0 9583657
0 0 0 7221285
0 0 0 5580321
0 0 0 8860195
0 0 0 8663330
0 0 0 8860450
0 0 0 9187875
-0.97179419 0.40792114 0.82789302 9384228
-0.96365601 0.40792114 0.82789302 9318691
-0.95551777 0.40792114 0.82789302 9318947
-0.94737953 0.40792114 0.82789302 9516324
-0.9024083 0.39192423 0.79542661 9712675
-0.89458925 0.39192423 0.79542661 9647395
-0.86971688 0.38438725 0.78012997 9581604
-0.86204821 0.38438725 0.78012997 9646884
-0.83825904 0.37713462 0.76541048 9777954
-0.83073503 0.37713462 0.76541048 9778468
-0.79327607 0.36342064 0.73757738 9974817
-0.80058169 0.37015069 0.75123626 9974817
-0.80816299 0.37713462 0.76541048 9974819
-0.78581238 0.37015069 0.75123626 10105890
-0.75062662 0.356931 0.72440636 10172196
-0.74350572 0.356931 0.72440636 10041126
-0.77806687 0.37713462 0.76541048 10303782
-0.78536105 0.38438725 0.78012997 10499876
-0.82530618 0.40792114 0.82789302 10499876
-0.75549483 0.37713462 0.76541048 10499874
-0.76235491 0.38438725 0.78012997 10303012
-0.75468624 0.38438725 0.78012997 10369058
-0.79275328 0.40792114 0.82789302 10631201
-0.78461504 0.40792114 0.82789302 10499875
-0.79265338 0.41641948 0.84514076 10565412
-0.78434557 0.41641948 0.84514076 10499361
-0.82777369 0.44418079 0.90148348 10303010
-0.76773006 0.41641948 0.84514076 10828326
-0.81005043 0.44418079 0.90148348 10630947
-0.78377163 0.43452469 0.88188601 10499361
0 0 0 10565156
0 0 0 10564897
0 0 0 10565410
-1.8136003 1.0520072 2.1350925 10302495
-1.8922019 1.1104521 2.2537088 10762535
-1.8700478 1.1104521 2.2537088 10697255
-1.8478937 1.1104521 2.2537088 10631205
-1.7296481 1.0520072 2.1350925 10894117
-1.70866 1.0520072 2.1350925 11024675
-1.6876719 1.0520072 2.1350925 10827808
-1.7592775 1.1104521 2.2537088 11025446
-2.2334442 1.427724 2.8976254 11024932
-2.572454 1.6656779 3.380563 11023908
-2.5392227 1.6656779 3.380563 10893605
-2.7338092 1.8171033 3.687887 10959138
-3.2970145 2.2209041 4.5074177 11418920
-7.3185887 4.9970341 10.141689 11024673
-9.6251936 6.6627116 13.522252 11025187
-7.1192021 4.9970341 10.141689 10893601
-7.0195093 4.9970341 10.141689 10828066
-6.919816 4.9970341 10.141689 11090467
-6.8201227 4.9970341 10.141689 11024675
-2.0678244 1.537549 3.1205199 11156261
-2.0371497 1.537549 3.1205199 11090981
-1.863155 1.427724 2.8976254 11221539
-1.7123598 1.3325423 2.7044504 11090467
-0.42144373 0.33313558 0.67611259 10894117
-0.40799758 0.32767436 0.66502881 11221797
-0.40146032 0.32767436 0.66502881 11155746
-0.39492306 0.32767436 0.66502881 11156261
-0.3589626 0.30285054 0.61464781 11418148
-0.33757621 0.28968313 0.587924 11484455
-0.33179691 0.28968313 0.587924 11483171
-0.33081198 0.29394317 0.59656996 11548962
-0.3563942 0.3223893 0.65430254 11548962
0 0 0 11418146
0 0 0 11548964
0 0 0 11286561
0 0 0 11548962
0 0 0 11548964
0 0 0 11548962
-0.25071466 0.25958619 0.52684098 11745828
-0.24238791 0.25625816 0.52008665 11680292
-0.23427194 0.25301439 0.51350325 11811107
-0.22922418 0.25301439 0.51350325 11811877
-0.22417642 0.25301439 0.51350325 11680804
-0.22193801 0.25625816 0.52008665 11287845
-0.21682553 0.25625816 0.52008665 11156259
-0.21446256 0.25958619 0.52684098 11483684
-0.21203743 0.2630018 0.53377312 11483426
-0.22776915 0.28968313 0.587924 11352354
-0.22198984 0.28968313 0.587924 11417634
0 0 0 11418148
-0.25473252 0.35066906 0.71169752 11811107
-0.25216034 0.356931 0.72440636 11810848
-0.24074048 0.35066906 0.71169752 11745570
-0.23791845 0.356931 0.72440636 11483426
0 0 0 11549477
0 0 0 12008486
-0.23778656 0.39192423 0.79542661 11614753
-0.22128946 0.37713462 0.76541048 11549216
-0.21376544 0.37713462 0.76541048 11614755
-0.19519277 0.356931 0.72440636 11614243
-0.18807182 0.356931 0.72440636 11746342
-0.20680101 0.40792114 0.82789302 11549219
-0.19866279 0.40792114 0.82789302 11548705
-0.19052456 0.40792114 0.82789302 11746341
-0.19014744 0.42527947 0.86312246 11615779
-0.18561211 0.43452469 0.88188601 11352353
0 0 0 11615009
0 0 0 11548449
-0.19320627 0.5260036 1.0675462 11680548
0 0 0 11614243
0 0 0 11548449
0 0 0 11745314
0 0 0 11613985
0 0 0 11614239
0 0 0 11613728
0 0 0 11614755
0 0 0 11614242
-0.085292742 0.45427582 0.92197174 11811875
-0.076229714 0.45427582 0.92197174 11745314
-0.072081327 0.48751551 0.98943311 11942947
-0.062355161 0.48751551 0.98943311 11811107
-0.051375914 0.47590798 0.96587515 11877154
-0.041881319 0.47590798 0.96587515 11877154
-0.033176642 0.48751551 0.98943311 11614242
-0.025985656 0.5402199 1.0963988 11942693
0 0 0 11548962
0 0 0 11942947
0 0 0 12139041
0.025344914 0.79952544 1.6226703 11876641
0.043016493 0.83283895 1.6902815 12073250
0.059632037 0.83283895 1.6902815 12008227
0 0 0 11877154
0 0 0 12074019
0 0 0 11811106
0 0 0 11745570
0.38055938 2.2209041 4.5074177 11942947
0.34761882 1.8171033 3.687887 11942947
0.46917561 2.2209041 4.5074177 12008227
0.5134837 2.2209041 4.5074177 11811361
0.55779183 2.2209041 4.5074177 11548962
0.54188997 1.9988137 4.0566759 11615009
0.58176726 1.9988137 4.0566759 11746595
0.69071621 2.2209041 4.5074177 12074275
0.66152191 1.9988137 4.0566759 11877154
0.70139921 1.9988137 4.0566759 11680033
0.7412765 1.9988137 4.0566759 11811618
0.86794865 2.2209041 4.5074177 11942945
0.82103109 1.9988137 4.0566759 11942947
0.66223723 1.537549 3.1205199 12008227
0.64341831 1.427724 2.8976254 11877414
0.72358692 1.537549 3.1205199 11680548
0.6536935 1.3325423 2.7044504 11680290
0.60024565 1.1757727 2.3862798 11942946
0.62370288 1.1757727 2.3862798 12074022
0.64716011 1.1757727 2.3862798 12008481
0.63336086 1.1104521 2.2537088 11943461
0.56186992 0.95181596 1.9317503 12139811
0.53034961 0.86904937 1.763772 11877669
0.54768759 0.86904937 1.763772 11812649
0.54148281 0.83283895 1.6902815 12337705
0.53577441 0.79952544 1.6226703 12008741
0.55172533 0.79952544 1.6226703 11548964
0.5913294 0.83283895 1.6902815 11287075
0.60794497 0.83283895 1.6902815 11483171
0.59957808 0.79952544 1.6226703 12008740
0.59185487 0.76877451 1.5602599 11483169
0.60719228 0.76877451 1.5602599 11614755
0.62252969 0.76877451 1.5602599 11812134
0.66338181 0.79952544 1.6226703 11746341
0.73840511 0.86904937 1.763772 11548451
0.72425377 0.83283895 1.6902815 11942695
0.74086928 0.83283895 1.6902815 11614500
0.72718549 0.79952544 1.6226703 11680293
0.74313641 0.79952544 1.6226703 11679521
0.75908732 0.79952544 1.6226703 11680802
0.77503824 0.79952544 1.6226703 11943203
0.76056653 0.76877451 1.5602599 11877158
0.77590394 0.76877451 1.5602599 11811107
0.76193613 0.74030137 1.5024725 11613985
0.80657881 0.76877451 1.5602599 11220769
0.82191622 0.76877451 1.5602599 11417635
0 0 0 11483684
1.0555888 0.95181596 1.9317503 11352357
0.9811365 0.86904937 1.763772 11155747
0.99847448 0.86904937 1.763772 11220769
1.0158124 0.86904937 1.763772 11156261
1.0331504 0.86904937 1.763772 11221029
1.006718 0.83283895 1.6902815 11352612
1.0678263 0.86904937 1.763772 11155748
1.1885133 0.95181596 1.9317503 11156003
1.2075025 0.95181596 1.9317503 11024930
1.2878163 0.99940687 2.028338 11024673
1.307755 0.99940687 2.028338 11024675
1.3276936 0.99940687 2.028338 11090214
1.3476323 0.99940687 2.028338 11155491
1.2432462 0.90855163 1.8439435 10892576
1.2613722 0.90855163 1.8439435 11024420
1.2794983 0.90855163 1.8439435 11351587
1.359416 0.95181596 1.9317503 11090210
1.2061045 0.83283895 1.6902815 11089955
1.1738113 0.79952544 1.6226703 11220769
1.1897622 0.79952544 1.6226703 11090468
1.3105577 0.86904937 1.763772 10826785
1.3882545 0.90855163 1.8439435 10826786
1.237615 0.79952544 1.6226703 10892835
1.2535659 0.79952544 1.6226703 10827043
1.2695168 0.79952544 1.6226703 10303269
1.2854677 0.79952544 1.6226703 10237734
1.3014187 0.79952544 1.6226703 10302754
1.37226 0.83283895 1.6902815 10369060
1.3888755 0.83283895 1.6902815 10172198
1.405491 0.83283895 1.6902815 10237475
1.3652223 0.79952544 1.6226703 10369062
1.3811733 0.79952544 1.6226703 10369319
1.5186132 0.86904937 1.763772 10040867
1.5359511 0.86904937 1.763772 10237989
1.6238931 0.90855163 1.8439435 10435368
2.1249661 1.1757727 2.3862798 10501161
2.2826998 1.2492585 2.5354223 10041126
2.3076231 1.2492585 2.5354223 10171940
2.3325465 1.2492585 2.5354223 10107173
2.3574698 1.2492585 2.5354223 9712675
2.2422523 1.1757727 2.3862798 9582116
2.4073164 1.2492585 2.5354223 9581089
2.7797024 1.427724 2.8976254 9712675
2.4571631 1.2492585 2.5354223 10041126
2.8366699 1.427724 2.8976254 9712418
2.6741436 1.3325423 2.7044504 9581091
2.7007284 1.3325423 2.7044504 9778468
2.4064529 1.1757727 2.3862798 9909797
2.4299102 1.1757727 2.3862798 9778211
2.4533675 1.1757727 2.3862798 9646884
3.0075727 1.427724 2.8976254 9844006
3.2695994 1.537549 3.1205199 9778471
7.1505942 3.3313558 6.761126 9910054
3.6085281 1.6656779 3.380563 10303784
3.1215079 1.427724 2.8976254 10303528
2.7562428 1.2492585 2.5354223 10370605
2.617568 1.1757727 2.3862798 10108201
2.3630228 1.0520072 2.1350925 10239273
2.3840108 1.0520072 2.1350925 10370602
2.4049988 1.0520072 2.1350925 10370858
2.4259868 1.0520072 2.1350925 10371370
2.5829182 1.1104521 2.2537088 10305579
2.3445649 0.99940687 2.028338 10371372
2.2519081 0.95181596 1.9317503 10436136
2.0734279 0.86904937 1.763772 10436650
1.9235046 0.79952544 1.6226703 10435884
1.9394555 0.79952544 1.6226703 10173739
2.3278649 0.95181596 1.9317503 10370093
2.4641969 0.99940687 2.028338 10107691
0 0 0 10370347
0 0 0 10435884
0 0 0 10370091
0 0 0 10304555
0 0 0 10173226
0 0 0 9977384
0 0 0 9124651
0 0 0 7287077
0 0 0 8991266
0 0 0 9122082
-1.561789 0.65764225 1.3086051 9253667
-1.7783959 0.75507075 1.5024725 9187875
-0.97179419 0.41605937 0.82789302 9253155
-0.92586553 0.39974332 0.79542661 9450018
-0.95551777 0.41605937 0.82789302 9450530
-0.91022736 0.39974332 0.79542661 9646882
-0.9024083 0.39974332 0.79542661 9580832
-0.74793524 0.33421162 0.66502881 9581089
-0.85330707 0.38465863 0.76541048 9581089
-0.86204821 0.39205596 0.78012997 9778722
-0.85437948 0.39205596 0.78012997 9712929
-0.83073503 0.38465863 0.76541048 9975590
-0.79327607 0.37067106 0.73757738 9778468
-0.78602564 0.37067106 0.73757738 9778468
-0.80816299 0.38465863 0.76541048 9910054
-0.80063897 0.38465863 0.76541048 10237476
-0.79311496 0.38465863 0.76541048 10237732
-0.78559089 0.38465863 0.76541048 10237474
-0.77806687 0.38465863 0.76541048 10434853
-0.78536105 0.39205596 0.78012997 10106401
-0.76301885 0.38465863 0.76541048 10171937
-0.75549483 0.38465863 0.76541048 10368803
-0.76235491 0.39205596 0.78012997 10433826
-0.80089146 0.41605937 0.82789302 10630689
-0.80926889 0.42472726 0.84514076 10696483
-0.78461504 0.41605937 0.82789302 10696226
-0.79265338 0.42472726 0.84514076 10565154
-0.78434557 0.42472726 0.84514076 10499874
0 0 0 10565154
0 0 0 10762019
0 0 0 10630947
0 0 0 10565154
0 0 0 10630946
0 0 0 10893346
0 0 0 10893089
-2.0269649 1.19923 2.3862798 10828069
-1.8922019 1.1326061 2.2537088 10828069
-1.8700478 1.1326061 2.2537088 10696740
-1.8478937 1.1326061 2.2537088 10696740
-1.7296481 1.0729952 2.1350925 10696481
-1.70866 1.0729952 2.1350925 11025188
-1.7814316 1.1326061 2.2537088 10893862
-1.7592775 1.1326061 2.2537088 11024678
-2.2334442 1.4562078 2.8976254 11286564
-2.572454 1.698909 3.380563 11090469
-2.7700613 1.8533553 3.687887 10959396
-2.7338092 1.8533553 3.687887 11090212
-3.2970145 2.2652123 4.5074177 10828323
-3.2527063 2.2652123 4.5074177 10893089
-3.2083981 2.2652123 4.5074177 10893859
0 0 0 10762533
-7.0195093 5.0967274 10.141689 10893602
-6.919816 5.0967274 10.141689 10959395
-5.4560986 4.0773821 8.1133518 11222054
-2.2401431 1.698909 3.380563 11156004
-2.0371497 1.5682238 3.1205199 11090468
-2.0064747 1.5682238 3.1205199 10762018
-1.8346713 1.4562078 2.8976254 10828066
-1.4874486 1.19923 2.3862798 11156007
-0.40799758 0.33421162 0.66502881 11418405
-0.40146032 0.33421162 0.66502881 11352867
-0.39492306 0.33421162 0.66502881 11221540
-0.33368358 0.28713956 0.57136279 11287334
-0.32806706 0.28713956 0.57136279 11418147
-0.33179691 0.29546243 0.587924 11483941
-0.32601759 0.29546243 0.587924 11352354
-0.3563942 0.32882112 0.65430254 11352353
0 0 0 11483428
0 0 0 11352611
0 0 0 11286818
0 0 0 11548964
0 0 0 11287332
0 0 0 11548964
0 0 0 11746085
-0.24553579 0.26476505 0.52684098 11877413
-0.23427194 0.25806212 0.51350325 11811621
-0.22922418 0.25806212 0.51350325 11614755
-0.22705048 0.26137063 0.52008665 11418403
-0.2248203 0.26476505 0.52684098 11681061
-0.21964143 0.26476505 0.52684098 11221796
-0.21446256 0.26476505 0.52684098 11615014
-0.2148646 0.27182546 0.5408901 11287332
-0.22776915 0.29546243 0.587924 11221537
-0.22198984 0.29546243 0.587924 11418148
-0.21621051 0.29546243 0.587924 11483426
-0.21352577 0.29980749 0.59656996 11548962
-0.25216034 0.36405194 0.72440636 11482658
-0.2450394 0.36405194 0.72440636 11548962
0 0 0 11745828
0 0 0 11745570
0 0 0 11614242
-0.21275641 0.35766509 0.71169752 11483169
-0.20221278 0.35149843 0.69942683 11548966
-0.19876437 0.35766509 0.71169752 11417893
-0.18526773 0.34554085 0.68757218 11483171
-0.18477233 0.35766509 0.71169752 11548962
-0.20680101 0.41605937 0.82789302 11614244
-0.19866279 0.41605937 0.82789302 11483426
-0.19863197 0.43376401 0.86312246 11483685
-0.18238634 0.41605937 0.82789302 11025186
-0.18561211 0.44319367 0.88188601 11221795
0 0 0 11089953
0 0 0 11418148
0 0 0 11614757
0 0 0 11417633
0 0 0 11417890
0 0 0 11417376
0 0 0 11680035
0 0 0 11745312
0 0 0 11417378
0 0 0 11745055
0 0 0 11417376
-0.10142921 0.55099756 1.0963988 11680292
-0.078002505 0.47411418 0.94341296 11811877
-0.072081327 0.49724168 0.98943311 11614243
-0.062355161 0.49724168 0.98943311 11745313
-0.052628987 0.49724168 0.98943311 11942177
-0.042902816 0.49724168 0.98943311 11746086
-0.034006059 0.50967276 1.014169 11483171
-0.025985656 0.55099756 1.0963988 11745314
0 0 0 11482658
0 0 0 11679521
0 0 0 11548962
0.026400952 0.84945452 1.6902815 11679775
0.046927087 0.92667764 1.8439435 11417376
0.065053135 0.92667764 1.8439435 11548962
0 0 0 11548706
0 0 0 11548963
0 0 0 11482911
0 0 0 11745571
0.28541949 1.698909 3.380563 11942950
0.3186506 1.698909 3.380563 11876898
0.38387093 1.8533553 3.687887 12008484
0.42012301 1.8533553 3.687887 11614497
0.50201267 2.038691 4.0566759 11614242
0.54188997 2.038691 4.0566759 11614242
0.58176726 2.038691 4.0566759 11548703
0.69071621 2.2652123 4.5074177 11548962
0.73502433 2.2652123 4.5074177 11745315
0.77933246 2.2652123 4.5074177 11482914
0.82364053 2.2652123 4.5074177 11614498
0.86794865 2.2652123 4.5074177 11745828
0.82103109 2.038691 4.0566759 11877414
0.66223723 1.5682238 3.1205199 11943461
0.6929121 1.5682238 3.1205199 11811363
0.72358692 1.5682238 3.1205199 12074020
0.75426179 1.5682238 3.1205199 11745570
0.72886968 1.4562078 2.8976254 11811621
0.62370288 1.19923 2.3862798 12074018
0.64716011 1.19923 2.3862798 12008227
0.67061734 1.19923 2.3862798 12337190
0.58996344 1.0193455 2.028338 12205349
0.55445641 0.92667764 1.8439435 12074534
0.54768759 0.88638735 1.763772 12007973
0.54148281 0.84945452 1.6902815 12140070
0.58236349 0.88638735 1.763772 12140326
0.57471389 0.84945452 1.6902815 11811878
0.64508665 0.92667764 1.8439435 11680034
0.60794497 0.84945452 1.6902815 11681062
0.65171534 0.88638735 1.763772 11812133
0.615529 0.81547636 1.6226703 11877413
0.60719228 0.78411192 1.5602599 11614499
0.62252969 0.78411192 1.5602599 11812134
0.72106713 0.88638735 1.763772 11943207
0.73840511 0.88638735 1.763772 11746085
0.75574309 0.88638735 1.763772 11746087
0.74086928 0.84945452 1.6902815 11877414
0.75748485 0.84945452 1.6902815 11746086
0.77410042 0.84945452 1.6902815 11680037
0.75908732 0.81547636 1.6226703 11680037
0.77503824 0.81547636 1.6226703 11548705
0.76056653 0.78411192 1.5602599 11811621
0.80694008 0.81547636 1.6226703 11614242
0.79124135 0.78411192 1.5602599 11548964
0.80657881 0.78411192 1.5602599 11155748
0.82191622 0.78411192 1.5602599 11483429
0.87074375 0.81547636 1.6226703 11483169
0.96379858 0.88638735 1.763772 11352101
0.9811365 0.88638735 1.763772 11483173
0.99847448 0.88638735 1.763772 11155746
1.0158124 0.88638735 1.763772 11221283
1.0331504 0.88638735 1.763772 11483171
1.0504884 0.88638735 1.763772 11417378
1.1163639 0.92667764 1.8439435 11286564
1.247939 1.0193455 2.028338 11090212
1.334608 1.0729952 2.1350925 11024675
1.3555961 1.0729952 2.1350925 10893089
1.3765841 1.0729952 2.1350925 10762018
1.3276936 1.0193455 2.028338 10893345
1.3476323 1.0193455 2.028338 10958883
1.3024484 0.97080517 1.9317503 10893089
1.3214376 0.97080517 1.9317503 11221285
1.3404268 0.97080517 1.9317503 10959139
1.4273869 1.0193455 2.028338 10958369
1.4473255 1.0193455 2.028338 11089955
1.5444885 1.0729952 2.1350925 11220771
1.2393357 0.84945452 1.6902815 11024162
1.3105577 0.88638735 1.763772 10958372
1.3278956 0.88638735 1.763772 10762274
1.2891822 0.84945452 1.6902815 10893089
1.2535659 0.81547636 1.6226703 10761503
1.2695168 0.81547636 1.6226703 10433569
1.3390288 0.84945452 1.6902815 10434083
1.3556443 0.84945452 1.6902815 10434083
1.37226 0.84945452 1.6902815 10368290
1.4492614 0.88638735 1.763772 10172196
1.4665993 0.88638735 1.763772 10368290
1.4839373 0.88638735 1.763772 10237218
1.5012753 0.88638735 1.763772 10302497
1.5186132 0.88638735 1.763772 10040867
1.6057671 0.92667764 1.8439435 9975589
1.6238931 0.92667764 1.8439435 10041126
2.2577765 1.2741818 2.5354223 10303782
2.4348798 1.3591272 2.7044504 9975587
2.4614646 1.3591272 2.7044504 10041126
2.8708265 1.5682238 3.1205199 9976102
2.9015014 1.5682238 3.1205199 9975847
2.9321761 1.5682238 3.1205199 9975333
2.4073164 1.2741818 2.5354223 9845029
2.7797024 1.4562078 2.8976254 9713188
2.8081863 1.4562078 2.8976254 9515809
9.9283457 5.0967274 10.141689 10040356
10.028039 5.0967274 10.141689 9844005
13.503642 6.7956362 13.522252 9581859
2.4064529 1.19923 2.3862798 9844774
2.2949152 1.1326061 2.2537088 9844774
2.1951182 1.0729952 2.1350925 9844261
2.4768248 1.19923 2.3862798 9778979
3.0360565 1.4562078 2.8976254 9646626
0 0 0 9844008
0 0 0 9778470
0 0 0 9910312
2.7562428 1.2741818 2.5354223 10041382
2.2249329 1.0193455 2.028338 10107430
2.2448716 1.0193455 2.028338 10239017
2.2648103 1.0193455 2.028338 10172967
2.4049988 1.0729952 2.1350925 10698538
2.4259868 1.0729952 2.1350925 10764329
2.5829182 1.1326061 2.2537088 10502443
2.3445649 1.0193455 2.028338 10436652
2.3645036 1.0193455 2.028338 10370859
2.0734279 0.88638735 1.763772 10370859
1.9235046 0.81547636 1.6226703 10305579
1.9394555 0.81547636 1.6226703 10436907
2.2220528 0.92667764 1.8439435 10240045
2.346854 0.97080517 1.9317503 10108973
0 0 0 10174508
0 0 0 10304812
0 0 0 10501161
0 0 0 10173480
0 0 0 10107945
0 0 0 9976103
0 0 0 9713960
0 0 0 9058086
0 0 0 9187872
0 0 0 9187617
-1.3085259 0.56177521 1.0963988 9384484
0 0 0 9450018
-0.78062159 0.34074888 0.66502881 9515811
-0.92586553 0.4075624 0.79542661 9450017
-0.76754707 0.34074888 0.66502881 9515296
-0.77369326 0.34642801 0.67611259 9646882
-0.75447249 0.34074888 0.66502881 9449503
-0.76040083 0.34642801 0.67611259 9449503
-0.85330707 0.39218268 0.76541048 9844002
0 0 0 10040865
0 0 0 9909536
0 0 0 10106917
-0.82321101 0.39218268 0.76541048 10237989
-0.90065438 0.43303505 0.84514076 9975332
-0.9311443 0.45186263 0.88188601 10040867
-0.96440601 0.47240186 0.92197174 10237474
-0.91380632 0.45186263 0.88188601 10303011
-0.8674233 0.43303505 0.84514076 10303267
-0.79302979 0.39972466 0.78012997 10303266
-0.78536105 0.39972466 0.78012997 10237474
-0.76301885 0.39218268 0.76541048 10500133
-0.72802228 0.37792149 0.73757738 10303010
-0.74797082 0.39218268 0.76541048 10434083
-0.81757671 0.43303505 0.84514076 10433825
-0.80926889 0.43303505 0.84514076 10499874
-0.80096114 0.43303505 0.84514076 10303265
-0.84549695 0.46190405 0.90148348 10369058
-0.91825831 0.50696784 0.98943311 10434081
0 0 0 11024675
0 0 0 10696740
0 0 0 10762019
0 0 0 10564897
0 0 0 10499874
0 0 0 10696994
-2.0504222 1.2226871 2.3862798 10696738
-2.0269649 1.2226871 2.3862798 10696742
-1.7926122 1.0939833 2.1350925 10828067
-1.7716242 1.0939833 2.1350925 10762533
-1.7506361 1.0939833 2.1350925 10696483
-1.7296481 1.0939833 2.1350925 10893605
-1.70866 1.0939833 2.1350925 10893605
-1.7814316 1.1547601 2.2537088 10893347
-1.7592775 1.1547601 2.2537088 10696737
-2.2334442 1.4846915 2.8976254 10958882
-2.572454 1.7321402 3.380563 10631203
-2.7700613 1.8896074 3.687887 10959396
-3.0071902 2.0785682 4.0566759 11024675
-3.2970145 2.3095202 4.5074177 10696740
-3.2527063 2.3095202 4.5074177 10959908
-3.2083981 2.3095202 4.5074177 11156003
-3.1640902 2.3095202 4.5074177 10958626
-7.0195093 5.1964207 10.141689 11090211
-6.919816 5.1964207 10.141689 11155746
-3.4100614 2.5982103 5.0708447 11090468
-2.2401431 1.7321402 3.380563 11221539
-2.206912 1.7321402 3.380563 11156261
-1.863155 1.4846915 2.8976254 10762273
-1.8346713 1.4846915 2.8976254 11090725
-1.4874486 1.2226871 2.3862798 11090724
-0.40799758 0.34074888 0.66502881 11156259
-0.38264185 0.32477629 0.63385558 11352355
-0.3706201 0.31977972 0.62410396 11024675
-0.33368358 0.29275608 0.57136279 11090468
-0.32806706 0.29275608 0.57136279 11287330
-0.33179691 0.30124176 0.587924 10893857
-0.32601759 0.30124176 0.587924 11417376
-0.32494766 0.30567178 0.59656996 11548962
0 0 0 11352355
0 0 0 11352353
0 0 0 11483171
0 0 0 11418405
0 0 0 11549220
0 0 0 11747111
0 0 0 11353123
-0.25898981 0.28473538 0.555709 11614242
-0.24035692 0.26994392 0.52684098 11352611
-0.23216295 0.2664831 0.52008665 11418404
-0.22705048 0.2664831 0.52008665 11876900
-0.2248203 0.26994392 0.52684098 11614752
-0.21964143 0.26994392 0.52684098 11483169
-0.21446256 0.26994392 0.52684098 11418148
-0.2207513 0.28473538 0.555709 11352867
-0.22451532 0.29693833 0.57952511 11353125
-0.22198984 0.30124176 0.587924 11287332
-0.21621051 0.30124176 0.587924 11287333
-0.23802873 0.34074888 0.66502881 11548964
-0.25216034 0.37117288 0.72440636 11548449
-0.28587931 0.43303505 0.84514076 11548706
0 0 0 11614242
0 0 0 11614242
-0.25563037 0.42419761 0.82789302 11548449
-0.20908818 0.35837382 0.69942683 11417376
-0.20221278 0.35837382 0.69942683 11221027
-0.19876437 0.3646611 0.71169752 11417890
-0.21020761 0.39972466 0.78012997 11352355
0 0 0 11286562
0 0 0 11286560
0 0 0 10761503
0 0 0 10695710
-0.19859844 0.46190405 0.90148348 10958625
-0.22468835 0.54699165 1.0675462 11089953
-0.21419433 0.54699165 1.0675462 11418918
-0.2092057 0.56177521 1.0963988 11287073
-0.19842805 0.56177521 1.0963988 11418404
0 0 0 11155488
0 0 0 11417889
0 0 0 11351842
0 0 0 11680032
0 0 0 11482656
0 0 0 11483171
0 0 0 11417378
0 0 0 11614242
-0.10142921 0.56177521 1.0963988 11613728
-0.081807502 0.50696784 0.98943311 11745570
-0.072081327 0.50696784 0.98943311 11613986
-0.062355161 0.50696784 0.98943311 11811106
-0.052628987 0.50696784 0.98943311 11811107
-0.042902816 0.50696784 0.98943311 11548450
-0.034006059 0.51964206 1.014169 11351841
-0.025301825 0.54699165 1.0675462 11482912
-0.015630454 0.57738006 1.1268544 11352098
-0.0046835211 0.59387666 1.1590502 11286305
0.0093939919 0.83142728 1.6226703 11417377
0.026400952 0.86607009 1.6902815 11155490
0 0 0 11154717
0 0 0 11154718
0 0 0 11417378
0 0 0 11417890
0.20211448 1.5988986 3.1205199 11548706
0.2161615 1.4846915 2.8976254 11680035
0.26346418 1.5988986 3.1205199 11811361
0.3186506 1.7321402 3.380563 11811623
0.35188168 1.7321402 3.380563 11811107
0.42012301 1.8896074 3.687887 11811107
0.50201267 2.0785682 4.0566759 11680035
0.54188997 2.0785682 4.0566759 11614755
0.58176726 2.0785682 4.0566759 11614242
0.62164456 2.0785682 4.0566759 11876644
0.66152191 2.0785682 4.0566759 11548450
0.70139921 2.0785682 4.0566759 11417378
0.82364053 2.3095202 4.5074177 11483169
0.71013975 1.8896074 3.687887 11482912
0.58645076 1.4846915 2.8976254 11745827
0.61493456 1.4846915 2.8976254 11811876
0.6929121 1.5988986 3.1205199 12008997
0.72358692 1.5988986 3.1205199 11877670
0.75426179 1.5988986 3.1205199 11811619
0.78493661 1.5988986 3.1205199 11483939
0.62370288 1.2226871 2.3862798 12008740
0.61120683 1.1547601 2.2537088 11876900
0.63336086 1.1547601 2.2537088 11942947
0.58996344 1.0392841 2.028338 12074532
0.55445641 0.94480371 1.8439435 12205606
0.54768759 0.90372527 1.763772 11877414
0.56502551 0.90372527 1.763772 12205604
0.63782668 0.98979437 1.9317503 12008738
0.65681589 0.98979437 1.9317503 12074533
0.67580503 0.98979437 1.9317503 11812133
0.60794497 0.86607009 1.6902815 12074533
0.62456053 0.86607009 1.6902815 11745568
0.615529 0.83142728 1.6226703 11614500
0.63147992 0.83142728 1.6226703 11680035
0.64743084 0.83142728 1.6226703 11614241
0.72106713 0.90372527 1.763772 11877156
0.73840511 0.90372527 1.763772 11614242
0.75574309 0.90372527 1.763772 11614755
0.74086928 0.86607009 1.6902815 11615011
0.75748485 0.86607009 1.6902815 11155745
0.77410042 0.86607009 1.6902815 11286819
0.75908732 0.83142728 1.6226703 11549221
0.8073315 0.86607009 1.6902815 11155746
0.79098916 0.83142728 1.6226703 11614242
0.80694008 0.83142728 1.6226703 11614500
0.822891 0.83142728 1.6226703 11549221
0.83884192 0.83142728 1.6226703 11548964
0.82191622 0.79944932 1.5602599 11548964
0.87074375 0.83142728 1.6226703 11548962
0.88669467 0.83142728 1.6226703 11090211
0.9811365 0.90372527 1.763772 11286562
0.99847448 0.90372527 1.763772 11155748
1.0158124 0.90372527 1.763772 11221541
1.0331504 0.90372527 1.763772 11221283
1.0982379 0.94480371 1.8439435 11483429
1.1163639 0.94480371 1.8439435 11286564
1.1885133 0.98979437 1.9317503 11352357
1.2678777 1.0392841 2.028338 11352613
1.3555961 1.0939833 2.1350925 11024932
1.307755 1.0392841 2.028338 11024675
1.3276936 1.0392841 2.028338 11090214
1.3476323 1.0392841 2.028338 11089442
1.3024484 0.98979437 1.9317503 10958885
1.3214376 0.98979437 1.9317503 10892574
1.3404268 0.98979437 1.9317503 10958626
1.4273869 1.0392841 2.028338 11024162
1.4473255 1.0392841 2.028338 10827298
1.5444885 1.0939833 2.1350925 10761248
1.2393357 0.86607009 1.6902815 10958628
1.2559512 0.86607009 1.6902815 10630688
1.2725667 0.86607009 1.6902815 10761761
1.2891822 0.86607009 1.6902815 10696226
1.3057978 0.86607009 1.6902815 10827296
1.2695168 0.83142728 1.6226703 10565669
1.3972476 0.90372527 1.763772 10368034
1.4145855 0.90372527 1.763772 10237474
1.37226 0.86607009 1.6902815 10172194
1.3888755 0.86607009 1.6902815 10303267
1.4665993 0.90372527 1.763772 10302239
1.4839373 0.90372527 1.763772 10171681
1.5012753 0.90372527 1.763772 10172196
1.5186132 0.90372527 1.763772 9777953
1.9626044 1.1547601 2.2537088 9778468
1.5532892 0.90372527 1.763772 9778211
