# .PCD v0.7 - Point Cloud Data file format
VERSION 0.7
FIELDS x y z rgb
SIZE 4 4 4 4
TYPE F F F U
COUNT 1 1 1 1
WIDTH 1301
HEIGHT 1
VIEWPOINT 0 0 0 1 0 0 0
POINTS 1301
DATA ascii
1.9670701 0.1542699 1.9317503 918794
1.9860593 0.1542699 1.9317503 852489
2.0050485 0.1542699 1.9317503 984075
1.8480344 0.14085513 1.763772 984329
1.8653724 0.14085513 1.763772 1902603
1.9682881 0.14725764 1.8439435 2297106
1.9864142 0.14725764 1.8439435 1312270
2.0045402 0.14725764 1.8439435 2493963
2.0226662 0.14725764 1.8439435 7161132
2.0407922 0.14725764 1.8439435 8080437
2.1569622 0.1542699 1.9317503 8278330
2.4049988 0.17050885 2.1350925 8475967
2.4259868 0.17050885 2.1350925 8804674
2.446975 0.17050885 2.1350925 8936002
2.3445649 0.16198342 2.028338 9265479
2.2519081 0.1542699 1.9317503 9593928
2.1676745 0.14725764 1.8439435 10118989
2.1858006 0.14725764 1.8439435 9528651
2.3088756 0.1542699 1.9317503 9331019
2.3278649 0.1542699 1.9317503 9527626
2.7379966 0.17998157 2.2537088 9396040
2.9225123 0.19056872 2.3862798 9330246
0 0 0 9527880
0 0 0 9856073
0 0 0 9855815
0 0 0 9790024
0 0 0 9658186
0 0 0 9592906
0 0 0 9527370
0 0 0 4267796
0 0 0 1180936
-3.7242663 0.27988011 3.1205199 1444110
-4.0013905 0.30320343 3.380563 1312524
-4.3289013 0.33076736 3.687887 2626326
-4.2926493 0.33076736 3.687887 3610904
-4.2563972 0.33076736 3.687887 3545111
-4.2201452 0.33076736 3.687887 3545111
-4.6022825 0.36384413 4.0566759 3414808
-4.1476407 0.33076736 3.687887 3611417
-4.1113887 0.33076736 3.687887 3611158
-4.0751367 0.33076736 3.687887 3611158
-4.0388846 0.33076736 3.687887 3479831
-3.6690798 0.30320343 3.380563 3545622
-3.9663804 0.33076736 3.687887 3545623
-3.9301283 0.33076736 3.687887 3610904
-4.2832642 0.36384413 4.0566759 3610903
-4.2433867 0.36384413 4.0566759 3545621
-4.2035093 0.36384413 4.0566759 3414292
-4.1636324 0.36384413 4.0566759 3282451
-4.123755 0.36384413 4.0566759 2428173
-4.0838776 0.36384413 4.0566759 1180424
-4.4933338 0.40427125 4.5074177 1444110
-4.4490256 0.40427125 4.5074177 2167059
-4.4047174 0.40427125 4.5074177 917509
-4.3604093 0.40427125 4.5074177 852489
-4.8556137 0.45480514 5.0708447 655623
-4.8057671 0.45480514 5.0708447 721675
-4.2274847 0.40427125 4.5074177 655882
-4.183177 0.40427125 4.5074177 852489
-4.1388688 0.40427125 4.5074177 918284
-4.0945606 0.40427125 4.5074177 787468
-4.0502524 0.40427125 4.5074177 1114891
-4.0059443 0.40427125 4.5074177 1114891
-3.5654726 0.36384413 4.0566759 1049098
-3.5255952 0.36384413 4.0566759 1049611
-3.485718 0.36384413 4.0566759 1115661
-3.4458406 0.36384413 4.0566759 984073
-3.4059634 0.36384413 4.0566759 852487
-3.366086 0.36384413 4.0566759 655881
-3.6957874 0.40427125 4.5074177 655882
-3.2863314 0.36384413 4.0566759 721416
-3.2464542 0.36384413 4.0566759 786950
-3.5628631 0.40427125 4.5074177 918282
-3.5185549 0.40427125 4.5074177 1246474
-3.9085276 0.45480514 5.0708447 1312267
-3.858681 0.45480514 5.0708447 1049868
-3.8088343 0.45480514 5.0708447 1115145
-3.7589877 0.45480514 5.0708447 1049352
-3.709141 0.45480514 5.0708447 918536
-3.2527063 0.40427125 4.5074177 1049352
-3.2083981 0.40427125 4.5074177 983559
-3.1640902 0.40427125 4.5074177 852489
-3.119782 0.40427125 4.5074177 852489
-3.0754738 0.40427125 4.5074177 1049098
-2.4800446 0.33076736 3.687887 721416
-1.9201226 0.25988865 2.8976254 983305
-1.5578202 0.21402594 2.3862798 917512
-1.534363 0.21402594 2.3862798 721416
-1.5109057 0.21402594 2.3862798 984077
0 0 0 5058867
0 0 0 5320492
0 0 0 5122342
-0.30885008 0.046646684 0.52008665 4728098
-0.29989281 0.046056218 0.51350325 4860455
-0.29484507 0.046056218 0.51350325 4859170
-0.29351267 0.046646684 0.52008665 4662304
-0.29214561 0.04725248 0.52684098 4596252
0 0 0 4595738
0 0 0 4726810
0 0 0 4529945
0 0 0 4464152
0 0 0 4792090
0 0 0 4726809
0 0 0 5120797
0 0 0 9264447
-0.35011587 0.067378543 0.75123626 1771266
-0.33049077 0.064972162 0.72440636 1115661
-0.32924926 0.066153474 0.73757738 984075
-0.33414975 0.068649828 0.76541048 853259
-0.35328907 0.074253902 0.82789302 2036763
-0.31319243 0.067378543 0.75123626 2102556
-0.30580774 0.067378543 0.75123626 1115918
-0.29842305 0.067378543 0.75123626 721933
-0.29103836 0.067378543 0.75123626 655882
-0.27352318 0.064972162 0.72440636 787468
-0.26172853 0.063832305 0.71169752 655882
-0.25473252 0.063832305 0.71169752 590345
-0.2477365 0.063832305 0.71169752 853002
-0.24074048 0.063832305 0.71169752 918539
-0.21841694 0.059646577 0.66502881 655882
-0.20846227 0.058684535 0.65430254 655625
-0.20203045 0.058684535 0.65430254 852489
-0.21655561 0.064972162 0.72440636 655882
-0.20943466 0.064972162 0.72440636 655628
-0.20231372 0.064972162 0.72440636 655882
-0.16561811 0.055127893 0.61464781 524295
-0.15957609 0.055127893 0.61464781 655881
-0.16343951 0.058684535 0.65430254 786698
-0.15700768 0.058684535 0.65430254 721160
-0.15823227 0.061668497 0.68757218 590089
-0.1514734 0.061668497 0.68757218 590602
-0.14471453 0.061668497 0.68757218 786698
-0.13795567 0.061668497 0.68757218 786698
-0.1311968 0.061668497 0.68757218 590087
-0.12880418 0.063832305 0.71169752 852489
-0.12857528 0.067378543 0.75123626 590087
-0.10728347 0.059646577 0.66502881 590089
-0.10074621 0.059646577 0.66502881 721161
-0.095779091 0.060640685 0.67611259 852491
-0.092206426 0.062731743 0.69942683 655882
-0.086828068 0.063832305 0.71169752 786698
-0.079832047 0.063832305 0.71169752 852489
-0.074136674 0.064972162 0.72440636 787466
-0.06823419 0.066153474 0.73757738 918536
-0.062113106 0.067378543 0.75123626 852489
-0.054728419 0.067378543 0.75123626 786952
-0.047343731 0.067378543 0.75123626 655880
-0.039959047 0.067378543 0.75123626 786696
-0.032574359 0.067378543 0.75123626 983560
-0.02566495 0.068649828 0.76541048 786696
0 0 0 918282
0 0 0 1115145
0 0 0 1049352
0 0 0 1378059
0 0 0 6172706
0 0 0 5713184
0 0 0 5318174
0 0 0 5910565
0 0 0 5647393
0 0 0 5647393
0 0 0 6106913
0.42812929 0.45480514 5.0708447 4332564
0.42486748 0.40427125 4.5074177 5451297
0.42225805 0.36384413 4.0566759 6172704
0.5134837 0.40427125 4.5074177 6041379
0.55779183 0.40427125 4.5074177 5647391
0.67736244 0.45480514 5.0708447 5844000
0.72720903 0.45480514 5.0708447 5844511
0.77705568 0.45480514 5.0708447 4793627
0.82690233 0.45480514 5.0708447 4924699
0.87674892 0.45480514 5.0708447 4859422
0.92659557 0.45480514 5.0708447 5123104
0.97644222 0.45480514 5.0708447 6240551
1.0262889 0.45480514 5.0708447 8080436
1.0761355 0.45480514 5.0708447 9722684
1.125982 0.45480514 5.0708447 10117186
1.1758287 0.45480514 5.0708447 10774595
1.2256753 0.45480514 5.0708447 12089939
0.72886968 0.25988865 2.8976254 11566932
0.75735348 0.25988865 2.8976254 7750958
0.78583729 0.25988865 2.8976254 9855297
0.87696117 0.27988011 3.1205199 7882804
0.98327231 0.30320343 3.380563 983818
1.355338 0.40427125 4.5074177 918026
1.399646 0.40427125 4.5074177 918281
0.51982349 0.14553764 1.6226703 786953
0.51516771 0.13994005 1.5602599 918281
0.55172533 0.14553764 1.6226703 1247246
0.56767625 0.14553764 1.6226703 1181196
0.58362716 0.14553764 1.6226703 1115660
0.59957808 0.14553764 1.6226703 1115660
0.64117604 0.15160172 1.6902815 984074
0.65779161 0.15160172 1.6902815 852489
0.73571688 0.16538368 1.8439435 1049098
0.7897402 0.17325909 1.9317503 918282
0.89385885 0.19149691 2.1350925 918536
0.96567178 0.20213562 2.2537088 1313040
0.98782581 0.20213562 2.2537088 3021597
1.0693904 0.21402594 2.3862798 1707025
1.1611506 0.22740257 2.5354223 1115915
1.1860739 0.22740257 2.5354223 984075
0.96879786 0.18192206 2.028338 721160
0.89885128 0.16538368 1.8439435 852489
0.91697735 0.16538368 1.8439435 590600
0.93510342 0.16538368 1.8439435 721675
0.99862134 0.17325909 1.9317503 853003
1.0176105 0.17325909 1.9317503 787468
1.0365998 0.17325909 1.9317503 787468
1.1083684 0.18192206 2.028338 852491
1.1283071 0.18192206 2.028338 918282
1.1482457 0.18192206 2.028338 787211
1.1681844 0.18192206 2.028338 786954
1.188123 0.18192206 2.028338 1705995
1.2080617 0.18192206 2.028338 7096633
1.2280003 0.18192206 2.028338 6701881
1.247939 0.18192206 2.028338 7226937
1.2678777 0.18192206 2.028338 8147007
1.2878163 0.18192206 2.028338 8146493
1.307755 0.18192206 2.028338 7096895
1.3276936 0.18192206 2.028338 7491393
1.2834592 0.17325909 1.9317503 8146757
1.3024484 0.17325909 1.9317503 3742490
1.3214376 0.17325909 1.9317503 2822677
1.3404268 0.17325909 1.9317503 786698
1.2976243 0.16538368 1.8439435 655624
1.3157504 0.16538368 1.8439435 852489
1.2758818 0.1581931 1.763772 655882
1.2393357 0.15160172 1.6902815 590346
1.2559512 0.15160172 1.6902815 655882
1.3278956 0.1581931 1.763772 721674
1.3452337 0.1581931 1.763772 853001
1.4245067 0.16538368 1.8439435 918282
1.4426327 0.16538368 1.8439435 2431262
1.5303187 0.17325909 1.9317503 4732210
1.5493079 0.17325909 1.9317503 5389883
1.568297 0.17325909 1.9317503 5258813
1.515137 0.16538368 1.8439435 5193789
1.533263 0.16538368 1.8439435 4733752
1.6252646 0.17325909 1.9317503 2891556
1.6442538 0.17325909 1.9317503 1378063
1.6632431 0.17325909 1.9317503 852489
1.6822323 0.17325909 1.9317503 721673
1.7012215 0.17325909 1.9317503 721673
1.7202107 0.17325909 1.9317503 1114891
1.9222735 0.19149691 2.1350925 983305
1.9432616 0.19149691 2.1350925 984075
2.0733747 0.20213562 2.2537088 852491
1.8859758 0.18192206 2.028338 852489
1.9059145 0.18192206 2.028338 852746
1.9258533 0.18192206 2.028338 852490
2.0482018 0.19149691 2.1350925 852490
2.184145 0.20213562 2.2537088 787211
2.3360813 0.21402594 2.3862798 721673
2.3595386 0.21402594 2.3862798 984075
2.2506073 0.20213562 2.2537088 984075
2.2727613 0.20213562 2.2537088 1050122
2.4299102 0.21402594 2.3862798 853513
2.4533675 0.21402594 2.3862798 1049352
2.0050485 0.17325909 1.9317503 918282
2.0240376 0.17325909 1.9317503 1050122
1.8653724 0.1581931 1.763772 4334109
1.9682881 0.16538368 1.8439435 5190442
1.9000483 0.1581931 1.763772 4599593
2.0045402 0.16538368 1.8439435 1575185
1.9347242 0.1581931 1.763772 4138260
1.9520621 0.1581931 1.763772 7554861
2.0589182 0.16538368 1.8439435 8016443
2.1759512 0.17325909 1.9317503 8279358
2.3046875 0.18192206 2.028338 8410174
2.3246262 0.18192206 2.028338 8541502
2.3445649 0.18192206 2.028338 8804417
2.3645036 0.18192206 2.028338 9198914
2.2708972 0.17325909 1.9317503 9724231
2.2898865 0.17325909 1.9317503 9593417
2.3088756 0.17325909 1.9317503 9199172
2.5729032 0.19149691 2.1350925 8870982
2.7379966 0.20213562 2.2537088 8936262
2.9225123 0.21402594 2.3862798 9067589
3.8524218 0.27988011 3.1205199 9396551
0 0 0 9725003
0 0 0 9397576
0 0 0 9396811
0 0 0 9593418
0 0 0 9462088
0 0 0 9396297
0 0 0 4136210
0 0 0 1181705
-3.7242663 0.31055495 3.1205199 1312267
-4.0013905 0.33643451 3.380563 1313037
-3.9681594 0.33643451 3.380563 2758167
-4.2926493 0.36701947 3.687887 3151124
-4.2563972 0.36701947 3.687887 3217429
-4.2201452 0.36701947 3.687887 3348757
-4.1838932 0.36701947 3.687887 3545623
-4.1476407 0.36701947 3.687887 3676951
-4.1113887 0.36701947 3.687887 3414548
-4.0751367 0.36701947 3.687887 3414808
-4.0388846 0.36701947 3.687887 3941409
-4.0026326 0.36701947 3.687887 4007202
-3.9663804 0.36701947 3.687887 4005660
-3.9301283 0.36701947 3.687887 3676951
-4.2832642 0.40372145 4.0566759 3611671
-4.2433867 0.40372145 4.0566759 3611671
-4.2035093 0.40372145 4.0566759 3414807
-4.1636324 0.40372145 4.0566759 3217687
-4.123755 0.40372145 4.0566759 2297872
-4.0838776 0.40372145 4.0566759 1049352
-4.4933338 0.44857937 4.5074177 1246730
-4.4490256 0.44857937 4.5074177 2166802
-4.955307 0.50465178 5.0708447 1049352
-4.9054604 0.50465178 5.0708447 852489
-4.8556137 0.50465178 5.0708447 918282
-4.8057671 0.50465178 5.0708447 984075
-4.2274847 0.44857937 4.5074177 918282
-4.183177 0.44857937 4.5074177 983818
-3.7249818 0.40372145 4.0566759 853002
-3.6851046 0.40372145 4.0566759 984075
-3.6452272 0.40372145 4.0566759 984075
-3.60535 0.40372145 4.0566759 918536
-3.5654726 0.40372145 4.0566759 918536
-3.5255952 0.40372145 4.0566759 1181708
-3.485718 0.40372145 4.0566759 1115915
-3.4458406 0.40372145 4.0566759 1312267
-3.4059634 0.40372145 4.0566759 1049098
-3.366086 0.40372145 4.0566759 786698
-3.6957874 0.44857937 4.5074177 721418
-3.6514795 0.44857937 4.5074177 720903
-3.6071713 0.44857937 4.5074177 786696
-3.5628631 0.44857937 4.5074177 786439
-3.5185549 0.44857937 4.5074177 983559
-3.474247 0.44857937 4.5074177 984072
-3.4299388 0.44857937 4.5074177 983817
-3.3856306 0.44857937 4.5074177 983816
-3.3413227 0.44857937 4.5074177 1114634
-3.2970145 0.44857937 4.5074177 1115661
-3.2527063 0.44857937 4.5074177 1050123
-3.2083981 0.44857937 4.5074177 983305
-3.1640902 0.44857937 4.5074177 852489
-3.119782 0.44857937 4.5074177 721673
-3.0754738 0.44857937 4.5074177 918282
-2.4800446 0.36701947 3.687887 852489
-1.9201226 0.28837243 2.8976254 721675
-1.5578202 0.23748319 2.3862798 787468
-1.534363 0.23748319 2.3862798 983305
-1.5109057 0.23748319 2.3862798 1049098
0 0 0 4269866
0 0 0 5649198
0 0 0 5057575
0 0 0 4860197
-0.29989281 0.051103976 0.51350325 4859684
-0.29484507 0.051103976 0.51350325 4793633
-0.28979731 0.051103976 0.51350325 4596254
-0.28840017 0.051759157 0.52008665 4661790
-0.2946192 0.053829525 0.5408901 4530459
-0.45203474 0.084108628 0.84514076 4595995
-0.44372696 0.084108628 0.84514076 4530459
0 0 0 4398359
0 0 0 4726552
0 0 0 4792602
0 0 0 4595484
0 0 0 8475968
-0.34375009 0.073403895 0.73757738 2623748
-0.33049077 0.072093107 0.72440636 1181454
0 0 0 1181454
-0.36895701 0.084108628 0.84514076 984075
-0.36064926 0.084108628 0.84514076 1970972
-0.33161551 0.079161063 0.79542661 2365212
-0.31157768 0.076173849 0.76541048 1314066
-0.29842305 0.074763231 0.75123626 852746
-0.29103836 0.074763231 0.75123626 655882
-0.26409134 0.069607139 0.69942683 918284
-0.26172853 0.070828319 0.71169752 786698
-0.25473252 0.070828319 0.71169752 787211
-0.2477365 0.070828319 0.71169752 918796
-0.22495422 0.066183843 0.66502881 852489
-0.21489409 0.065116361 0.65430254 655623
-0.20846227 0.065116361 0.65430254 590089
-0.20203045 0.065116361 0.65430254 458759
-0.21275641 0.070828319 0.71169752 852489
-0.19878545 0.068427362 0.68757218 590087
-0.18882613 0.067286901 0.67611259 590091
-0.16561811 0.061169907 0.61464781 786698
-0.16717497 0.064082764 0.64391679 852234
-0.1747112 0.069607139 0.69942683 786696
-0.16783579 0.069607139 0.69942683 786696
-0.15823227 0.068427362 0.68757218 655882
-0.1514734 0.068427362 0.68757218 655880
-0.14471453 0.068427362 0.68757218 917511
-0.13795567 0.068427362 0.68757218 786696
-0.1311968 0.068427362 0.68757218 655880
-0.12880418 0.070828319 0.71169752 590089
-0.11571775 0.067286901 0.67611259 590089
-0.10728347 0.066183843 0.66502881 720905
-0.10074621 0.066183843 0.66502881 917512
-0.095779091 0.067286901 0.67611259 720905
-0.093824089 0.070828319 0.71169752 720903
-0.086828068 0.070828319 0.71169752 721673
-0.079832047 0.070828319 0.71169752 852489
-0.075484611 0.073403895 0.73757738 1181708
-0.06823419 0.073403895 0.73757738 721675
-0.062113106 0.074763231 0.75123626 917512
-0.054728419 0.074763231 0.75123626 852489
-0.047343731 0.074763231 0.75123626 786696
-0.039959047 0.074763231 0.75123626 918025
-0.032574359 0.074763231 0.75123626 852490
-0.02566495 0.076173849 0.76541048 721674
-0.019621823 0.082392126 0.82789302 918281
0 0 0 984329
0 0 0 1049352
0 0 0 1115145
0 0 0 6173219
0 0 0 5712414
0 0 0 5186842
0 0 0 6041379
0 0 0 5580828
0 0 0 5646621
0 0 0 5713184
0 0 0 4397844
0.29413903 0.31055495 3.1205199 4268568
0.32481387 0.31055495 3.1205199 4596763
0.35548872 0.31055495 3.1205199 4596250
0.45637512 0.36701947 3.687887 4859422
0.60209996 0.44857937 4.5074177 5845542
0.64640808 0.44857937 4.5074177 7094063
0.77705568 0.50465178 5.0708447 7816754
0.82690233 0.50465178 5.0708447 8211251
0.87674892 0.50465178 5.0708447 8538676
0.92659557 0.50465178 5.0708447 8604981
0.97644222 0.50465178 5.0708447 8670257
1.0262889 0.50465178 5.0708447 8932914
1.0761355 0.50465178 5.0708447 9129782
1.125982 0.50465178 5.0708447 9130294
1.1758287 0.50465178 5.0708447 8736051
0.70038593 0.28837243 2.8976254 8604980
0.72886968 0.28837243 2.8976254 8276790
0.75735348 0.28837243 2.8976254 7489073
0.73344809 0.2691476 2.7044504 9654838
0.76003295 0.2691476 2.7044504 5646873
0.98327231 0.33643451 3.380563 1049868
1.355338 0.44857937 4.5074177 852489
1.399646 0.44857937 4.5074177 852489
0.48131806 0.14952646 1.5024725 852489
0.46187449 0.13921428 1.3988537 1378573
0.49261189 0.14418621 1.4488127 1772302
0.50685376 0.14418621 1.4488127 1640972
0.56118 0.15527748 1.5602599 1772302
0.59957808 0.16148856 1.6226703 1771789
0.615529 0.16148856 1.6226703 1706252
0.65779161 0.16821726 1.6902815 1509645
0.770751 0.19224828 1.9317503 1443852
0.7897402 0.19224828 1.9317503 1246473
0.89385885 0.21248496 2.1350925 918536
0.96567178 0.22428969 2.2537088 1049100
0.98782581 0.22428969 2.2537088 1180683
1.0693904 0.23748319 2.3862798 918282
1.1611506 0.25232589 2.5354223 1180684
1.1860739 0.25232589 2.5354223 852489
0.8073315 0.16821726 1.6902815 655882
0.79098916 0.16148856 1.6226703 1049611
0.80694008 0.16148856 1.6226703 3285021
0.89444673 0.17553104 1.763772 3415325
0.91178471 0.17553104 1.763772 3283998
0.9713555 0.18350974 1.8439435 2955548
1.0365998 0.19224828 1.9317503 2429720
1.1083684 0.20186073 2.028338 1377804
1.1283071 0.20186073 2.028338 853004
1.1482457 0.20186073 2.028338 1049867
1.1681844 0.20186073 2.028338 787209
1.188123 0.20186073 2.028338 1640459
1.2080617 0.20186073 2.028338 6766896
1.2280003 0.20186073 2.028338 6241586
1.247939 0.20186073 2.028338 6833464
1.2678777 0.20186073 2.028338 8081214
1.2878163 0.20186073 2.028338 7885638
1.307755 0.20186073 2.028338 7884353
1.26447 0.19224828 1.9317503 7359294
1.2834592 0.19224828 1.9317503 7356987
1.3024484 0.19224828 1.9317503 3545113
1.3214376 0.19224828 1.9317503 3085592
1.3404268 0.19224828 1.9317503 917769
1.2976243 0.18350974 1.8439435 720903
1.3157504 0.18350974 1.8439435 721416
1.3338765 0.18350974 1.8439435 786696
1.2393357 0.16821726 1.6902815 721415
1.2559512 0.16821726 1.6902815 721418
1.3278956 0.17553104 1.763772 721417
1.3452337 0.17553104 1.763772 786955
1.4923403 0.19224828 1.9317503 918284
1.5113295 0.19224828 1.9317503 2890524
1.5303187 0.19224828 1.9317503 6964019
1.4788848 0.18350974 1.8439435 7095089
1.4970108 0.18350974 1.8439435 8147775
1.515137 0.18350974 1.8439435 8542531
1.533263 0.18350974 1.8439435 7819327
1.551389 0.18350974 1.8439435 6506298
1.5695151 0.18350974 1.8439435 3940386
1.6632431 0.19224828 1.9317503 1180688
1.6822323 0.19224828 1.9317503 918283
1.7012215 0.19224828 1.9317503 786953
1.7202107 0.19224828 1.9317503 852745
1.7391998 0.19224828 1.9317503 786953
1.758189 0.19224828 1.9317503 918282
1.7771782 0.19224828 1.9317503 918027
1.7961674 0.19224828 1.9317503 918284
1.7326494 0.18350974 1.8439435 918281
1.7507756 0.18350974 1.8439435 852744
1.7689016 0.18350974 1.8439435 918282
1.8721242 0.19224828 1.9317503 1049868
1.9856691 0.20186073 2.028338 1180684
2.111166 0.21248496 2.1350925 1049098
2.3829956 0.23748319 2.3862798 852489
2.4064529 0.23748319 2.3862798 984075
2.4299102 0.23748319 2.3862798 918282
2.4533675 0.23748319 2.3862798 918282
1.9139099 0.18350974 1.8439435 983305
1.932036 0.18350974 1.8439435 1246731
1.8653724 0.17553104 1.763772 6371114
1.9682881 0.18350974 1.8439435 8476992
1.9864142 0.18350974 1.8439435 7689797
2.0045402 0.18350974 1.8439435 1772816
1.9347242 0.17553104 1.763772 2166275
1.8707262 0.16821726 1.6902815 9199427
1.8873417 0.16821726 1.6902815 9462601
2.1759512 0.19224828 1.9317503 8542532
2.3046875 0.20186073 2.028338 8147261
2.3246262 0.20186073 2.028338 8014646
2.2329187 0.19224828 1.9317503 8015415
2.2519081 0.19224828 1.9317503 8278845
2.2708972 0.19224828 1.9317503 9001280
2.2898865 0.19224828 1.9317503 8805189
2.4243195 0.20186073 2.028338 8804932
2.7158425 0.22428969 2.2537088 8870468
2.899055 0.23748319 2.3862798 8739396
2.9225123 0.23748319 2.3862798 8673860
3.8524218 0.31055495 3.1205199 9002824
0 0 0 9199688
0 0 0 9593417
0 0 0 9462344
0 0 0 9462088
0 0 0 9396296
0 0 0 9265225
0 0 0 4202003
0 0 0 1181190
-4.0346217 0.36966559 3.380563 1378060
-4.0013905 0.36966559 3.380563 1444109
-3.9681594 0.36966559 3.380563 3086874
-4.2926493 0.40327156 3.687887 3480602
-4.6820374 0.44359875 4.0566759 3546394
-4.2201452 0.40327156 3.687887 3546394
-4.1838932 0.40327156 3.687887 3611671
-4.1476407 0.40327156 3.687887 3742744
-4.1113887 0.40327156 3.687887 3611671
-4.0751367 0.40327156 3.687887 3349272
-4.0388846 0.40327156 3.687887 3414808
-4.0026326 0.40327156 3.687887 3414808
-3.9663804 0.40327156 3.687887 3611415
-3.9301283 0.40327156 3.687887 3677208
-3.8938763 0.40327156 3.687887 3348500
-3.8576241 0.40327156 3.687887 3414037
-4.2035093 0.44359875 4.0566759 3347988
-4.1636324 0.44359875 4.0566759 2954514
-4.5819497 0.4928875 4.5074177 2166542
-4.0838776 0.44359875 4.0566759 1049352
-4.4933338 0.4928875 4.5074177 1049354
-4.4490256 0.4928875 4.5074177 1049611
-4.955307 0.55449843 5.0708447 918537
-4.9054604 0.55449843 5.0708447 984329
-4.3161011 0.4928875 4.5074177 918282
-4.2717929 0.4928875 4.5074177 1049098
-4.2274847 0.4928875 4.5074177 984075
-4.183177 0.4928875 4.5074177 984075
-3.7249818 0.44359875 4.0566759 984589
-3.6851046 0.44359875 4.0566759 1181708
-3.6452272 0.44359875 4.0566759 918793
-3.60535 0.44359875 4.0566759 984329
-3.5654726 0.44359875 4.0566759 918536
-3.5255952 0.44359875 4.0566759 918536
-3.485718 0.44359875 4.0566759 984329
-3.4458406 0.44359875 4.0566759 918282
-3.4059634 0.44359875 4.0566759 918282
-3.366086 0.44359875 4.0566759 853003
-3.6957874 0.4928875 4.5074177 852490
-3.6514795 0.4928875 4.5074177 786696
-3.6071713 0.4928875 4.5074177 852489
-3.5628631 0.4928875 4.5074177 918024
-3.5185549 0.4928875 4.5074177 1180427
-3.474247 0.4928875 4.5074177 1114891
-3.4299388 0.4928875 4.5074177 983305
-3.3856306 0.4928875 4.5074177 721674
-3.3413227 0.4928875 4.5074177 1049610
-3.2970145 0.4928875 4.5074177 852744
-3.6592944 0.55449843 5.0708447 918025
-3.6094477 0.55449843 5.0708447 852489
-3.1640902 0.4928875 4.5074177 1115917
-3.119782 0.4928875 4.5074177 853258
-3.0754738 0.4928875 4.5074177 918536
-2.2733741 0.36966559 3.380563 1114890
-1.5812775 0.26094043 2.3862798 1246731
-1.5578202 0.26094043 2.3862798 1115402
-1.534363 0.26094043 2.3862798 984329
-1.5109057 0.26094043 2.3862798 1444110
-1.4874486 0.26094043 2.3862798 2232598
0 0 0 5649453
0 0 0 5319975
-0.36500463 0.067211926 0.61464781 4991269
-0.30373761 0.056871634 0.52008665 5057062
-0.29484507 0.056151737 0.51350325 4794403
-0.28979731 0.056151737 0.51350325 4727840
-0.28840017 0.056871634 0.52008665 4793119
-0.29074264 0.058368254 0.53377312 4398875
-0.43395334 0.088719748 0.81133515 4464668
-0.42597789 0.088719748 0.81133515 4463898
-0.4354192 0.092416398 0.84514076 4332826
0 0 0 4726553
0 0 0 4923418
0 0 0 4858395
0 0 0 5057056
-0.34375009 0.080654308 0.73757738 3346950
-0.33049077 0.079214059 0.72440636 1115661
0 0 0 1181454
0 0 0 984075
-0.36064926 0.092416398 0.84514076 1839386
-0.34515086 0.090530351 0.82789302 2036763
-0.30580774 0.082147911 0.75123626 1970711
-0.29299718 0.080654308 0.73757738 918282
-0.28574675 0.080654308 0.73757738 853003
-0.26409134 0.076482534 0.69942683 852490
-0.25285637 0.07518623 0.68757218 918283
-0.24199587 0.073933117 0.67611259 918283
-0.23149148 0.072721101 0.66502881 1115916
-0.22132592 0.071548179 0.65430254 721160
-0.21148308 0.070412494 0.64391679 720904
-0.20515335 0.070412494 0.64391679 721675
-0.19571699 0.069312304 0.63385558 786698
-0.20211858 0.073933117 0.67611259 590089
-0.17770213 0.067211926 0.61464781 852491
-0.17166013 0.067211926 0.61464781 918284
-0.16561811 0.067211926 0.61464781 721417
-0.15957609 0.067211926 0.61464781 720903
-0.15353407 0.067211926 0.61464781 786696
-0.14749205 0.067211926 0.61464781 590089
-0.13933885 0.066208765 0.605474 590345
-0.13749124 0.068245955 0.62410396 655880
-0.14471453 0.07518623 0.68757218 720905
-0.13795567 0.07518623 0.68757218 720903
-0.1311968 0.07518623 0.68757218 590087
-0.11841674 0.071548179 0.65430254 720905
-0.11198492 0.071548179 0.65430254 590089
-0.1055531 0.071548179 0.65430254 655882
-0.10074621 0.072721101 0.66502881 720905
-0.10262046 0.079214059 0.72440636 590087
-0.095499516 0.079214059 0.72440636 655880
-0.088378564 0.079214059 0.72440636 852489
-0.079832047 0.077824339 0.71169752 852489
-0.075484611 0.080654308 0.73757738 984075
-0.06823419 0.080654308 0.73757738 721159
-0.062113106 0.082147911 0.75123626 852491
-0.055761028 0.08369787 0.76541048 721418
-0.048237007 0.08369787 0.76541048 721160
-0.04071299 0.08369787 0.76541048 852489
-0.033188969 0.08369787 0.76541048 1049097
-0.02566495 0.08369787 0.76541048 1049354
-0.019229386 0.088719748 0.81133515 1049352
0 0 0 1180937
0 0 0 1049352
0 0 0 1246731
0 0 0 5844000
0 0 0 5581598
0 0 0 4924699
0 0 0 5778207
0 0 0 5646621
0 0 0 5581346
0 0 0 6436391
0 0 0 6501669
0.27312908 0.31685624 2.8976254 6436391
0.26391128 0.27724922 2.5354223 6764066
0.33009666 0.31685624 2.8976254 6829605
0.38616356 0.3412298 3.1205199 7093290
0.45157495 0.36966559 3.380563 7683625
0.52887928 0.40327156 3.687887 8078638
0.69071621 0.4928875 4.5074177 8210222
0.82690233 0.55449843 5.0708447 8341808
0.87674892 0.55449843 5.0708447 8276787
0.92659557 0.55449843 5.0708447 8473394
0.97644222 0.55449843 5.0708447 8473651
1.0262889 0.55449843 5.0708447 8736051
1.0761355 0.55449843 5.0708447 8998964
1.000873 0.4928875 4.5074177 9065783
0.78388578 0.36966559 3.380563 9590585
0.70038593 0.31685624 2.8976254 9590585
0.72886968 0.31685624 2.8976254 9722428
0.70686322 0.29573247 2.7044504 9853241
0.73344809 0.29573247 2.7044504 9656635
0.76003295 0.29573247 2.7044504 1902345
0.84280485 0.31685624 2.8976254 1180941
0 0 0 918024
0 0 0 983562
0.43318623 0.14786623 1.3522252 852489
0.44647866 0.14786623 1.3522252 1049609
0.47562528 0.15296507 1.3988537 983817
0.50685376 0.15842812 1.4488127 1115146
0.56118 0.1706149 1.5602599 984329
0.5765174 0.1706149 1.5602599 1049352
0.615529 0.1774395 1.6226703 983559
0.68639123 0.19286901 1.763772 918282
0.73571688 0.20163578 1.8439435 983816
0.7897402 0.21123749 1.9317503 852743
0.84916592 0.22179937 2.028338 852489
0.96567178 0.24644375 2.2537088 852491
0.98782581 0.24644375 2.2537088 852489
0.82634711 0.20163578 1.8439435 918537
0.74313641 0.1774395 1.6226703 984075
0.75908732 0.1774395 1.6226703 720903
0.77503824 0.1774395 1.6226703 655369
0.79098916 0.1774395 1.6226703 1443853
0.80694008 0.1774395 1.6226703 4466204
0.79124135 0.1706149 1.5602599 4531741
0.91178471 0.19286901 1.763772 4334363
0.92912263 0.19286901 1.763772 4072221
0.98948157 0.20163578 1.8439435 2362895
1.0555888 0.21123749 1.9317503 2561047
1.1283071 0.22179937 2.028338 2495510
1.2086797 0.23347302 2.1350925 3283482
1.2296677 0.23347302 2.1350925 3349017
1.188123 0.22179937 2.028338 2494735
1.2716439 0.23347302 2.1350925 4464150
1.2926319 0.23347302 2.1350925 4398619
1.31362 0.23347302 2.1350925 4464927
1.2678777 0.22179937 2.028338 4596250
1.2878163 0.22179937 2.028338 4530972
1.2454808 0.21123749 1.9317503 4662558
1.26447 0.21123749 1.9317503 4662043
1.2834592 0.21123749 1.9317503 4992806
1.3024484 0.21123749 1.9317503 3217173
1.3214376 0.21123749 1.9317503 2954004
1.3404268 0.21123749 1.9317503 1772303
1.359416 0.21123749 1.9317503 1575697
1.3784052 0.21123749 1.9317503 1773331
1.3338765 0.20163578 1.8439435 1970197
1.3520025 0.20163578 1.8439435 1642259
1.3701285 0.20163578 1.8439435 1510672
1.3882545 0.20163578 1.8439435 1510673
1.4733511 0.21123749 1.9317503 1509903
1.5669575 0.22179937 2.028338 1378317
1.5113295 0.21123749 1.9317503 2693147
1.5303187 0.21123749 1.9317503 6044461
1.4788848 0.20163578 1.8439435 7622466
1.4970108 0.20163578 1.8439435 6241073
1.515137 0.20163578 1.8439435 6833979
1.533263 0.20163578 1.8439435 7094838
1.551389 0.20163578 1.8439435 6768184
1.5695151 0.20163578 1.8439435 4401196
1.5876411 0.20163578 1.8439435 1114638
1.6057671 0.20163578 1.8439435 852490
1.6238931 0.20163578 1.8439435 787210
1.7202107 0.21123749 1.9317503 655880
1.7391998 0.21123749 1.9317503 918282
1.758189 0.21123749 1.9317503 984075
1.7771782 0.21123749 1.9317503 1180684
1.7961674 0.21123749 1.9317503 1049868
1.7326494 0.20163578 1.8439435 721673
1.7507756 0.20163578 1.8439435 721673
1.7689016 0.20163578 1.8439435 655880
1.7870276 0.20163578 1.8439435 786953
1.8911134 0.21123749 1.9317503 852489
2.2284532 0.24644375 2.2537088 852745
2.3829956 0.26094043 2.3862798 853003
2.4064529 0.26094043 2.3862798 852489
1.8776579 0.20163578 1.8439435 918281
1.8957839 0.20163578 1.8439435 918282
1.9139099 0.20163578 1.8439435 787466
1.932036 0.20163578 1.8439435 1115661
1.8653724 0.19286901 1.763772 3348245
1.8827103 0.19286901 1.763772 3743759
1.9000483 0.19286901 1.763772 7360058
1.9173863 0.19286901 1.763772 3675926
1.8541107 0.1848328 1.6902815 3744287
1.8707262 0.1848328 1.6902815 8016958
1.8873417 0.1848328 1.6902815 8409913
2.0770445 0.20163578 1.8439435 8278331
2.1949403 0.21123749 1.9317503 8607554
2.2139297 0.21123749 1.9317503 8476483
2.2329187 0.21123749 1.9317503 7818296
2.2519081 0.21123749 1.9317503 7424052
2.2708972 0.21123749 1.9317503 7555897
2.2898865 0.21123749 1.9317503 7753271
2.4243195 0.22179937 2.028338 8015419
2.7158425 0.24644375 2.2537088 8344638
2.899055 0.26094043 2.3862798 8410689
3.5487647 0.31685624 2.8976254 8542275
5.5646091 0.4928875 4.5074177 9002053
0 0 0 9133641
0 0 0 9265992
0 0 0 9265481
0 0 0 9330504
0 0 0 9395784
0 0 0 9396040
0 0 0 4399634
0 0 0 1312519
-4.0346217 0.40289667 3.380563 1312270
-4.0013905 0.40289667 3.380563 1443852
-3.9681594 0.40289667 3.380563 2889238
-4.2926493 0.43952367 3.687887 3151380
-4.2563972 0.43952367 3.687887 3282709
-4.6421599 0.48347604 4.0566759 3217172
-4.1838932 0.43952367 3.687887 3151638
-4.1476407 0.43952367 3.687887 3217173
-4.1113887 0.43952367 3.687887 3282965
-4.0751367 0.43952367 3.687887 3348499
-4.0388846 0.43952367 3.687887 3676181
-4.0026326 0.43952367 3.687887 3479572
-3.9663804 0.43952367 3.687887 3480085
-3.6026175 0.40289667 3.380563 3349015
-3.5693865 0.40289667 3.380563 3414038
-3.5361555 0.40289667 3.380563 3282965
-3.821372 0.43952367 3.687887 3282709
-4.1636324 0.48347604 4.0566759 3020052
-4.5819497 0.53719562 4.5074177 2559505
-4.5376415 0.53719562 4.5074177 1180426
-4.4933338 0.53719562 4.5074177 983820
-4.4490256 0.53719562 4.5074177 1049868
-4.4047174 0.53719562 4.5074177 918536
-4.3604093 0.53719562 4.5074177 1050122
-4.3161011 0.53719562 4.5074177 1115145
-4.2717929 0.53719562 4.5074177 1246731
-4.2274847 0.53719562 4.5074177 1246731
-4.183177 0.53719562 4.5074177 1049868
-3.7249818 0.48347604 4.0566759 984075
-3.3500948 0.43952367 3.687887 918282
-3.3138428 0.43952367 3.687887 852489
-3.60535 0.48347604 4.0566759 852489
-3.5654726 0.48347604 4.0566759 983559
-3.5255952 0.48347604 4.0566759 983559
-3.485718 0.48347604 4.0566759 984074
-3.4458406 0.48347604 4.0566759 1115403
-3.4059634 0.48347604 4.0566759 1246732
-3.366086 0.48347604 4.0566759 1246731
-3.6957874 0.53719562 4.5074177 984073
-3.6514795 0.53719562 4.5074177 984329
-3.6071713 0.53719562 4.5074177 984329
-3.5628631 0.53719562 4.5074177 853000
-3.5185549 0.53719562 4.5074177 1378060
-3.474247 0.53719562 4.5074177 1180938
-3.4299388 0.53719562 4.5074177 1050123
-3.3856306 0.53719562 4.5074177 787210
-3.3413227 0.53719562 4.5074177 1181708
-3.709141 0.60434502 5.0708447 1246731
-3.6592944 0.60434502 5.0708447 1246731
-3.2083981 0.53719562 4.5074177 983819
-3.1640902 0.53719562 4.5074177 1444368
-3.119782 0.53719562 4.5074177 1509902
-3.0754738 0.53719562 4.5074177 1575438
-2.4800446 0.43952367 3.687887 1575438
-2.0678244 0.37190464 3.1205199 1641488
-1.5578202 0.28439766 2.3862798 1642003
-1.534363 0.28439766 2.3862798 1641232
-1.5109057 0.28439766 2.3862798 1575438
-1.4874486 0.28439766 2.3862798 1839384
0 0 0 5519155
0 0 0 5583147
0 0 0 5188648
-0.30768225 0.06278909 0.52684098 4793892
-0.29862514 0.061984107 0.52008665 4925989
-0.29351267 0.061984107 0.52008665 4859427
-0.28840017 0.061984107 0.52008665 4793377
-0.2832877 0.061984107 0.52008665 4661791
-0.28930223 0.064463474 0.5408901 4464410
-0.29176569 0.066229597 0.555709 4661532
-0.28630304 0.066229597 0.555709 4857882
0 0 0 4792346
0 0 0 4792602
0 0 0 4792602
0 0 0 4398361
-0.27400371 0.070068985 0.587924 4135700
-0.26822439 0.070068985 0.587924 1115663
0 0 0 1115918
0 0 0 852746
0 0 0 1642007
-0.34515086 0.098668583 0.82789302 2167579
-0.30580774 0.089532599 0.75123626 1773593
-0.27784213 0.08335793 0.69942683 852746
-0.28574675 0.087904729 0.73757738 853261
-0.2552883 0.080579333 0.67611259 918282
-0.24864209 0.080579333 0.67611259 984075
-0.23418957 0.077980004 0.65430254 1049868
-0.22414254 0.076742224 0.64391679 852744
-0.21440949 0.075543128 0.63385558 590088
-0.20817865 0.075543128 0.63385558 458759
-0.19884093 0.074380927 0.62410396 655880
-0.19270596 0.074380927 0.62410396 1049355
-0.186571 0.074380927 0.62410396 918282
-0.17504987 0.072160602 0.605474 852489
-0.16909803 0.072160602 0.605474 852491
-0.1631462 0.072160602 0.605474 721417
-0.15719436 0.072160602 0.605474 721418
-0.14901838 0.071099415 0.59656996 852233
-0.14315407 0.071099415 0.59656996 721161
-0.13728975 0.071099415 0.59656996 589832
-0.13142544 0.071099415 0.59656996 524296
-0.13135627 0.074380927 0.62410396 589830
-0.1356564 0.080579333 0.67611259 720903
-0.12901019 0.080579333 0.67611259 721161
-0.12236396 0.080579333 0.67611259 524809
-0.11020738 0.076742224 0.64391679 786698
-0.1055531 0.077980004 0.65430254 590087
-0.099121273 0.077980004 0.65430254 786696
-0.10262046 0.086335003 0.72440636 721159
-0.093824089 0.08482036 0.71169752 721673
-0.086828068 0.08482036 0.71169752 720903
-0.079832047 0.08482036 0.71169752 852489
-0.075484611 0.087904729 0.73757738 852489
-0.069497794 0.089532599 0.75123626 655368
-0.062113106 0.089532599 0.75123626 918794
-0.055761028 0.091221891 0.76541048 1772302
-0.048237007 0.091221891 0.76541048 1574412
-0.0440365 0.098668583 0.82789302 1378574
-0.035180308 0.096695207 0.81133515 852745
-0.026158508 0.09297616 0.78012997 1049353
-0.019229386 0.096695207 0.81133515 1049098
0 0 0 1049352
0 0 0 1246476
0 0 0 1312524
0 0 0 5517090
0 0 0 5581598
0 0 0 4858908
0 0 0 5648163
0 0 0 5515807
0 0 0 4989979
0 0 0 4398871
0 0 0 4202777
0 0 0 4400154
0.24838707 0.28439766 2.3862798 4399384
0.28883457 0.30217251 2.5354223 4596502
0.35858044 0.34534001 2.8976254 4924438
0.38706425 0.34534001 2.8976254 5712414
0.48480603 0.40289667 3.380563 6566948
0.62164456 0.48347604 4.0566759 7223077
0.73502433 0.53719562 4.5074177 7487532
0.87674892 0.60434502 5.0708447 8144431
0.92659557 0.60434502 5.0708447 8472881
0.97644222 0.60434502 5.0708447 8932405
0.91225678 0.53719562 4.5074177 9064246
0.9565649 0.53719562 4.5074177 9261878
0.7506547 0.40289667 3.380563 9524792
0.78388578 0.40289667 3.380563 9459256
0.70038593 0.34534001 2.8976254 9722171
0.72886968 0.34534001 2.8976254 9590587
0.70686322 0.32231733 2.7044504 9261879
0.64716011 0.28439766 2.3862798 8933171
0.67061734 0.28439766 2.3862798 1376777
0.69407457 0.28439766 2.3862798 1114889
0.48792166 0.19339041 1.6226703 1049095
0.48449287 0.18595232 1.5602599 1115658
0.43318623 0.16115867 1.3522252 983561
0.44647866 0.16115867 1.3522252 1114890
0.4597711 0.16115867 1.3522252 1049354
0.50685376 0.17267001 1.4488127 1115659
0.56118 0.18595232 1.5602599 1115404
0.5765174 0.18595232 1.5602599 1049098
0.615529 0.19339041 1.6226703 1246731
0.68639123 0.21020697 1.763772 1049352
0.73571688 0.21976183 1.8439435 1049352
0.75384295 0.21976183 1.8439435 1049352
0.80872941 0.23022668 1.9317503 1114888
0.82771862 0.23022668 1.9317503 852489
0.80822104 0.21976183 1.8439435 1509902
0.69921684 0.18595232 1.5602599 1969426
0.71455425 0.18595232 1.5602599 1837838
0.72989166 0.18595232 1.5602599 590087
0.77503824 0.19339041 1.6226703 589832
0.79098916 0.19339041 1.6226703 2364184
0.77590394 0.18595232 1.5602599 4662300
0.76193613 0.1790652 1.5024725 4465435
0.80657881 0.18595232 1.5602599 4399644
0.92912263 0.21020697 1.763772 4399898
0.98948157 0.21976183 1.8439435 3874846
1.0555888 0.23022668 1.9317503 2692376
1.074578 0.23022668 1.9317503 2035217
1.2086797 0.25446108 2.1350925 1838353
1.2296677 0.25446108 2.1350925 1969424
1.2506558 0.25446108 2.1350925 1508873
1.2716439 0.25446108 2.1350925 2101008
1.2926319 0.25446108 2.1350925 3677721
1.31362 0.25446108 2.1350925 4136730
1.2678777 0.24173802 2.028338 4070681
1.2264916 0.23022668 1.9317503 4070937
1.188868 0.21976183 1.8439435 4202008
1.26447 0.23022668 1.9317503 4136473
1.2834592 0.23022668 1.9317503 3874327
1.3024484 0.23022668 1.9317503 3151123
1.3214376 0.23022668 1.9317503 2625810
1.4074482 0.24173802 2.028338 2297619
1.359416 0.23022668 1.9317503 2166803
1.3784052 0.23022668 1.9317503 2232082
1.3973943 0.23022668 1.9317503 2428944
1.3520025 0.21976183 1.8439435 2626321
1.4353727 0.23022668 1.9317503 3151895
1.4543619 0.23022668 1.9317503 3151895
1.4733511 0.23022668 1.9317503 3151897
1.4923403 0.23022668 1.9317503 3086102
1.5113295 0.23022668 1.9317503 3349272
1.4607588 0.21976183 1.8439435 4334368
1.4788848 0.21976183 1.8439435 4596252
1.4970108 0.21976183 1.8439435 4598049
1.515137 0.21976183 1.8439435 5714985
1.4665993 0.21020697 1.763772 5713449
1.4839373 0.21020697 1.763772 4529949
1.5012753 0.21020697 1.763772 2954266
1.5186132 0.21020697 1.763772 1707028
1.5359511 0.21020697 1.763772 1707282
1.5532892 0.21020697 1.763772 1969938
1.5706271 0.21020697 1.763772 2364182
1.6601453 0.21976183 1.8439435 2495770
1.758189 0.23022668 1.9317503 2429978
1.6963974 0.21976183 1.8439435 2232856
1.7145234 0.21976183 1.8439435 2035734
1.7326494 0.21976183 1.8439435 1904402
1.7507756 0.21976183 1.8439435 1707281
1.7689016 0.21976183 1.8439435 1510160
1.7870276 0.21976183 1.8439435 1312784
2.090178 0.25446108 2.1350925 1247249
2.2284532 0.26859781 2.2537088 1181454
2.3829956 0.28439766 2.3862798 1115661
1.9480809 0.23022668 1.9317503 1246732
1.8776579 0.21976183 1.8439435 1049865
1.8957839 0.21976183 1.8439435 853259
1.9139099 0.21976183 1.8439435 984075
1.8480344 0.21020697 1.763772 1179911
1.8653724 0.21020697 1.763772 3020310
1.8827103 0.21020697 1.763772 2756362
1.9000483 0.21020697 1.763772 6111024
1.9173863 0.21020697 1.763772 6439216
1.8541107 0.20144834 1.6902815 6636082
1.8707262 0.20144834 1.6902815 6832689
1.9694002 0.21020697 1.763772 6831406
1.9867381 0.21020697 1.763772 6501930
2.0951705 0.21976183 1.8439435 6567980
2.2139297 0.23022668 1.9317503 6436909
2.2329187 0.23022668 1.9317503 6175018
2.2519081 0.23022668 1.9317503 6306604
2.2708972 0.23022668 1.9317503 6766642
2.2898865 0.23022668 1.9317503 7095859
2.4243195 0.24173802 2.028338 7687224
2.7158425 0.26859781 2.2537088 7818811
2.899055 0.28439766 2.3862798 7950397
3.8217468 0.37190464 3.1205199 8279360
0 0 0 8279617
0 0 0 8673604
0 0 0 9198919
0 0 0 9067593
0 0 0 9133129
0 0 0 9329993
0 0 0 9198918
0 0 0 4399633
0 0 0 1509380
-4.0346217 0.43612778 3.380563 1378060
-4.0013905 0.43612778 3.380563 1443856
-3.9681594 0.43612778 3.380563 3020058
-4.2926493 0.47577575 3.687887 3217433
-4.2563972 0.47577575 3.687887 3151894
-4.6421599 0.52335334 4.0566759 3217429
-4.6022825 0.52335334 4.0566759 3414038
-4.1476407 0.47577575 3.687887 3348247
-4.1113887 0.47577575 3.687887 3479831
-4.0751367 0.47577575 3.687887 3545624
-4.0388846 0.47577575 3.687887 3611158
-4.0026326 0.47577575 3.687887 3545622
-3.6358488 0.43612778 3.380563 3479829
-3.6026175 0.43612778 3.380563 3348245
-3.5693865 0.43612778 3.380563 3282709
-3.5361555 0.43612778 3.380563 3414292
-3.821372 0.47577575 3.687887 3283476
-4.1636324 0.52335334 4.0566759 3414038
-4.5819497 0.58150375 4.5074177 2888467
-4.5376415 0.58150375 4.5074177 983818
-4.4933338 0.58150375 4.5074177 918282
-4.4490256 0.58150375 4.5074177 1049868
-4.4047174 0.58150375 4.5074177 1115915
-3.9243684 0.52335334 4.0566759 918536
-3.884491 0.52335334 4.0566759 918793
-3.8446138 0.52335334 4.0566759 1180682
-3.8047364 0.52335334 4.0566759 852744
-3.4225991 0.47577575 3.687887 852746
-3.3863468 0.47577575 3.687887 1049355
-3.3500948 0.47577575 3.687887 917769
-3.3138428 0.47577575 3.687887 852489
-3.2775905 0.47577575 3.687887 1246732
-3.2413385 0.47577575 3.687887 1115915
-3.5255952 0.52335334 4.0566759 1378059
-3.485718 0.52335334 4.0566759 1312523
-3.4458406 0.52335334 4.0566759 1312524
-3.4059634 0.52335334 4.0566759 1115915
-3.366086 0.52335334 4.0566759 1378317
-3.3262088 0.52335334 4.0566759 984072
-3.6514795 0.58150375 4.5074177 984330
-3.6071713 0.58150375 4.5074177 1247244
-3.5628631 0.58150375 4.5074177 1115915
-3.5185549 0.58150375 4.5074177 1772045
-3.474247 0.58150375 4.5074177 1772817
-3.4299388 0.58150375 4.5074177 1641231
-3.3856306 0.58150375 4.5074177 984329
-3.7589877 0.65419167 5.0708447 1246731
-3.709141 0.65419167 5.0708447 1049353
-3.6592944 0.65419167 5.0708447 786696
-3.6094477 0.65419167 5.0708447 720905
-3.1640902 0.58150375 4.5074177 918282
-3.119782 0.58150375 4.5074177 1641488
-3.0754738 0.58150375 4.5074177 1509645
-2.7280493 0.52335334 4.0566759 1444109
-2.2401431 0.43612778 3.380563 1444110
-2.0371497 0.40257949 3.1205199 1181196
-1.7389446 0.3489022 2.7044504 1246731
-1.5109057 0.30785489 2.3862798 1180939
-1.4874486 0.30785489 2.3862798 1509392
0 0 0 4862517
0 0 0 5188648
0 0 0 4728868
-0.30768225 0.067967966 0.52684098 4859424
-0.29862514 0.067096584 0.52008665 4991011
-0.29351267 0.067096584 0.52008665 4727584
-0.28840017 0.067096584 0.52008665 4596255
-0.2832877 0.067096584 0.52008665 4859167
-0.27817523 0.067096584 0.52008665 4465180
-0.28024861 0.068862282 0.53377312 4464667
-0.27866828 0.069780447 0.5408901 4464154
-0.2808404 0.071692236 0.555709 4661017
0 0 0 4529430
0 0 0 4661016
0 0 0 4529688
-0.26258689 0.072687969 0.56342721 2689545
-0.26822439 0.075848304 0.587924 1115661
0 0 0 1049868
0 0 0 787209
0 0 0 919054
-0.33824784 0.10467067 0.81133515 1839384
-0.30024758 0.09515515 0.73757738 1312524
-0.28776509 0.093455948 0.72440636 853004
-0.27096674 0.090233333 0.69942683 787468
-0.2552883 0.087225549 0.67611259 918282
-0.24062139 0.08441183 0.65430254 1115661
-0.23047227 0.083071962 0.64391679 983562
-0.22064032 0.081773959 0.63385558 786696
-0.21440949 0.081773959 0.63385558 589831
-0.2049759 0.080515899 0.62410396 589832
-0.19582818 0.079295956 0.61464781 918282
-0.18978617 0.079295956 0.61464781 786696
-0.18100171 0.078112438 0.605474 786696
-0.17504987 0.078112438 0.605474 721673
-0.1666113 0.076963723 0.59656996 786696
-0.16074699 0.076963723 0.59656996 851975
-0.15488268 0.076963723 0.59656996 590089
-0.14901838 0.076963723 0.59656996 589832
-0.14107937 0.075848304 0.587924 589832
-0.13728975 0.076963723 0.59656996 655369
-0.13142544 0.076963723 0.59656996 590089
0 0 0 721159
-0.1356564 0.087225549 0.67611259 590345
-0.12901019 0.087225549 0.67611259 590602
-0.12236396 0.087225549 0.67611259 524296
-0.11198492 0.08441183 0.65430254 590087
-0.1055531 0.08441183 0.65430254 720905
-0.099121273 0.08441183 0.65430254 655880
-0.094208948 0.085795626 0.66502881 917766
-0.093824089 0.091816381 0.71169752 786696
-0.086828068 0.091816381 0.71169752 590087
-0.079832047 0.091816381 0.71169752 852491
-0.076882474 0.096917287 0.75123626 590087
-0.070809066 0.098745905 0.76541048 721675
-0.063285045 0.098745905 0.76541048 984074
-0.057947736 0.1026183 0.79542661 1246730
-0.052174725 0.10680681 0.82789302 1115142
-0.0440365 0.10680681 0.82789302 1049353
-0.035898276 0.10680681 0.82789302 1378060
-0.027204847 0.10467067 0.81133515 918022
-0.019229386 0.10467067 0.81133515 1049098
-0.011483598 0.10680681 0.82789302 1114888
-0.0034877283 0.11135177 0.86312246 984075
0.0049968041 0.11135177 0.86312246 1180681
0.013481337 0.11135177 0.86312246 5647391
0.022443388 0.11377246 0.88188601 5319198
0 0 0 4662041
0 0 0 5384737
0 0 0 5319196
0 0 0 5055002
0 0 0 2296329
0 0 0 1508875
0 0 0 1377289
0 0 0 1378057
0.33009666 0.37382379 2.8976254 1902600
0.35858044 0.37382379 2.8976254 2231563
0.38706425 0.37382379 2.8976254 3084562
0.48480603 0.43612778 3.380563 3676180
0.62164456 0.52335334 4.0566759 5911852
0.73502433 0.58150375 4.5074177 9127990
0.77933246 0.58150375 4.5074177 11619886
0.92659557 0.65419167 5.0708447 12275503
0.86794865 0.58150375 4.5074177 12667694
0.91225678 0.58150375 4.5074177 12930353
0.9565649 0.58150375 4.5074177 13062194
0.7506547 0.43612778 3.380563 12997682
0.72358692 0.40257949 3.1205199 13193264
0.70038593 0.37382379 2.8976254 13259569
0.72886968 0.37382379 2.8976254 13259312
0.66268432 0.32709584 2.5354223 12801331
0.61120683 0.29075187 2.2537088 12538933
0.57002479 0.26167667 2.028338 11423798
0.56186992 0.24921587 1.9317503 11161658
0.58085907 0.24921587 1.9317503 9849913
0.48449287 0.20128974 1.5602599 9391421
0.48131806 0.19383457 1.5024725 8078392
0.44647866 0.1744511 1.3522252 7094582
0.47562528 0.18046667 1.3988537 5846320
0.54584259 0.20128974 1.5602599 4927532
0.56118 0.20128974 1.5602599 4401449
0.59957808 0.20934133 1.6226703 3547171
0.615529 0.20934133 1.6226703 3284253
0.65779161 0.21806389 1.6902815 2955034
0.70372921 0.22754492 1.763772 2101267
0.75384295 0.23788787 1.8439435 2297878
0.84916592 0.26167667 2.028338 2298387
0.86910456 0.26167667 2.028338 1442569
0.88904321 0.26167667 2.028338 2232082
0.69921684 0.20128974 1.5602599 1969424
0.71455425 0.20128974 1.5602599 1312266
0.72989166 0.20128974 1.5602599 983561
0.77503824 0.20934133 1.6226703 917768
0.76056653 0.20128974 1.5602599 3612447
0.74716675 0.19383457 1.5024725 4596506
0.76193613 0.19383457 1.5024725 4727323
0.7767055 0.19383457 1.5024725 4727580
0.82191622 0.20128974 1.5602599 4859165
0.98948157 0.23788787 1.8439435 4662301
1.0076076 0.23788787 1.8439435 4662556
1.074578 0.24921587 1.9317503 4662043
1.2086797 0.27544913 2.1350925 4268573
1.2296677 0.27544913 2.1350925 3151895
1.2506558 0.27544913 2.1350925 2165772
1.2080617 0.26167667 2.028338 2427920
1.2280003 0.26167667 2.028338 4727839
1.31362 0.27544913 2.1350925 4662559
1.2075025 0.24921587 1.9317503 3677208
1.170742 0.23788787 1.8439435 3545106
1.188868 0.23788787 1.8439435 3676690
1.2069941 0.23788787 1.8439435 3808277
1.2251202 0.23788787 1.8439435 3807510
1.3024484 0.24921587 1.9317503 3215630
1.3875096 0.26167667 2.028338 2624266
1.4074482 0.26167667 2.028338 2033934
1.359416 0.24921587 1.9317503 2166803
1.3784052 0.24921587 1.9317503 3414295
1.3973943 0.24921587 1.9317503 3414038
1.4163835 0.24921587 1.9317503 3282710
1.4353727 0.24921587 1.9317503 3349017
1.4543619 0.24921587 1.9317503 3282709
1.4733511 0.24921587 1.9317503 3283222
1.4923403 0.24921587 1.9317503 3282966
1.5113295 0.24921587 1.9317503 3546135
1.4607588 0.23788787 1.8439435 4400415
1.4788848 0.23788787 1.8439435 4597024
1.4970108 0.23788787 1.8439435 4399902
1.515137 0.23788787 1.8439435 4793631
1.4665993 0.22754492 1.763772 4663074
1.4839373 0.22754492 1.763772 4466209
1.5012753 0.22754492 1.763772 3809050
1.5186132 0.22754492 1.763772 3414038
1.5359511 0.22754492 1.763772 3414808
1.5532892 0.22754492 1.763772 3480089
1.5706271 0.22754492 1.763772 3611418
1.587965 0.22754492 1.763772 3677724
1.605303 0.22754492 1.763772 3480602
1.622641 0.22754492 1.763772 3480089
1.6399789 0.22754492 1.763772 3414810
1.7326494 0.23788787 1.8439435 3414810
1.8341458 0.24921587 1.9317503 3349274
1.7689016 0.23788787 1.8439435 3218458
1.8721242 0.24921587 1.9317503 3349275
2.2062991 0.29075187 2.2537088 3283223
2.2284532 0.29075187 2.2537088 3283480
1.8414057 0.23788787 1.8439435 3349274
1.8595318 0.23788787 1.8439435 3217946
1.8776579 0.23788787 1.8439435 3021082
1.8957839 0.23788787 1.8439435 3152411
1.9139099 0.23788787 1.8439435 3218462
1.932036 0.23788787 1.8439435 3283997
1.8653724 0.22754492 1.763772 4269859
1.8827103 0.22754492 1.763772 4598566
1.9000483 0.22754492 1.763772 3743517
1.8374952 0.21806389 1.6902815 2955028
1.8541107 0.21806389 1.6902815 2954771
1.8707262 0.21806389 1.6902815 3415063
1.8873417 0.21806389 1.6902815 5387822
1.9039574 0.21806389 1.6902815 6307377
1.9205729 0.21806389 1.6902815 6570805
2.021414 0.22754492 1.763772 6898741
2.1314225 0.23788787 1.8439435 6964278
2.2519081 0.24921587 1.9317503 7029815
2.2708972 0.24921587 1.9317503 6570035
2.2898865 0.24921587 1.9317503 6175275
2.3088756 0.24921587 1.9317503 6636337
2.4442582 0.26167667 2.028338 6899252
2.899055 0.30785489 2.3862798 7293496
