# .PCD v0.7 - Point Cloud Data file format
VERSION 0.7
FIELDS x y z rgb
SIZE 4 4 4 4
TYPE F F F U
COUNT 1 1 1 1
WIDTH 1258
HEIGHT 1
VIEWPOINT 0 0 0 1 0 0 0
POINTS 1258
DATA ascii
0 0 0 8410683
-3.0709202 -2.0562036 3.380563 8214074
-3.0376892 -2.0562036 3.380563 8410171
-2.7733459 -1.8980343 3.1205199 8279610
-2.7426713 -1.8980343 3.1205199 8475962
0 0 0 8278583
0 0 0 8410170
0 0 0 8475963
0 0 0 8475709
0 0 0 8606780
0 0 0 8541241
0 0 0 8344890
-3.6071713 -2.741605 4.5074177 8607293
-3.5628631 -2.741605 4.5074177 8542017
-3.5185549 -2.741605 4.5074177 8607550
0 0 0 8607034
0 0 0 8738619
0 0 0 8870207
-3.3413227 -2.741605 4.5074177 8804412
0 0 0 8804157
0 0 0 8804414
0 0 0 8869948
-2.1905239 -1.8980343 3.1205199 8934972
0 0 0 8607292
0 0 0 8673085
0 0 0 8870205
-2.0678244 -1.8980343 3.1205199 8870206
-3.3103681 -3.0843055 5.0708447 8935998
-1.7389446 -1.6449629 2.7044504 9001791
-2.1404498 -2.0562036 3.380563 9132349
-2.1072187 -2.0562036 3.380563 8934972
0 0 0 8869950
0 0 0 8738881
-2.0075254 -2.0562036 3.380563 8804670
-1.9742943 -2.0562036 3.380563 8870207
-1.7917508 -1.8980343 3.1205199 8804928
-1.9078321 -2.0562036 3.380563 9067071
-1.8746011 -2.0562036 3.380563 9002047
-2.4551601 -2.741605 4.5074177 9067071
-2.4108522 -2.741605 4.5074177 9001789
-1.6383766 -1.8980343 3.1205199 9263678
-1.6077017 -1.8980343 3.1205199 9132607
-1.5770268 -1.8980343 3.1205199 9001791
-1.546352 -1.8980343 3.1205199 9067584
-1.5156772 -1.8980343 3.1205199 9394496
-1.4850023 -1.8980343 3.1205199 9067071
-1.4543275 -1.8980343 3.1205199 9067069
-1.4236526 -1.8980343 3.1205199 9133377
-1.3929777 -1.8980343 3.1205199 9199170
-1.3623029 -1.8980343 3.1205199 9460287
-1.3316281 -1.8980343 3.1205199 9132606
-1.3009531 -1.8980343 3.1205199 9198655
-1.1795441 -1.7624604 2.8976254 9198655
-1.2396035 -1.8980343 3.1205199 9067325
-1.1225766 -1.7624604 2.8976254 9198398
-1.1782538 -1.8980343 3.1205199 9263932
-1.147579 -1.8980343 3.1205199 9263165
0 0 0 9264448
0 0 0 9132094
0 0 0 9198143
-1.4803816 -2.741605 4.5074177 9132864
-1.077055 -2.0562036 3.380563 9001789
-0.96352983 -1.8980343 3.1205199 9067072
-0.93285501 -1.8980343 3.1205199 9198657
-0.90218014 -1.8980343 3.1205199 9197885
-0.87150532 -1.8980343 3.1205199 9263680
-0.84083045 -1.8980343 3.1205199 9198655
-0.81015557 -1.8980343 3.1205199 9197887
-0.77948076 -1.8980343 3.1205199 9199168
-0.74880588 -1.8980343 3.1205199 9329725
-0.71813107 -1.8980343 3.1205199 9329725
-0.68745619 -1.8980343 3.1205199 9264192
-0.7115131 -2.0562036 3.380563 9395264
-0.6261065 -1.8980343 3.1205199 9067071
-0.59543163 -1.8980343 3.1205199 9067326
-0.56475681 -1.8980343 3.1205199 9198142
-0.53408194 -1.8980343 3.1205199 9263679
-0.50340706 -1.8980343 3.1205199 9133375
-0.47273225 -1.8980343 3.1205199 9198655
-0.4420574 -1.8980343 3.1205199 9395264
-0.3565315 -1.6449629 2.7044504 9395516
-0.32994664 -1.6449629 2.7044504 9133118
-0.30336177 -1.6449629 2.7044504 9198652
-0.31935799 -1.8980343 3.1205199 9264448
-0.28868315 -1.8980343 3.1205199 9723200
-0.37267864 -2.741605 4.5074177 9329985
-0.32837051 -2.741605 4.5074177 9461312
-0.28406242 -2.741605 4.5074177 9460800
-0.26972356 -3.0843055 5.0708447 9329982
0 0 0 9460800
0 0 0 9592645
0 0 0 9526850
0 0 0 9329984
0 0 0 9723459
0.026094424 -2.741605 4.5074177 9330239
0.07040254 -2.741605 4.5074177 9395775
0.1032396 -2.4674447 4.0566759 9526848
0.13010627 -2.2431314 3.687887 9395264
0.15249516 -2.0562036 3.380563 9592643
0.18572626 -2.0562036 3.380563 9723970
0.21895733 -2.0562036 3.380563 9461571
0.25218841 -2.0562036 3.380563 9592643
0.28541949 -2.0562036 3.380563 9855556
0.3186506 -2.0562036 3.380563 9790276
0.38387093 -2.2431314 3.687887 9790533
0.38511276 -2.0562036 3.380563 9790020
0.41834384 -2.0562036 3.380563 9856069
0.45157495 -2.0562036 3.380563 9921090
0.52887928 -2.2431314 3.687887 9790276
0.62164456 -2.4674447 4.0566759 9724483
0.73502433 -2.741605 4.5074177 9724483
0.77933246 -2.741605 4.5074177 9921862
0 0 0 10052930
0 0 0 9986885
0 0 0 10446151
0 0 0 10250055
0 0 0 10250311
0 0 0 10512712
1.9610807 -4.9348893 8.1133518 10513481
1.1337974 -2.741605 4.5074177 10578248
1.1781055 -2.741605 4.5074177 10578761
1.2224137 -2.741605 4.5074177 10579274
1.2667217 -2.741605 4.5074177 10316361
1.3110299 -2.741605 4.5074177 10381899
1.355338 -2.741605 4.5074177 10447689
1.399646 -2.741605 4.5074177 10446921
1.4439542 -2.741605 4.5074177 10446921
1.4882623 -2.741605 4.5074177 10381640
1.5325705 -2.741605 4.5074177 10185031
1.5768785 -2.741605 4.5074177 10118469
1.6211867 -2.741605 4.5074177 10315849
1.6654948 -2.741605 4.5074177 10315336
1.7098029 -2.741605 4.5074177 10381128
1.7541111 -2.741605 4.5074177 10314565
1.7984191 -2.741605 4.5074177 10250570
1.8427273 -2.741605 4.5074177 10381900
1.8870354 -2.741605 4.5074177 10250055
1.9313436 -2.741605 4.5074177 10185033
1.9756516 -2.741605 4.5074177 10250055
1.8179637 -2.4674447 4.0566759 10315337
2.0642679 -2.741605 4.5074177 9987656
2.1085761 -2.741605 4.5074177 9987655
2.152884 -2.741605 4.5074177 9855813
2.1971922 -2.741605 4.5074177 9856069
2.2415004 -2.741605 4.5074177 9658693
2.2858086 -2.741605 4.5074177 9724229
2.3301165 -2.741605 4.5074177 9790276
2.3744247 -2.741605 4.5074177 9592643
2.4187329 -2.741605 4.5074177 9592387
2.2167368 -2.4674447 4.0566759 9462342
2.0514672 -2.2431314 3.687887 9395266
1.9137428 -2.0562036 3.380563 9198914
1.7972068 -1.8980343 3.1205199 9264709
1.8278816 -1.8980343 3.1205199 9263680
2.1964757 -2.2431314 3.687887 8870207
2.7288897 -2.741605 4.5074177 9001793
2.7731977 -2.741605 4.5074177 9001793
2.8175058 -2.741605 4.5074177 9133121
2.861814 -2.741605 4.5074177 9133125
2.9061222 -2.741605 4.5074177 9264711
2.9504302 -2.741605 4.5074177 9264708
2.9947383 -2.741605 4.5074177 9657668
3.0390465 -2.741605 4.5074177 9592647
3.0833545 -2.741605 4.5074177 9724233
3.1276627 -2.741605 4.5074177 9789766
3.1719708 -2.741605 4.5074177 9790277
3.216279 -2.741605 4.5074177 9462342
3.260587 -2.741605 4.5074177 9396034
3.3048952 -2.741605 4.5074177 9462340
3.3492033 -2.741605 4.5074177 9658436
3.3935113 -2.741605 4.5074177 9790023
3.0940375 -2.4674447 4.0566759 9659208
3.1339149 -2.4674447 4.0566759 9724229
3.5264359 -2.741605 4.5074177 9855299
3.5707438 -2.741605 4.5074177 9659206
3.615052 -2.741605 4.5074177 9724229
2.7445199 -2.0562036 3.380563 9724483
2.5640779 -1.8980343 3.1205199 9659464
2.5947528 -1.8980343 3.1205199 9724487
2.8442132 -2.0562036 3.380563 9659207
3.8365927 -2.741605 4.5074177 9723715
3.8809006 -2.741605 4.5074177 9527621
3.5326879 -2.4674447 4.0566759 9659208
3.969517 -2.741605 4.5074177 9593414
4.0138249 -2.741605 4.5074177 9265219
4.0581331 -2.741605 4.5074177 9462344
4.1024413 -2.741605 4.5074177 9462344
4.6650929 -3.0843055 5.0708447 9330243
4.1910577 -2.741605 4.5074177 9461573
4.7647862 -3.0843055 5.0708447 9264965
4.8146329 -3.0843055 5.0708447 9133891
4.8644795 -3.0843055 5.0708447 9264707
4.3682899 -2.741605 4.5074177 9264966
4.4125981 -2.741605 4.5074177 9461831
4.4569063 -2.741605 4.5074177 9067586
4.5012145 -2.741605 4.5074177 9198405
4.5455227 -2.741605 4.5074177 9068100
5.163559 -3.0843055 5.0708447 8871234
4.6341386 -2.741605 4.5074177 9067586
3.0075727 -1.7624604 2.8976254 8870723
3.0360565 -1.7624604 2.8976254 9329475
2.8602376 -1.6449629 2.7044504 9265477
2.8868225 -1.6449629 2.7044504 9725001
3.1215079 -1.7624604 2.8976254 10118987
3.3922989 -1.8980343 3.1205199 10512716
4.9442954 -2.741605 4.5074177 10973523
4.9886036 -2.741605 4.5074177 11170131
5.0329118 -2.741605 4.5074177 11236437
5.07722 -2.741605 4.5074177 11302484
5.7617188 -3.0843055 5.0708447 11761749
5.8115654 -3.0843055 5.0708447 12155736
5.210144 -2.741605 4.5074177 12221787
5.2544522 -2.741605 4.5074177 12089429
5.2987604 -2.741605 4.5074177 12222299
5.3430686 -2.741605 4.5074177 12353628
6.0607986 -3.0843055 5.0708447 12353628
6.1106453 -3.0843055 5.0708447 12353884
6.1604919 -3.0843055 5.0708447 12484959
8.2804508 -4.1124072 6.761126 12221787
12.52037 -6.168611 10.141689 12352603
0 0 0 12222300
0 0 0 12090971
0 0 0 12090971
0 0 0 11959386
0 0 0 11959644
0 0 0 11959642
0 0 0 8278843
0 0 0 8409915
0 0 0 8475195
0 0 0 8606781
-15.872638 -8.0918903 13.522252 8344123
-3.3727958 -1.7339765 2.8976254 8344636
-3.1213579 -1.618378 2.7044504 8410170
-3.3158283 -1.7339765 2.8976254 8410170
-3.5402174 -1.8673594 3.1205199 8409655
-7.6040082 -4.0459452 6.761126 8410682
-3.4788675 -1.8673594 3.1205199 8409654
-2.9884336 -1.618378 2.7044504 8541242
-2.9618487 -1.618378 2.7044504 8540985
-2.7518098 -1.5172296 2.5354223 8607547
0 0 0 8607035
-2.7019632 -1.5172296 2.5354223 8409916
-2.6770399 -1.5172296 2.5354223 8410426
-2.6521165 -1.5172296 2.5354223 8475963
-2.6271932 -1.5172296 2.5354223 8410429
-2.7757545 -1.618378 2.7044504 8475708
-2.7491696 -1.618378 2.7044504 8278843
-5.104847 -3.0344591 5.0708447 8410683
0 0 0 8475963
-5.0051537 -3.0344591 5.0708447 8541755
-4.955307 -3.0344591 5.0708447 8410429
-4.9054604 -3.0344591 5.0708447 8475709
-3.5313554 -2.2068791 3.687887 8409916
-3.2038445 -2.0229726 3.380563 8410172
-3.4588511 -2.2068791 3.687887 8344890
-3.7648592 -2.4275672 4.0566759 8541243
-7.4499636 -4.8551345 8.1133518 8344377
-3.0709202 -2.0229726 3.380563 8344888
-2.8040209 -1.8673594 3.1205199 8541242
-2.7733459 -1.8673594 3.1205199 8607035
-2.7426713 -1.8673594 3.1205199 8541242
-2.7119963 -1.8673594 3.1205199 8607035
-2.9047649 -2.0229726 3.380563 8410426
-3.1325822 -2.2068791 3.687887 8475963
-3.0963302 -2.2068791 3.687887 8607035
-3.0600781 -2.2068791 3.687887 8541756
-3.6957874 -2.6972971 4.5074177 8475963
-2.5279472 -1.8673594 3.1205199 8541756
-2.3188956 -1.7339765 2.8976254 8607549
-2.0041103 -1.5172296 2.5354223 8541756
-2.4359226 -1.8673594 3.1205199 8869694
-2.605685 -2.0229726 3.380563 8738877
-2.8063133 -2.2068791 3.687887 8607549
-2.7700613 -2.2068791 3.687887 8607549
-2.7338092 -2.2068791 3.687887 8476221
-2.4727607 -2.0229726 3.380563 8542267
-2.4395297 -2.0229726 3.380563 8541755
-2.4062984 -2.0229726 3.380563 8804671
-2.1905239 -1.8673594 3.1205199 8870205
-2.1598489 -1.8673594 3.1205199 8869694
-2.1291742 -1.8673594 3.1205199 8738878
-1.9486064 -1.7339765 2.8976254 8607808
-1.9201226 -1.7339765 2.8976254 8673340
-1.7655295 -1.618378 2.7044504 8738365
-1.7389446 -1.618378 2.7044504 8804410
-1.7123598 -1.618378 2.7044504 8935226
-1.9451251 -1.8673594 3.1205199 9001534
-1.9144502 -1.8673594 3.1205199 9002046
-1.8837754 -1.8673594 3.1205199 9001791
-1.8531005 -1.8673594 3.1205199 8935483
-1.8224256 -1.8673594 3.1205199 9001533
-1.7917508 -1.8673594 3.1205199 9001789
-1.9078321 -2.0229726 3.380563 9067072
-1.8746011 -2.0229726 3.380563 9067069
-1.84137 -2.0229726 3.380563 9001790
-1.808139 -2.0229726 3.380563 8870206
-1.6383766 -1.8673594 3.1205199 9067070
-1.6077017 -1.8673594 3.1205199 9067069
-1.5770268 -1.8673594 3.1205199 9067069
-1.546352 -1.8673594 3.1205199 9001789
-1.4074144 -1.7339765 2.8976254 9198142
-1.3789307 -1.7339765 2.8976254 9132862
-1.4543275 -1.8673594 3.1205199 9198655
-1.4236526 -1.8673594 3.1205199 9264448
-1.2934793 -1.7339765 2.8976254 9198399
-1.2649955 -1.7339765 2.8976254 9328958
-1.2365117 -1.7339765 2.8976254 9198655
-1.208028 -1.7339765 2.8976254 9329471
-1.1009078 -1.618378 2.7044504 9198143
-1.1510603 -1.7339765 2.8976254 9263676
-0.98225451 -1.5172296 2.5354223 9001276
-1.0211532 -1.618378 2.7044504 9001276
-0.99456835 -1.618378 2.7044504 9067071
-1.1169041 -1.8673594 3.1205199 9198654
-1.0862292 -1.8673594 3.1205199 9067584
-1.0555544 -1.8673594 3.1205199 9067071
-1.0248796 -1.8673594 3.1205199 8935996
-0.9942047 -1.8673594 3.1205199 9264448
-0.96352983 -1.8673594 3.1205199 9263933
-0.93285501 -1.8673594 3.1205199 9263937
-0.90218014 -1.8673594 3.1205199 9329471
-0.87150532 -1.8673594 3.1205199 9197887
-0.84083045 -1.8673594 3.1205199 9132862
-0.81015557 -1.8673594 3.1205199 9263678
-0.77948076 -1.8673594 3.1205199 9460798
-0.74880588 -1.8673594 3.1205199 9395007
-0.71813107 -1.8673594 3.1205199 9329982
-0.68745619 -1.8673594 3.1205199 9133116
-0.65678132 -1.8673594 3.1205199 9263678
-0.50871152 -1.5172296 2.5354223 9264450
-0.59543163 -1.8673594 3.1205199 9395264
-0.43187281 -1.4279807 2.3862798 9132862
-0.40841559 -1.4279807 2.3862798 9329982
-0.38495836 -1.4279807 2.3862798 9264703
-0.47273225 -1.8673594 3.1205199 9329470
-0.38311636 -1.618378 2.7044504 9395776
-0.3565315 -1.618378 2.7044504 9264190
-0.32994664 -1.618378 2.7044504 9264191
-0.30336177 -1.618378 2.7044504 9264449
-0.27677691 -1.618378 2.7044504 9264448
-0.26806289 -1.7339765 2.8976254 9460541
-0.25800827 -1.8673594 3.1205199 9395518
-0.22733343 -1.8673594 3.1205199 9461311
-0.19665858 -1.8673594 3.1205199 9527104
-0.16598374 -1.8673594 3.1205199 9527104
-0.14658462 -2.0229726 3.380563 9592127
0 0 0 9330495
0 0 0 9395518
-0.062521815 -2.6972971 4.5074177 9526334
-0.016392324 -2.4275672 4.0566759 9199168
0.023484983 -2.4275672 4.0566759 9592897
0.063362285 -2.4275672 4.0566759 9462082
0.1032396 -2.4275672 4.0566759 9461055
0.11926407 -2.0229726 3.380563 9657407
0.15249516 -2.0229726 3.380563 9395518
0.18572626 -2.0229726 3.380563 9658690
0.21895733 -2.0229726 3.380563 9526850
0.25218841 -2.0229726 3.380563 9789506
0.28541949 -2.0229726 3.380563 9790019
0.3186506 -2.0229726 3.380563 9658689
0.35188168 -2.0229726 3.380563 9921092
0.38511276 -2.0229726 3.380563 9593667
0.41834384 -2.0229726 3.380563 9725253
0.45157495 -2.0229726 3.380563 9921090
0.48480603 -2.0229726 3.380563 9790274
0.51803714 -2.0229726 3.380563 9790018
0.55126822 -2.0229726 3.380563 9921348
0.5844993 -2.0229726 3.380563 9790279
0.61773038 -2.0229726 3.380563 9921605
0.65096146 -2.0229726 3.380563 9986885
0.68419254 -2.0229726 3.380563 10184264
0.66223723 -1.8673594 3.1205199 10250057
1.8015715 -4.8551345 8.1133518 10250055
0.72358692 -1.8673594 3.1205199 10447175
0.89140022 -2.2068791 3.687887 10316618
0.92765236 -2.2068791 3.687887 10578505
1.060295 -2.4275672 4.0566759 10579275
1.1001723 -2.4275672 4.0566759 10645069
1.1400496 -2.4275672 4.0566759 10643784
1.1799269 -2.4275672 4.0566759 10447175
1.2198042 -2.4275672 4.0566759 10316102
1.2596815 -2.4275672 4.0566759 10249542
1.4439542 -2.6972971 4.5074177 10315335
1.3394361 -2.4275672 4.0566759 10315591
1.5325705 -2.6972971 4.5074177 10381129
1.5768785 -2.6972971 4.5074177 10250057
1.4590681 -2.4275672 4.0566759 10053446
1.4989454 -2.4275672 4.0566759 10249286
1.1837097 -1.8673594 3.1205199 10118470
1.5786999 -2.4275672 4.0566759 10511944
1.6185772 -2.4275672 4.0566759 10381896
1.6584545 -2.4275672 4.0566759 10315592
1.8870354 -2.6972971 4.5074177 10315848
1.7382091 -2.4275672 4.0566759 10119241
1.7780864 -2.4275672 4.0566759 10315848
1.3984337 -1.8673594 3.1205199 10185034
1.4291085 -1.8673594 3.1205199 10118471
1.8977184 -2.4275672 4.0566759 9921862
1.9375957 -2.4275672 4.0566759 10052935
1.977473 -2.4275672 4.0566759 9986116
2.0173502 -2.4275672 4.0566759 9528133
1.7143562 -2.0229726 3.380563 9790019
2.097105 -2.4275672 4.0566759 9527874
2.1369822 -2.4275672 4.0566759 9527363
2.1768596 -2.4275672 4.0566759 9527620
2.0152152 -2.2068791 3.687887 9330243
1.8805116 -2.0229726 3.380563 9001535
1.9137428 -2.0229726 3.380563 9133121
1.7972068 -1.8673594 3.1205199 9198659
1.8278816 -1.8673594 3.1205199 8870207
2.0134361 -2.0229726 3.380563 9067586
2.2327278 -2.2068791 3.687887 9198659
2.2689798 -2.2068791 3.687887 9330243
2.1131291 -2.0229726 3.380563 9593157
2.1463604 -2.0229726 3.380563 9593157
2.61551 -2.4275672 4.0566759 9921094
2.9504302 -2.6972971 4.5074177 9593415
2.9947383 -2.6972971 4.5074177 9920582
2.7351418 -2.4275672 4.0566759 9658950
2.7750192 -2.4275672 4.0566759 9855299
2.8148963 -2.4275672 4.0566759 9855815
2.8547738 -2.4275672 4.0566759 9986376
2.8946509 -2.4275672 4.0566759 9791048
2.9345284 -2.4275672 4.0566759 9725255
2.9744058 -2.4275672 4.0566759 9856585
3.0142829 -2.4275672 4.0566759 9921864
3.0541604 -2.4275672 4.0566759 9856329
3.0940375 -2.4275672 4.0566759 9921608
3.1339149 -2.4275672 4.0566759 9856069
3.1737921 -2.4275672 4.0566759 9856069
3.2136695 -2.4275672 4.0566759 9724228
2.5027282 -1.8673594 3.1205199 9921862
2.5334032 -1.8673594 3.1205199 9724486
2.0833132 -1.5172296 2.5354223 9724486
1.9842227 -1.4279807 2.3862798 9790279
2.6254277 -1.8673594 3.1205199 9855815
2.8774443 -2.0229726 3.380563 9790021
3.4928107 -2.4275672 4.0566759 9790022
3.5326879 -2.4275672 4.0566759 9658951
3.5725653 -2.4275672 4.0566759 9659207
4.0138249 -2.6972971 4.5074177 9462088
4.0581331 -2.6972971 4.5074177 9527624
4.1024413 -2.6972971 4.5074177 9330245
4.1467495 -2.6972971 4.5074177 9396038
3.1432929 -2.0229726 3.380563 9462342
3.8118291 -2.4275672 4.0566759 9396549
3.2097552 -2.0229726 3.380563 9462085
3.2429862 -2.0229726 3.380563 9461830
3.2762172 -2.0229726 3.380563 9199172
3.0548756 -1.8673594 3.1205199 9396038
3.0855503 -1.8673594 3.1205199 9265224
3.3759105 -2.0229726 3.380563 9067332
4.5455227 -2.6972971 4.5074177 9264452
4.5898304 -2.6972971 4.5074177 9396038
2.979089 -1.7339765 2.8976254 9264452
2.8070679 -1.618378 2.7044504 9264452
2.6565495 -1.5172296 2.5354223 9198659
2.6814728 -1.5172296 2.5354223 9330756
2.7063961 -1.5172296 2.5354223 9725514
2.9134073 -1.618378 2.7044504 10119499
2.9399922 -1.618378 2.7044504 10579278
3.4229739 -1.8673594 3.1205199 10908497
3.4536486 -1.8673594 3.1205199 11498836
5.0329118 -2.6972971 4.5074177 11301714
5.07722 -2.6972971 4.5074177 11630935
5.1215281 -2.6972971 4.5074177 11566167
5.1658363 -2.6972971 4.5074177 11893851
5.210144 -2.6972971 4.5074177 12090201
5.2544522 -2.6972971 4.5074177 12155995
5.2987604 -2.6972971 4.5074177 12222557
5.3430686 -2.6972971 4.5074177 12222809
5.3873768 -2.6972971 4.5074177 12418908
5.431685 -2.6972971 4.5074177 12352603
4.1069946 -2.0229726 3.380563 12418396
3.8217468 -1.8673594 3.1205199 12549982
5.5646091 -2.6972971 4.5074177 12484445
0 0 0 12484959
0 0 0 12353373
0 0 0 11959644
0 0 0 11762780
0 0 0 11828059
0 0 0 11696472
0 0 0 8278586
0 0 0 8409916
-9.6830931 -4.7753801 8.1133518 8344122
-12.004172 -5.9692249 10.141689 8344636
-9.5235834 -4.7753801 8.1133518 8344123
-15.739714 -7.9589663 13.522252 8409918
-3.1213579 -1.5917932 2.7044504 8278587
-3.3158283 -1.7054927 2.8976254 8344377
-3.5402174 -1.8366846 3.1205199 8343861
0 0 0 8344633
-7.5375462 -3.9794831 6.761126 8278329
-3.7355418 -1.9897416 3.380563 8409916
-3.7023108 -1.9897416 3.380563 8410171
-8.8057919 -4.7753801 8.1133518 8410170
-8.726037 -4.7753801 8.1133518 8476221
-2.7019632 -1.4923062 2.5354223 8278843
-2.6770399 -1.4923062 2.5354223 8344123
-2.6521165 -1.4923062 2.5354223 8607035
-2.6271932 -1.4923062 2.5354223 8475706
-3.2027938 -1.8366846 3.1205199 8475706
-4.5819497 -2.6529889 4.5074177 8672829
0 0 0 8279099
0 0 0 8541499
-8.0082455 -4.7753801 8.1133518 8344890
-5.6632075 -3.4109855 5.7952509 8541756
-4.9054604 -2.9846125 5.0708447 8344636
-4.8556137 -2.9846125 5.0708447 8344123
-3.8446138 -2.3876901 4.0566759 8475709
-3.8047364 -2.3876901 4.0566759 8607292
-3.7648592 -2.3876901 4.0566759 8541502
-3.7249818 -2.3876901 4.0566759 8410429
-3.3500948 -2.1706271 3.687887 8410426
-3.3138428 -2.1706271 3.687887 8475961
-3.004458 -1.9897416 3.380563 8541756
-2.9712269 -1.9897416 3.380563 8410428
-2.9379959 -1.9897416 3.380563 8476476
-3.1688342 -2.1706271 3.687887 8542269
-3.8287117 -2.6529889 4.5074177 8607035
-3.7844038 -2.6529889 4.5074177 8541241
-3.366086 -2.3876901 4.0566759 8214074
-3.3262088 -2.3876901 4.0566759 8344890
-3.2863314 -2.3876901 4.0566759 8541242
-3.2464542 -2.3876901 4.0566759 8607036
-2.6721473 -1.9897416 3.380563 8738617
-2.638916 -1.9897416 3.380563 8869692
-2.605685 -1.9897416 3.380563 8804412
-2.572454 -1.9897416 3.380563 8738619
-2.5392227 -1.9897416 3.380563 8607033
-2.7338092 -2.1706271 3.687887 8673083
-2.6975572 -2.1706271 3.687887 8607547
-2.661305 -2.1706271 3.687887 8607547
-2.4062984 -1.9897416 3.380563 8738619
-2.1905239 -1.8366846 3.1205199 8738363
-2.1598489 -1.8366846 3.1205199 8804928
-2.1291742 -1.8366846 3.1205199 8607549
-1.9486064 -1.7054927 2.8976254 8869950
-1.9201226 -1.7054927 2.8976254 8935998
-1.8916389 -1.7054927 2.8976254 8804414
-1.863155 -1.7054927 2.8976254 8739391
-1.8346713 -1.7054927 2.8976254 8935999
-1.9451251 -1.8366846 3.1205199 9001535
-1.9144502 -1.8366846 3.1205199 8935485
-1.8837754 -1.8366846 3.1205199 9001280
-1.8531005 -1.8366846 3.1205199 8804412
-1.5794355 -1.5917932 2.7044504 9067070
-1.5528506 -1.5917932 2.7044504 9132862
-1.9078321 -1.9897416 3.380563 9001278
-1.8746011 -1.9897416 3.380563 9066813
-1.84137 -1.9897416 3.380563 9067584
-1.808139 -1.9897416 3.380563 9001791
-1.7749078 -1.9897416 3.380563 9001278
-1.6077017 -1.8366846 3.1205199 9067327
-1.5770268 -1.8366846 3.1205199 8935996
-1.546352 -1.8366846 3.1205199 9001789
-1.4074144 -1.7054927 2.8976254 9198398
-1.3789307 -1.7054927 2.8976254 9066811
-1.3504468 -1.7054927 2.8976254 9132863
-1.3219631 -1.7054927 2.8976254 9132092
-1.2934793 -1.7054927 2.8976254 9067586
-1.2649955 -1.7054927 2.8976254 9133120
-1.1540775 -1.5917932 2.7044504 9264445
-1.208028 -1.7054927 2.8976254 9329725
-1.1795441 -1.7054927 2.8976254 9263935
-1.1510603 -1.7054927 2.8976254 9330243
-0.98225451 -1.4923062 2.5354223 9067585
-1.0940927 -1.7054927 2.8976254 9132861
-0.99456835 -1.5917932 2.7044504 9264450
-1.1169041 -1.8366846 3.1205199 9395264
-1.0862292 -1.8366846 3.1205199 9264193
-1.0555544 -1.8366846 3.1205199 9067069
-1.0248796 -1.8366846 3.1205199 9198655
-0.9942047 -1.8366846 3.1205199 9395263
-0.96352983 -1.8366846 3.1205199 9460541
-0.93285501 -1.8366846 3.1205199 9328701
-0.90218014 -1.8366846 3.1205199 9264448
-0.87150532 -1.8366846 3.1205199 9198142
-1.5615422 -3.4109855 5.7952509 9329471
-0.47872829 -1.0853136 1.8439435 9198655
-1.2666562 -2.9846125 5.0708447 9264702
-0.083200656 -0.20407607 0.34672442 9395265
-1.1669629 -2.9846125 5.0708447 9526079
-0.051958896 -0.13881917 0.23585324 9723713
-1.0672697 -2.9846125 5.0708447 9264450
-0.045471419 -0.1333905 0.22662993 9330243
-0.86006796 -2.6529889 4.5074177 9198912
-0.075689055 -0.24615359 0.41821399 9395264
-0.69430655 -2.3876901 4.0566759 9461570
-0.19247918 -0.70226175 1.1931399 9395518
-0.6145519 -2.3876901 4.0566759 9395264
-0.47889549 -1.9897416 3.380563 9592643
-0.66849661 -2.9846125 5.0708447 9264448
-0.021241201 -0.10247596 0.17410626 9460800
-0.50560302 -2.6529889 4.5074177 9461828
-0.020153658 -0.11590728 0.19692601 9526334
-0.46911007 -2.9846125 5.0708447 9526589
-0.014333793 -0.10203803 0.17336221 9329727
-0.42219064 -3.4109855 5.7952509 9461567
-0.015879264 -0.14830372 0.25196743 9395520
-0.30825549 -3.4109855 5.7952509 9461055
-0.021987693 -0.29846126 0.50708449 9264189
-0.27204847 -4.7753801 8.1133518 9526595
-0.0075114793 -0.18653828 0.31692779 9461313
-0.18756542 -7.9589663 13.522252 9592383
-0.00086275389 -0.12566788 0.21350925 9592896
0.11742491 -11.93845 20.283379 9657666
0.0062119886 -0.23408724 0.3977133 9789249
1.0323958 -23.8769 40.566757 9526848
0.013251564 -0.2210824 0.37561813 9526334
0.15249516 -1.9897416 3.380563 9723970
0.013187664 -0.14128342 0.24003999 9723714
0.21895733 -1.9897416 3.380563 9789251
0.012662181 -0.099903345 0.16973539 9658433
0.31136674 -2.1706271 3.687887 9658947
0.042019859 -0.26238349 0.44578853 9659203
0.30161285 -1.7054927 2.8976254 9855811
0.063306212 -0.32708082 0.555709 9921349
0.29530156 -1.4045235 2.3862798 9921090
0.02315769 -0.10203803 0.17336221 9921092
0.34221601 -1.4045235 2.3862798 9986370
0.038137704 -0.14648405 0.24887581 9724481
0.50886297 -1.8366846 3.1205199 10052933
0.2504997 -0.85274637 1.4488127 9921862
0.7412765 -2.3876901 4.0566759 9921862
0.18598899 -0.5684976 0.96587515 10052676
1.3683851 -3.9794831 6.761126 10250566
0.038779654 -0.10755359 0.18273313 10118982
1.5013094 -3.9794831 6.761126 10118726
0.062710866 -0.15917933 0.27044505 10185286
0.6536935 -1.5917932 2.7044504 10643784
0.30012283 -0.70226175 1.1931399 10512714
0.48195222 -1.0853136 1.8439435 10578248
0.17463051 -0.3789984 0.64391679 10381643
0.40716052 -0.85274637 1.4488127 10513227
0.049785938 -0.10074641 0.17116775 10315591
0.3587659 -0.70226175 1.1931399 10316105
0.40634885 -0.77022254 1.3086051 10053448
0.36098856 -0.66324723 1.1268544 10054218
0.054009516 -0.096277818 0.16357563 10185032
0.65681589 -1.1369952 1.9317503 10447177
0.072040133 -0.12120253 0.20592262 10053704
1.0421914 -1.7054927 2.8976254 10250569
1.0706751 -1.7054927 2.8976254 10052165
1.0991589 -1.7054927 2.8976254 10119241
1.2143846 -1.8366846 3.1205199 9986883
1.2450594 -1.8366846 3.1205199 10119496
1.2757342 -1.8366846 3.1205199 10053448
1.3064091 -1.8366846 3.1205199 10315850
1.3370839 -1.8366846 3.1205199 10315850
1.111304 -1.4923062 2.5354223 10185032
1.1362273 -1.4923062 2.5354223 10381128
1.3270292 -1.7054927 2.8976254 10184262
1.4597833 -1.8366846 3.1205199 9920579
1.4904583 -1.8366846 3.1205199 9921092
1.5211331 -1.8366846 3.1205199 9789250
1.5518079 -1.8366846 3.1205199 9593669
1.5824827 -1.8366846 3.1205199 9591874
1.6131576 -1.8366846 3.1205199 9396036
1.942711 -2.1706271 3.687887 9395264
1.9789631 -2.1706271 3.687887 9264706
2.0152152 -2.1706271 3.687887 9001791
1.8805116 -1.9897416 3.380563 8870464
1.9137428 -1.9897416 3.380563 9132866
1.7972068 -1.8366846 3.1205199 9264964
1.9802049 -1.9897416 3.380563 9265735
2.0134361 -1.9897416 3.380563 9462086
2.0466671 -1.9897416 3.380563 9724229
2.0798981 -1.9897416 3.380563 9724229
2.1131291 -1.9897416 3.380563 9659462
1.9812558 -1.8366846 3.1205199 9725253
2.61551 -2.3876901 4.0566759 9855815
2.9504302 -2.6529889 4.5074177 9921610
2.6952646 -2.3876901 4.0566759 9987143
2.7351418 -2.3876901 4.0566759 10184264
2.7750192 -2.3876901 4.0566759 9856585
2.8148963 -2.3876901 4.0566759 9790534
2.8547738 -2.3876901 4.0566759 9922378
2.8946509 -2.3876901 4.0566759 10053193
2.9345284 -2.3876901 4.0566759 10119241
2.9744058 -2.3876901 4.0566759 10184522
3.0142829 -2.3876901 4.0566759 10053451
3.0541604 -2.3876901 4.0566759 10118987
3.0940375 -2.3876901 4.0566759 9987658
3.1339149 -2.3876901 4.0566759 9921865
2.4413786 -1.8366846 3.1205199 9922631
2.4720535 -1.8366846 3.1205199 9528133
2.3239617 -1.7054927 2.8976254 10052937
2.0583899 -1.4923062 2.5354223 10184266
1.9607655 -1.4045235 2.3862798 9725257
1.9842227 -1.4045235 2.3862798 9987658
2.0076799 -1.4045235 2.3862798 9855815
2.6561024 -1.8366846 3.1205199 9986631
2.9106753 -1.9897416 3.380563 9724487
3.5326879 -2.3876901 4.0566759 9659721
3.5725653 -2.3876901 4.0566759 9725001
3.6124425 -2.3876901 4.0566759 9593930
3.0435996 -1.9897416 3.380563 9724490
2.8401515 -1.8366846 3.1205199 9462343
4.1467495 -2.6529889 4.5074177 9527878
4.1910577 -2.6529889 4.5074177 9593414
2.1176829 -1.3264945 2.2537088 9527109
2.4073164 -1.4923062 2.5354223 9658438
2.4322398 -1.4923062 2.5354223 9462344
2.6209738 -1.5917932 2.7044504 9462344
2.6475587 -1.5917932 2.7044504 9462599
2.8651538 -1.7054927 2.8976254 9133639
2.8936377 -1.7054927 2.8976254 9461831
2.9221213 -1.7054927 2.8976254 9526853
2.9506052 -1.7054927 2.8976254 9658180
2.780483 -1.5917932 2.7044504 9199173
2.6316261 -1.4923062 2.5354223 9133382
2.6565495 -1.4923062 2.5354223 9133125
2.6814728 -1.4923062 2.5354223 9331271
2.7063961 -1.4923062 2.5354223 9856329
2.7313194 -1.4923062 2.5354223 9987654
2.9399922 -1.5917932 2.7044504 10711117
3.1784754 -1.7054927 2.8976254 10907469
3.4536486 -1.8366846 3.1205199 11301712
3.4843235 -1.8366846 3.1205199 11432784
3.5149984 -1.8366846 3.1205199 11695955
4.609375 -2.3876901 4.0566759 11959385
5.1658363 -2.6529889 4.5074177 11828057
5.210144 -2.6529889 4.5074177 12091228
5.2544522 -2.6529889 4.5074177 12156764
5.2987604 -2.6529889 4.5074177 12287578
4.8087616 -2.3876901 4.0566759 12090970
5.3873768 -2.6529889 4.5074177 12288094
3.7603972 -1.8366846 3.1205199 12354143
3.7910719 -1.8366846 3.1205199 12354141
3.8217468 -1.8366846 3.1205199 12418908
3.8524218 -1.8366846 3.1205199 12090973
0 0 0 12157021
0 0 0 12025435
0 0 0 11828056
0 0 0 12024410
0 0 0 11762011
0 0 0 11302486
0 0 0 8082236
0 0 0 8278332
-8.0692434 -3.9130208 6.761126 8344125
-8.0027809 -3.9130208 6.761126 8278844
-7.9363189 -3.9130208 6.761126 8278843
-9.4438286 -4.6956253 8.1133518 8278330
-9.3640747 -4.6956253 8.1133518 8278331
-11.605399 -5.8695316 10.141689 8541502
-11.505706 -5.8695316 10.141689 8344379
0 0 0 8475963
-9.0450563 -4.6956253 8.1133518 8212791
-8.9653015 -4.6956253 8.1133518 8213051
-8.8855467 -4.6956253 8.1133518 8345406
-6.2898512 -3.354018 5.7952509 8607035
-6.2328835 -3.354018 5.7952509 8541758
-2.7019632 -1.4673829 2.5354223 8606781
-2.6770399 -1.4673829 2.5354223 8606781
-2.6521165 -1.4673829 2.5354223 8541756
-5.2543864 -2.9347658 5.0708447 8541499
-4.6262579 -2.6086807 4.5074177 8672828
-4.5819497 -2.6086807 4.5074177 8607035
-4.5376415 -2.6086807 4.5074177 8672828
-8.0880003 -4.6956253 8.1133518 8541499
-8.0082455 -4.6956253 8.1133518 8607036
-6.6070757 -3.9130208 6.761126 8410172
-5.6062403 -3.354018 5.7952509 8541500
-4.8556137 -2.9347658 5.0708447 8541502
-4.2717929 -2.6086807 4.5074177 8541756
-3.8047364 -2.3478127 4.0566759 8410170
-3.7648592 -2.3478127 4.0566759 8672828
-3.3863468 -2.1343751 3.687887 8475963
-3.3500948 -2.1343751 3.687887 8476222
-3.6452272 -2.3478127 4.0566759 8541501
-3.60535 -2.3478127 4.0566759 8607293
-3.2413385 -2.1343751 3.687887 8672828
-3.2050865 -2.1343751 3.687887 8541756
-3.1688342 -2.1343751 3.687887 8542269
-3.4458406 -2.3478127 4.0566759 8541756
-3.7844038 -2.6086807 4.5074177 8672570
-3.7400956 -2.6086807 4.5074177 8475963
-3.3262088 -2.3478127 4.0566759 8541498
-3.2863314 -2.3478127 4.0566759 8541754
-3.2464542 -2.3478127 4.0566759 8541756
-3.2065768 -2.3478127 4.0566759 8738365
-2.638916 -1.9565104 3.380563 8673340
-2.605685 -1.9565104 3.380563 8804412
-2.572454 -1.9565104 3.380563 8738621
-2.5392227 -1.9565104 3.380563 8672826
-2.5059917 -1.9565104 3.380563 8803899
-2.6975572 -2.1343751 3.687887 8803899
-5.8548713 -4.6956253 8.1133518 8673341
-7.2188954 -5.8695316 10.141689 8935998
-5.6953621 -4.6956253 8.1133518 8672826
-2.1598489 -1.8060098 3.1205199 8607291
-1.9770902 -1.677009 2.8976254 8804158
-1.9486064 -1.677009 2.8976254 8870207
-1.9201226 -1.677009 2.8976254 8738620
-1.8916389 -1.677009 2.8976254 8673340
-1.863155 -1.677009 2.8976254 8870462
-1.9757999 -1.8060098 3.1205199 8870205
-1.9451251 -1.8060098 3.1205199 8673342
-1.9144502 -1.8060098 3.1205199 8869949
-1.8837754 -1.8060098 3.1205199 9001278
-1.6060203 -1.5652083 2.7044504 8935998
-1.5794355 -1.5652083 2.7044504 9067071
-1.6637685 -1.677009 2.8976254 9197886
-1.9078321 -1.9565104 3.380563 9197885
-1.8746011 -1.9565104 3.380563 9067582
-1.84137 -1.9565104 3.380563 9001791
-1.808139 -1.9565104 3.380563 9132864
-1.7749078 -1.9565104 3.380563 9067071
-1.7416768 -1.9565104 3.380563 9067326
-1.5770268 -1.8060098 3.1205199 9263678
-1.546352 -1.8060098 3.1205199 9198398
-1.4074144 -1.677009 2.8976254 9198139
-1.3789307 -1.677009 2.8976254 9001789
-1.3504468 -1.677009 2.8976254 9132862
-1.3219631 -1.677009 2.8976254 9132865
-1.2072473 -1.5652083 2.7044504 9198398
-1.1806624 -1.5652083 2.7044504 9198655
-1.1540775 -1.5652083 2.7044504 9329725
-1.208028 -1.677009 2.8976254 9329726
-1.1795441 -1.677009 2.8976254 9461056
-1.1510603 -1.677009 2.8976254 9264448
-1.0477381 -1.5652083 2.7044504 9460545
-1.0211532 -1.5652083 2.7044504 9264702
-0.99456835 -1.5652083 2.7044504 9263678
-1.1169041 -1.8060098 3.1205199 9264190
-0.94139862 -1.5652083 2.7044504 9329214
-1.0555544 -1.8060098 3.1205199 9198655
-1.0248796 -1.8060098 3.1205199 9132862
-0.9942047 -1.8060098 3.1205199 9198142
-0.96352983 -1.8060098 3.1205199 9329214
-0.93285501 -1.8060098 3.1205199 9264191
-0.90218014 -1.8060098 3.1205199 9264447
-0.87150532 -1.8060098 3.1205199 9395518
-0.84083045 -1.8060098 3.1205199 9329471
-0.81015557 -1.8060098 3.1205199 9198657
-1.013325 -2.3478127 4.0566759 9461571
-1.3906394 -3.354018 5.7952509 9329984
-1.8671408 -4.6956253 8.1133518 9395520
-0.99299228 -2.6086807 4.5074177 9264959
-0.77619612 -2.1343751 3.687887 9263678
-0.6261065 -1.8060098 3.1205199 9527104
-0.55290079 -1.677009 2.8976254 9330241
-0.45886487 -1.4673829 2.5354223 9264448
-0.46287099 -1.5652083 2.7044504 9264448
-0.43628612 -1.5652083 2.7044504 9460541
-0.40970126 -1.5652083 2.7044504 9263935
-0.38311636 -1.5652083 2.7044504 9067068
-0.3565315 -1.5652083 2.7044504 9330239
-0.32994664 -1.5652083 2.7044504 9329469
-0.30336177 -1.5652083 2.7044504 9264449
-0.27677691 -1.5652083 2.7044504 9329984
-0.25019205 -1.5652083 2.7044504 9396034
-0.23957911 -1.677009 2.8976254 9395264
-0.21109532 -1.677009 2.8976254 9461311
-0.19665858 -1.8060098 3.1205199 9395264
-0.16598374 -1.8060098 3.1205199 9461057
-0.13530888 -1.8060098 3.1205199 9592897
-0.10463403 -1.8060098 3.1205199 9657407
-0.096146934 -2.3478127 4.0566759 9396288
-0.056269631 -2.3478127 4.0566759 9592897
-0.016392324 -2.3478127 4.0566759 9723965
0.023484983 -2.3478127 4.0566759 9527104
0.063362285 -2.3478127 4.0566759 9395778
0.1032396 -2.3478127 4.0566759 9527104
0.11008992 -1.8060098 3.1205199 9527874
0.14076477 -1.8060098 3.1205199 9789504
0.18572626 -1.9565104 3.380563 9461057
0.21895733 -1.9565104 3.380563 9723713
0.25218841 -1.9565104 3.380563 9855299
0.28541949 -1.9565104 3.380563 9724483
0.3186506 -1.9565104 3.380563 9855554
0.35188168 -1.9565104 3.380563 9855298
0.38511276 -1.9565104 3.380563 9724483
0.41834384 -1.9565104 3.380563 10052678
0.45157495 -1.9565104 3.380563 9854788
0.48480603 -1.9565104 3.380563 10117186
0.51803714 -1.9565104 3.380563 9724739
0.55126822 -1.9565104 3.380563 10052420
0.5844993 -1.9565104 3.380563 9855811
0.61773038 -1.9565104 3.380563 10052676
0.60088754 -1.8060098 3.1205199 10250055
0.58645076 -1.677009 2.8976254 10118469
0.61493456 -1.677009 2.8976254 9987653
0.64341831 -1.677009 2.8976254 10316105
0.72358692 -1.8060098 3.1205199 10184003
0.75426179 -1.8060098 3.1205199 10184517
0.78493661 -1.8060098 3.1205199 10316106
0.88357908 -1.9565104 3.380563 10184521
0.91681015 -1.9565104 3.380563 10381385
1.1400496 -2.3478127 4.0566759 10052930
1.1799269 -2.3478127 4.0566759 10315848
1.0165035 -1.9565104 3.380563 10249542
0.96898574 -1.8060098 3.1205199 10250570
0.99966061 -1.8060098 3.1205199 10315333
1.0303354 -1.8060098 3.1205199 10184518
0.98522377 -1.677009 2.8976254 10250055
1.0137075 -1.677009 2.8976254 10315850
1.0421914 -1.677009 2.8976254 9856839
1.0706751 -1.677009 2.8976254 9987142
1.0991589 -1.677009 2.8976254 10315078
1.2143846 -1.8060098 3.1205199 10381385
1.1561265 -1.677009 2.8976254 10315848
1.1846102 -1.677009 2.8976254 10117958
1.2130941 -1.677009 2.8976254 9987656
1.158806 -1.5652083 2.7044504 10052420
1.111304 -1.4673829 2.5354223 10117958
1.1362273 -1.4673829 2.5354223 10052681
1.3270292 -1.677009 2.8976254 9724999
1.355513 -1.677009 2.8976254 9986630
1.3839968 -1.677009 2.8976254 9724227
1.5211331 -1.8060098 3.1205199 9592643
1.4409643 -1.677009 2.8976254 9592901
1.5824827 -1.8060098 3.1205199 9395266
1.6131576 -1.8060098 3.1205199 9330243
1.6438324 -1.8060098 3.1205199 9132862
1.9789631 -2.1343751 3.687887 9132351
1.8472806 -1.9565104 3.380563 9132864
1.735857 -1.8060098 3.1205199 9199171
1.7665318 -1.8060098 3.1205199 9462086
1.7972068 -1.8060098 3.1205199 9396547
1.9802049 -1.9565104 3.380563 9659206
2.0134361 -1.9565104 3.380563 9659208
2.0466671 -1.9565104 3.380563 9987401
2.0798981 -1.9565104 3.380563 9987144
1.950581 -1.8060098 3.1205199 9987401
1.9812558 -1.8060098 3.1205199 9856326
2.0119307 -1.8060098 3.1205199 10314824
2.6553872 -2.3478127 4.0566759 10185034
2.6952646 -2.3478127 4.0566759 10185034
3.0390465 -2.6086807 4.5074177 10315594
2.7750192 -2.3478127 4.0566759 9987658
2.8148963 -2.3478127 4.0566759 10184780
2.8547738 -2.3478127 4.0566759 10118731
2.8946509 -2.3478127 4.0566759 10118473
3.260587 -2.6086807 4.5074177 10118987
2.9744058 -2.3478127 4.0566759 10118987
2.3186791 -1.8060098 3.1205199 10249803
2.349354 -1.8060098 3.1205199 10184778
2.380029 -1.8060098 3.1205199 10185034
2.4107037 -1.8060098 3.1205199 10315849
2.4413786 -1.8060098 3.1205199 10184010
2.2954781 -1.677009 2.8976254 10184010
2.0334666 -1.4673829 2.5354223 9987401
1.9373082 -1.3810662 2.3862798 9988173
1.9607655 -1.3810662 2.3862798 10052939
1.9842227 -1.3810662 2.3862798 10381389
2.0076799 -1.3810662 2.3862798 9790793
2.4663808 -1.677009 2.8976254 9922123
2.6867774 -1.8060098 3.1205199 9986889
2.9439063 -1.9565104 3.380563 9856587
2.9771376 -1.9565104 3.380563 9986631
3.0103686 -1.9565104 3.380563 9725001
2.6087997 -1.677009 2.8976254 9593416
2.6372836 -1.677009 2.8976254 9659208
3.7320745 -2.3478127 4.0566759 9593671
3.7719517 -2.3478127 4.0566759 9723973
2.2422523 -1.3810662 2.3862798 9527622
2.1398368 -1.3043404 2.2537088 9789252
2.2891667 -1.3810662 2.3862798 9528136
2.6209738 -1.5652083 2.7044504 9593671
2.6475587 -1.5652083 2.7044504 9396293
2.6741436 -1.5652083 2.7044504 9462088
2.7007284 -1.5652083 2.7044504 9592646
2.9221213 -1.677009 2.8976254 9527622
2.7538981 -1.5652083 2.7044504 9264450
2.780483 -1.5652083 2.7044504 9133638
2.6316261 -1.4673829 2.5354223 9068359
2.6565495 -1.4673829 2.5354223 9330504
2.6814728 -1.4673829 2.5354223 9593415
2.7063961 -1.4673829 2.5354223 10118471
2.7313194 -1.4673829 2.5354223 10250825
2.9399922 -1.5652083 2.7044504 10448206
3.1784754 -1.677009 2.8976254 11169874
3.4536486 -1.8060098 3.1205199 11301712
3.4843235 -1.8060098 3.1205199 11695443
3.5149984 -1.8060098 3.1205199 11564882
3.2924106 -1.677009 2.8976254 11565398
3.3208945 -1.677009 2.8976254 11827798
5.210144 -2.6086807 4.5074177 12353371
5.2544522 -2.6086807 4.5074177 12287065
4.7688847 -2.3478127 4.0566759 12090713
4.8087616 -2.3478127 4.0566759 12419678
3.7297223 -1.8060098 3.1205199 12222042
3.7603972 -1.8060098 3.1205199 12090971
3.7910719 -1.8060098 3.1205199 12419423
3.8217468 -1.8060098 3.1205199 12157023
4.1734567 -1.9565104 3.380563 12155994
0 0 0 11893592
0 0 0 11959900
0 0 0 11828828
0 0 0 11697242
0 0 0 11763291
0 0 0 11958363
-49.213009 -23.079353 40.566757 8080951
-0.42447162 -0.20069003 0.35275441 8212537
-24.207731 -11.539677 20.283379 7949878
-0.26975667 -0.12965928 0.22790313 8212537
-9.5235834 -4.615871 8.1133518 8146744
-0.27137437 -0.13263996 0.23314229 8147257
-6.6886239 -3.2970502 5.7952509 8344636
-0.38364956 -0.19073845 0.33526245 8409918
-5.1136475 -2.5643728 4.5074177 8212795
-1.6294303 -0.82426256 1.4488127 8213822
-4.1113887 -2.0981228 3.687887 8409402
-14.942167 -7.6931176 13.522252 8409916
-2.9618487 -1.5386235 2.7044504 8475450
-0.29549637 -0.15489499 0.27226013 8541242
-2.4238992 -1.2821864 2.2537088 8540988
-0.52086037 -0.27806449 0.48875612 8606781
-3.5693865 -1.9232794 3.380563 8541503
-0.36899015 -0.20069003 0.35275441 8542015
-8.4070187 -4.615871 8.1133518 8541242
-0.70570034 -0.39117548 0.68757218 8607035
-13.745849 -7.6931176 13.522252 8475709
-0.44877774 -0.25361925 0.44578853 8606781
-13.48 -7.6931176 13.522252 8672828
-0.23976782 -0.13819972 0.24291471 8607293
-9.910614 -5.7698383 10.141689 8673088
-0.51636422 -0.30367571 0.53377312 8541242
-7.7689819 -4.615871 8.1133518 8607292
-1.0390848 -0.6237663 1.0963988 8475708
-7.6094728 -4.615871 8.1133518 8475963
-0.78434557 -0.48081985 0.84514076 8475963
-6.2083025 -3.8465588 6.761126 8607034
-0.15548962 -0.097381234 0.17116775 8672828
-3.6452272 -2.3079355 4.0566759 8672828
-3.60535 -2.3079355 4.0566759 8738619
-3.5654726 -2.3079355 4.0566759 8672827
-3.2050865 -2.0981228 3.687887 8475706
-3.1688342 -2.0981228 3.687887 8344377
-3.4458406 -2.3079355 4.0566759 8738876
-3.4059634 -2.3079355 4.0566759 8738106
-3.7400956 -2.5643728 4.5074177 8410170
-3.6957874 -2.5643728 4.5074177 8607549
-3.6514795 -2.5643728 4.5074177 8672572
-3.6071713 -2.5643728 4.5074177 8803901
-3.2065768 -2.3079355 4.0566759 8475709
-2.8788176 -2.0981228 3.687887 8738878
-3.1268222 -2.3079355 4.0566759 8738364
-2.572454 -1.9232794 3.380563 8869692
-6.0941353 -4.615871 8.1133518 8803899
-2.5059917 -1.9232794 3.380563 8673340
-4.9455214 -3.8465588 6.761126 8804412
-5.8548713 -4.615871 8.1133518 9001278
-7.2188954 -5.7698383 10.141689 8804157
-7.1192021 -5.7698383 10.141689 8869948
-2.1598489 -1.7753348 3.1205199 8673342
-1.9770902 -1.6485251 2.8976254 8738877
-1.9486064 -1.6485251 2.8976254 8870206
-2.2401431 -1.9232794 3.380563 8804412
-2.206912 -1.9232794 3.380563 8738619
-2.0064747 -1.7753348 3.1205199 8607295
-1.9757999 -1.7753348 3.1205199 8870464
-1.9451251 -1.7753348 3.1205199 8673342
-1.9144502 -1.7753348 3.1205199 8804414
-1.8837754 -1.7753348 3.1205199 8803899
-1.8531005 -1.7753348 3.1205199 8870205
-1.8224256 -1.7753348 3.1205199 8804926
-1.7917508 -1.7753348 3.1205199 8935998
-1.6352848 -1.6485251 2.8976254 9001791
-1.6068009 -1.6485251 2.8976254 8936253
-1.6997262 -1.7753348 3.1205199 9001278
-1.6690514 -1.7753348 3.1205199 9067071
-1.6383766 -1.7753348 3.1205199 9329471
-1.7416768 -1.9232794 3.380563 9198398
-1.7084457 -1.9232794 3.380563 9132862
-1.546352 -1.7753348 3.1205199 9329728
-1.5156772 -1.7753348 3.1205199 9198655
-1.3789307 -1.6485251 2.8976254 8935998
-1.3504468 -1.6485251 2.8976254 9067582
-1.3219631 -1.6485251 2.8976254 9197887
-1.2072473 -1.5386235 2.7044504 9263934
-1.1806624 -1.5386235 2.7044504 9461311
-1.2365117 -1.6485251 2.8976254 9461313
-1.208028 -1.6485251 2.8976254 9198655
-1.1795441 -1.6485251 2.8976254 9460539
-1.1510603 -1.6485251 2.8976254 9263678
-1.0477381 -1.5386235 2.7044504 9263678
-1.0211532 -1.5386235 2.7044504 9264448
-0.99456835 -1.5386235 2.7044504 9329726
-1.1169041 -1.7753348 3.1205199 9329728
-1.0862292 -1.7753348 3.1205199 9199168
-1.0555544 -1.7753348 3.1205199 9133375
-0.95167381 -1.6485251 2.8976254 9526337
-0.92319 -1.6485251 2.8976254 9329470
-0.96352983 -1.7753348 3.1205199 9002305
-0.93285501 -1.7753348 3.1205199 9329728
-0.90218014 -1.7753348 3.1205199 9263935
-0.87150532 -1.7753348 3.1205199 9264448
-0.91089958 -1.9232794 3.380563 9395264
-0.95745659 -2.0981228 3.687887 9264448
-2.5333123 -5.7698383 10.141689 9395008
-2.433619 -5.7698383 10.141689 9264448
-1.8671408 -4.615871 8.1133518 9395518
-1.2767043 -3.2970502 5.7952509 9199422
-0.94868416 -2.5643728 4.5074177 9395518
-0.6261065 -1.7753348 3.1205199 9526077
-0.59543163 -1.7753348 3.1205199 9460799
-0.56475681 -1.7753348 3.1205199 9460799
-0.46287099 -1.5386235 2.7044504 9461311
-0.46744943 -1.6485251 2.8976254 9329725
-0.43896562 -1.6485251 2.8976254 9329725
-0.41048184 -1.6485251 2.8976254 9395264
-0.38199806 -1.6485251 2.8976254 9395263
-0.35351425 -1.6485251 2.8976254 9264702
-0.32503048 -1.6485251 2.8976254 9461311
-0.2965467 -1.6485251 2.8976254 9526334
-0.26806289 -1.6485251 2.8976254 9461309
-0.23957911 -1.6485251 2.8976254 9526334
-0.21109532 -1.6485251 2.8976254 9723968
-0.19665858 -1.7753348 3.1205199 9395775
-0.16598374 -1.7753348 3.1205199 9461056
-0.13530888 -1.7753348 3.1205199 9658436
-0.10463403 -1.7753348 3.1205199 9723459
-0.0874063 -2.0981228 3.687887 9658433
-0.062521815 -2.5643728 4.5074177 9592897
-0.018213693 -2.5643728 4.5074177 9527617
0.023484983 -2.3079355 4.0566759 9724226
0.048740219 -1.7753348 3.1205199 9461312
0.079415068 -1.7753348 3.1205199 9723971
0.11008992 -1.7753348 3.1205199 9330240
0.14076477 -1.7753348 3.1205199 9526847
0.17143962 -1.7753348 3.1205199 9789252
0.21895733 -1.9232794 3.380563 9592642
0.25218841 -1.9232794 3.380563 9593155
0.28541949 -1.9232794 3.380563 9986370
0.34761882 -2.0981228 3.687887 9789505
0.35188168 -1.9232794 3.380563 10052420
0.38511276 -1.9232794 3.380563 9855045
0.41834384 -1.9232794 3.380563 9658690
0.45157495 -1.9232794 3.380563 9921090
0.48480603 -1.9232794 3.380563 9855299
0.51803714 -1.9232794 3.380563 9724483
0.55126822 -1.9232794 3.380563 10118469
0.5844993 -1.9232794 3.380563 9790275
0.61773038 -1.9232794 3.380563 10118213
0.60088754 -1.7753348 3.1205199 10184262
0.63156235 -1.7753348 3.1205199 10118212
0.66223723 -1.7753348 3.1205199 10184777
0.6929121 -1.7753348 3.1205199 10184006
0.72358692 -1.7753348 3.1205199 10184261
0.75426179 -1.7753348 3.1205199 10381128
0.78493661 -1.7753348 3.1205199 10119239
0.81561148 -1.7753348 3.1205199 10315589
0.84628636 -1.7753348 3.1205199 10512454
0.95004123 -1.9232794 3.380563 10250054
0.98327231 -1.9232794 3.380563 10315848
0.93831086 -1.7753348 3.1205199 10052676
0.96898574 -1.7753348 3.1205199 9986885
0.92825621 -1.6485251 2.8976254 10315334
0.95674002 -1.6485251 2.8976254 10249542
0.98522377 -1.6485251 2.8976254 10184264
1.0137075 -1.6485251 2.8976254 10249286
1.0421914 -1.6485251 2.8976254 10184520
1.0706751 -1.6485251 2.8976254 9855815
1.0991589 -1.6485251 2.8976254 9856069
1.1276428 -1.6485251 2.8976254 9790020
1.1561265 -1.6485251 2.8976254 9856582
1.1846102 -1.6485251 2.8976254 10052166
1.2130941 -1.6485251 2.8976254 9921349
1.158806 -1.5386235 2.7044504 9856069
1.1853908 -1.5386235 2.7044504 9986885
1.2119757 -1.5386235 2.7044504 9855299
1.3270292 -1.6485251 2.8976254 9658435
1.4597833 -1.7753348 3.1205199 9593413
1.4904583 -1.7753348 3.1205199 9396034
1.5211331 -1.7753348 3.1205199 9067069
1.4409643 -1.6485251 2.8976254 9001533
1.5824827 -1.7753348 3.1205199 9198915
1.6131576 -1.7753348 3.1205199 9329473
1.6438324 -1.7753348 3.1205199 9461570
1.6745073 -1.7753348 3.1205199 9658693
1.7051822 -1.7753348 3.1205199 9659205
1.735857 -1.7753348 3.1205199 9920838
1.7665318 -1.7753348 3.1205199 9920838
1.7972068 -1.7753348 3.1205199 9986631
1.8278816 -1.7753348 3.1205199 10053193
1.8585564 -1.7753348 3.1205199 10118217
1.8892312 -1.7753348 3.1205199 10118474
1.9199061 -1.7753348 3.1205199 10118986
1.950581 -1.7753348 3.1205199 10184776
1.9812558 -1.7753348 3.1205199 10447434
2.1795914 -1.9232794 3.380563 10577737
2.2128224 -1.9232794 3.380563 10316363
2.6952646 -2.3079355 4.0566759 10119754
3.0390465 -2.5643728 4.5074177 10316108
3.0833545 -2.5643728 4.5074177 10381643
3.1276627 -2.5643728 4.5074177 10316107
3.1719708 -2.5643728 4.5074177 10250058
3.216279 -2.5643728 4.5074177 10315850
3.260587 -2.5643728 4.5074177 10381389
3.3048952 -2.5643728 4.5074177 10119757
2.3186791 -1.7753348 3.1205199 9988171
2.1815429 -1.6485251 2.8976254 10316365
2.2100267 -1.6485251 2.8976254 10250313
2.2385104 -1.6485251 2.8976254 10250057
2.2669942 -1.6485251 2.8976254 10315850
2.2954781 -1.6485251 2.8976254 10185035
2.0334666 -1.4424596 2.5354223 10185036
1.9373082 -1.357609 2.3862798 10381642
1.9607655 -1.357609 2.3862798 10053964
2.4094131 -1.6485251 2.8976254 9987658
2.437897 -1.6485251 2.8976254 10184523
2.4663808 -1.6485251 2.8976254 10053194
2.6867774 -1.7753348 3.1205199 10184010
2.7174523 -1.7753348 3.1205199 10118730
2.5518322 -1.6485251 2.8976254 9855815
2.5803158 -1.6485251 2.8976254 9856586
2.6087997 -1.6485251 2.8976254 9592647
2.6372836 -1.6485251 2.8976254 9921862
2.8708265 -1.7753348 3.1205199 9987655
2.9015014 -1.7753348 3.1205199 9986885
2.9321761 -1.7753348 3.1205199 9855815
2.2657096 -1.357609 2.3862798 9659207
2.2891667 -1.357609 2.3862798 9462342
2.4571631 -1.4424596 2.5354223 9199942
2.6475587 -1.5386235 2.7044504 9658953
2.6741436 -1.5386235 2.7044504 9592647
2.7007284 -1.5386235 2.7044504 9461829
2.7273133 -1.5386235 2.7044504 9264963
2.7538981 -1.5386235 2.7044504 9330757
2.780483 -1.5386235 2.7044504 9461831
2.6316261 -1.4424596 2.5354223 9330758
2.6565495 -1.4424596 2.5354223 9264965
2.5237391 -1.357609 2.3862798 9659206
2.5471964 -1.357609 2.3862798 10249803
2.7313194 -1.4424596 2.5354223 10381643
2.9399922 -1.5386235 2.7044504 10906959
3.1784754 -1.6485251 2.8976254 11236435
3.4536486 -1.7753348 3.1205199 11170898
3.4843235 -1.7753348 3.1205199 11563857
3.5149984 -1.7753348 3.1205199 11828058
3.2924106 -1.6485251 2.8976254 11763294
3.3208945 -1.6485251 2.8976254 12025435
3.607023 -1.7753348 3.1205199 12286808
3.9408391 -1.9232794 3.380563 12157022
3.9740701 -1.9232794 3.380563 12419936
4.0073013 -1.9232794 3.380563 12222555
3.7297223 -1.7753348 3.1205199 12288093
3.7603972 -1.7753348 3.1205199 12156509
3.7910719 -1.7753348 3.1205199 12419937
3.8217468 -1.7753348 3.1205199 12091228
4.1734567 -1.9232794 3.380563 12025177
0 0 0 12157020
0 0 0 11960412
0 0 0 11697753
0 0 0 11763035
0 0 0 11893597
0 0 0 11959133
0 0 0 8015158
0 0 0 8015157
-12.103866 -5.670145 10.141689 8015671
-12.004172 -5.670145 10.141689 7949878
-7.9363189 -3.7800965 6.761126 7950650
-9.4438286 -4.5361161 8.1133518 8278845
-9.3640747 -4.5361161 8.1133518 8081464
-9.2843199 -4.5361161 8.1133518 8147259
