# .PCD v0.7 - Point Cloud Data file format
VERSION 0.7
FIELDS x y z rgb
SIZE 4 4 4 4
TYPE F F F U
COUNT 1 1 1 1
WIDTH 1322
HEIGHT 1
VIEWPOINT 0 0 0 1 0 0 0
POINTS 1322
DATA ascii
0.07685224 0.81300318 1.3988537 11220256
0 0 0 11220771
0 0 0 10957856
0 0 0 10958367
0 0 0 10892575
0 0 0 11155490
0 0 0 11417120
1.0040253 4.7154188 8.1133518 11351328
1.0837799 4.7154188 8.1133518 11483171
1.1635345 4.7154188 8.1133518 11548966
0.69071621 2.6196771 4.5074177 11483169
0.66152191 2.3577094 4.0566759 11811107
0.70139921 2.3577094 4.0566759 11811361
0.7412765 2.3577094 4.0566759 11614498
0.7811538 2.3577094 4.0566759 11614497
0.74639189 2.1433721 3.687887 11418148
0.86090839 2.3577094 4.0566759 11352099
0.81889606 2.1433721 3.687887 11221027
0.72358692 1.8136226 3.1205199 11417889
0.57678843 1.3868878 2.3862798 11286562
0.5668987 1.3098385 2.2537088 11287075
0.58905274 1.3098385 2.2537088 11352353
0.64716011 1.3868878 2.3862798 11220769
0.67061734 1.3868878 2.3862798 11482658
0.45381802 0.9068113 1.5602599 11417378
0.39348519 0.76055139 1.3086051 11351328
0.39365044 0.73678416 1.2677112 11024160
0.39380565 0.71445733 1.2292956 11024675
0.36200973 0.63721871 1.0963988 11155748
0.36297721 0.62044984 1.0675462 11089953
0.38356504 0.63721871 1.0963988 11221284
0.39434269 0.63721871 1.0963988 11220001
0.4163737 0.65491927 1.1268544 11286051
0.43966359 0.67363125 1.1590502 11024160
0.45105711 0.67363125 1.1590502 11156261
0.55813003 0.81300318 1.3988537 10565411
0.55281812 0.7859031 1.3522252 10630689
0.5307287 0.73678416 1.2677112 10893605
0.49663118 0.67363125 1.1590502 11089957
0.50802469 0.67363125 1.1590502 10959398
0.51941818 0.67363125 1.1590502 10893345
0.54642379 0.69344389 1.1931399 11089697
0.55815244 0.69344389 1.1931399 11220769
0.58715016 0.71445733 1.2292956 11417378
0.79098916 0.94308376 1.6226703 11417380
0 0 0 11155748
0.822891 0.94308376 1.6226703 11024418
0.99862134 1.1227187 1.9317503 11285792
1.7808183 1.9647577 3.380563 11089955
1.6745073 1.8136226 3.1205199 11090212
1.8472806 1.9647577 3.380563 11090468
1.735857 1.8136226 3.1205199 11352357
0.71765357 0.73678416 1.2677112 11220769
0.68716723 0.69344389 1.1931399 11156004
0.74257684 0.73678416 1.2677112 10892833
0 0 0 10762019
0 0 0 9843747
0 0 0 9318945
0 0 0 9843232
0 0 0 10630687
1.6346936 1.4735683 2.5354223 10499617
1.5619924 1.3868878 2.3862798 10827811
1.2251202 1.071686 1.8439435 10565411
1.1396424 0.98237884 1.6902815 10499363
1.1100076 0.94308376 1.6226703 10630692
1.1259586 0.94308376 1.6226703 10696226
1.0979899 0.9068113 1.5602599 10959398
1.072093 0.87322569 1.5024725 10631460
0.83843666 0.67363125 1.1590502 10434596
0.84983015 0.67363125 1.1590502 10499874
0.8612237 0.67363125 1.1590502 10433568
1.0531586 0.81300318 1.3988537 10368033
1.0669094 0.81300318 1.3988537 10368547
0.92173964 0.69344389 1.1931399 10172196
0.93346822 0.69344389 1.1931399 10171682
0.94519687 0.69344389 1.1931399 9646625
0.95692545 0.69344389 1.1931399 9580575
0.9686541 0.69344389 1.1931399 9646368
1.0100912 0.71445733 1.2292956 9842975
0.96376532 0.67363125 1.1590502 9974819
1.00384 0.69344389 1.1931399 9843747
1.0155686 0.69344389 1.1931399 9974563
1.0272971 0.69344389 1.1931399 10236962
1.0390258 0.69344389 1.1931399 9843490
1.0507544 0.69344389 1.1931399 10040354
1.0946795 0.71445733 1.2292956 9974817
1.1067635 0.71445733 1.2292956 9842977
1.0859402 0.69344389 1.1931399 10039327
1.0976689 0.69344389 1.1931399 10040610
1.1430156 0.71445733 1.2292956 9842978
2.0062258 1.2408997 2.1350925 9646884
2.2657096 1.3868878 2.3862798 9712418
2.2891667 1.3868878 2.3862798 9515296
2.312624 1.3868878 2.3862798 9450275
2.3360813 1.3868878 2.3862798 9450788
0 0 0 9581602
0 0 0 9778981
0 0 0 9515296
1.4244301 0.81300318 1.3988537 9778468
1.4381809 0.81300318 1.3988537 9647395
1.7544174 0.98237884 1.6902815 9713447
2.5002818 1.3868878 2.3862798 9909540
2.5237391 1.3868878 2.3862798 9844261
1.4434112 0.7859031 1.3522252 9910310
1.4097133 0.76055139 1.3086051 9910309
1.3781214 0.73678416 1.2677112 9975847
1.390583 0.73678416 1.2677112 9844774
1.3605281 0.71445733 1.2292956 9845286
1.3726121 0.71445733 1.2292956 9778981
1.3846962 0.71445733 1.2292956 9975847
1.3967803 0.71445733 1.2292956 10172966
1.4088643 0.71445733 1.2292956 10041381
1.4209483 0.71445733 1.2292956 9910056
1.3908844 0.69344389 1.1931399 10106919
1.4451164 0.71445733 1.2292956 10238764
0 0 0 10173226
0 0 0 10107948
0 0 0 10173481
0 0 0 9910822
0 0 0 9910822
0 0 0 9713958
0 0 0 9779751
0 0 0 9845288
0 0 0 9517092
0 0 0 9713448
0 0 0 10107692
0 0 0 9779241
0 0 0 9385507
0 0 0 9516579
-1.4239842 0.70517254 1.1931399 9582117
0 0 0 9647397
-1.4005269 0.70517254 1.1931399 9844261
0 0 0 10106401
-1.2654154 0.64799637 1.0963988 10041380
-0.76100981 0.393047 0.66502881 10106401
-0.76704705 0.39959776 0.67611259 10041380
-0.74793524 0.393047 0.66502881 9975844
-0.74139798 0.393047 0.66502881 10040610
-0.73486072 0.393047 0.66502881 10172194
-0.74046218 0.39959776 0.67611259 10171683
-1.0239292 0.55757827 0.94341296 10041121
-1.3634433 0.74924582 1.2677112 10236959
0 0 0 10237218
0 0 0 10172195
0 0 0 10237731
-0.95534301 0.54490602 0.92197174 10171939
-0.92525154 0.53279704 0.90148348 10171682
-0.91638994 0.53279704 0.90148348 9975074
-0.86891007 0.5101248 0.86312246 9712929
-0.86042553 0.5101248 0.86312246 9712415
-0.85194099 0.5101248 0.86312246 9844001
-0.82588446 0.49949721 0.84514076 9974819
-0.80089146 0.48930341 0.82789302 9974817
-0.80926889 0.49949721 0.84514076 10105888
-0.93771064 0.58477724 0.98943311 10302753
-1.0283071 0.64799637 1.0963988 9975587
0 0 0 10237219
0 0 0 10368290
0 0 0 10236447
-1.2150756 0.79919553 1.3522252 10106146
-1.1630161 0.77341503 1.3086051 10302497
-1.1142101 0.74924582 1.2677112 10302241
-1.1017485 0.74924582 1.2677112 10368290
-1.1244251 0.77341503 1.3086051 10368292
-1.1115614 0.77341503 1.3086051 10171682
-1.0643635 0.74924582 1.2677112 10433568
-1.0519018 0.74924582 1.2677112 10499363
-1.0394402 0.74924582 1.2677112 10499361
-1.0269785 0.74924582 1.2677112 10368290
-1.2486362 0.92214876 1.5602599 10302240
0 0 0 10499361
0 0 0 10499104
-0.48104957 0.3688595 0.62410396 10893090
-0.46771887 0.3632707 0.61464781 10499362
-0.46167687 0.3632707 0.61464781 10565156
-0.46264464 0.3688595 0.62410396 10565409
-0.45650968 0.3688595 0.62410396 10499617
-0.45037469 0.3688595 0.62410396 10499361
-0.44423974 0.3688595 0.62410396 10302495
-0.43810478 0.3688595 0.62410396 10499618
-0.46796724 0.39959776 0.67611259 10564640
-0.46132103 0.39959776 0.67611259 10630433
-0.47035328 0.41337699 0.69942683 10958369
-0.46347788 0.41337699 0.69942683 10893089
-0.45660248 0.41337699 0.69942683 10696480
-0.42760935 0.393047 0.66502881 10695713
-0.4210721 0.393047 0.66502881 10696226
-0.41453484 0.393047 0.66502881 10762020
-0.40799758 0.393047 0.66502881 10630433
-0.36550865 0.35784876 0.605474 10695199
-0.35955682 0.35784876 0.605474 10695968
-0.34335554 0.3474763 0.587924 10827296
-0.33757621 0.3474763 0.587924 10630687
0 0 0 10827296
0 0 0 10959140
0 0 0 10959652
0 0 0 10894373
0 0 0 10893859
-0.40980631 0.47011504 0.79542661 11222053
-0.40198722 0.47011504 0.79542661 11089953
0 0 0 10958880
0 0 0 10696480
0 0 0 11023906
-0.38584197 0.48930341 0.82789302 11024676
-0.37770376 0.48930341 0.82789302 10893859
-0.3772648 0.49949721 0.84514076 11221539
-0.36895701 0.49949721 0.84514076 10892576
-0.36064926 0.49949721 0.84514076 10892576
-0.34515086 0.48930341 0.82789302 10958626
-0.33701262 0.48930341 0.82789302 10892576
-0.32229689 0.47951734 0.81133515 10827296
-0.32073617 0.48930341 0.82789302 10696480
-0.31259793 0.48930341 0.82789302 10695968
-0.31080261 0.49949721 0.84514076 10761503
-0.30249485 0.49949721 0.84514076 11024675
-0.29418707 0.49949721 0.84514076 11089954
-0.28587931 0.49949721 0.84514076 11220769
-0.2960763 0.53279704 0.90148348 10892834
-0.28721467 0.53279704 0.90148348 10893344
-0.20534243 0.393047 0.66502881 10959138
-0.19880515 0.393047 0.66502881 10958882
0 0 0 11024675
0 0 0 10696737
0 0 0 10630945
0 0 0 10695965
0 0 0 10630689
0 0 0 10827042
0 0 0 10433053
0 0 0 10696223
-0.18973683 0.53279704 0.90148348 10957597
-0.184986 0.54490602 0.92197174 11417378
-0.18879539 0.58477724 0.98943311 11286049
-0.18354596 0.59939671 1.014169 11155234
-0.17802732 0.61476582 1.0401733 10957855
-0.16780236 0.61476582 1.0401733 10892576
-0.14989071 0.58477724 0.98943311 10892576
-0.13682728 0.57085395 0.96587515 10826783
-0.12733269 0.57085395 0.96587515 10826783
-0.12373 0.59939671 1.014169 10761503
-0.11376067 0.59939671 1.014169 10892832
-0.10379135 0.59939671 1.014169 10958112
-0.093822017 0.59939671 1.014169 11023392
-0.08600276 0.61476582 1.0401733 11023392
-0.075777814 0.61476582 1.0401733 11219999
-0.06555286 0.61476582 1.0401733 10564124
-0.055327911 0.61476582 1.0401733 10367261
-0.045102961 0.61476582 1.0401733 10629918
-0.037784513 0.66599631 1.1268544 10630175
-0.026707483 0.66599631 1.1268544 10629661
-0.015630454 0.66599631 1.1268544 10892574
-0.0043137693 0.63094383 1.0675462 11023390
0.0060217902 0.61476582 1.0401733 10892575
0.01624674 0.61476582 1.0401733 10957599
0.026471691 0.61476582 1.0401733 11219998
0.044724029 0.74924582 1.2677112 11088928
0 0 0 11088928
0 0 0 11088670
0 0 0 11286564
0 0 0 11154978
0 0 0 11024160
0 0 0 11089953
0.38387093 2.1796241 3.687887 11351585
0.42012301 2.1796241 3.687887 11089183
1.0040253 4.7951736 8.1133518 11417892
1.0837799 4.7951736 8.1133518 11220769
1.1635345 4.7951736 8.1133518 11286560
0.69071621 2.6639853 4.5074177 11483173
0.73502433 2.6639853 4.5074177 11548708
0.70139921 2.3975868 4.0566759 11352099
0.82364053 2.6639853 4.5074177 11417891
0.97644222 2.9969833 5.0708447 11813159
0.91225678 2.6639853 4.5074177 11877414
0.9565649 2.6639853 4.5074177 11418918
0.90078574 2.3975868 4.0566759 11614244
0.72358692 1.8442975 3.1205199 11548962
0.57678843 1.4103451 2.3862798 10892831
0.48591313 1.1417079 1.9317503 11221539
0.55804998 1.2618877 2.1350925 11221284
0.57903802 1.2618877 2.1350925 11417378
0.54288071 1.1417079 1.9317503 11483171
0.51301163 1.042429 1.763772 11548451
0.39348519 0.77341503 1.3086051 11220769
0.40634885 0.77341503 1.3086051 11548964
0.39380565 0.7265414 1.2292956 11090468
0.382696 0.6850248 1.1590502 11286820
0.37278739 0.64799637 1.0963988 11220771
0.48937607 0.82675397 1.3988537 11024675
0.50312686 0.82675397 1.3988537 11155746
0.4163737 0.66599631 1.1268544 11023390
0.43966359 0.6850248 1.1590502 11220769
0.54437923 0.82675397 1.3988537 11155492
0.770751 1.1417079 1.9317503 10958624
0.66338181 0.95903468 1.6226703 10827296
0.65320456 0.92214876 1.5602599 11024675
0.52673 0.7265414 1.2292956 11155749
0.50802469 0.6850248 1.1590502 10958371
0.51941818 0.6850248 1.1590502 10892835
0.54642379 0.70517254 1.1931399 10696739
0.57506615 0.7265414 1.2292956 10696480
0.66813642 0.82675397 1.3988537 11089953
0 0 0 11089955
0 0 0 11155748
0.85717809 0.99899441 1.6902815 11089955
0.87379366 0.99899441 1.6902815 11155748
1.0176105 1.1417079 1.9317503 10959139
1.8140495 1.9979888 3.380563 11155748
1.8472806 1.9979888 3.380563 11155746
1.8805116 1.9979888 3.380563 11286563
1.7665318 1.8442975 3.1205199 10827553
1.1125565 1.1417079 1.9317503 10958882
2.1602235 2.1796241 3.687887 11090212
0 0 0 10762016
0 0 0 10565412
0 0 0 10040610
0 0 0 10434341
2.1463604 1.9979888 3.380563 10761506
2.1795914 1.9979888 3.380563 10827042
1.6596169 1.4984916 2.5354223 10499876
1.2251202 1.089812 1.8439435 10434083
1.1396424 0.99899441 1.6902815 9909538
1.1562579 0.99899441 1.6902815 9581089
1.1728734 0.99899441 1.6902815 9253409
1.1419095 0.95903468 1.6226703 9647393
1.1133273 0.92214876 1.5602599 9777950
0.97817606 0.79919553 1.3522252 8989723
0.84983015 0.6850248 1.1590502 9450017
0.8612237 0.6850248 1.1590502 10237219
1.1311704 0.88799506 1.5024725 10434085
0.91001099 0.70517254 1.1931399 10303010
0.92173964 0.70517254 1.1931399 10171939
0.90679777 0.6850248 1.1590502 10171940
0.94519687 0.70517254 1.1931399 9974818
0.98592317 0.7265414 1.2292956 9712161
1.1762228 0.85628092 1.4488127 9711648
1.2820389 0.92214876 1.5602599 9646368
1.6865894 1.1987934 2.028338 9712159
1.6252646 1.1417079 1.9317503 9777184
1.0155686 0.70517254 1.1931399 10039328
1.0272971 0.70517254 1.1931399 10105120
1.0390258 0.70517254 1.1931399 9909794
1.0507544 0.70517254 1.1931399 9712417
1.0624831 0.70517254 1.1931399 10040610
1.04352 0.6850248 1.1590502 9909024
1.0859402 0.70517254 1.1931399 9777184
1.1309315 0.7265414 1.2292956 9712161
1.1430156 0.7265414 1.2292956 9712161
2.0062258 1.2618877 2.1350925 9842977
2.1398368 1.3319926 2.2537088 9646627
2.1619909 1.3319926 2.2537088 9515298
2.184145 1.3319926 2.2537088 9712163
2.2062991 1.3319926 2.2537088 9712676
1.6044862 0.95903468 1.6226703 9450018
1.6204371 0.95903468 1.6226703 9515811
1.2032264 0.70517254 1.1931399 9450018
1.2149551 0.70517254 1.1931399 9581091
1.2266837 0.70517254 1.1931399 9712415
1.4519317 0.82675397 1.3988537 9581602
1.4656825 0.82675397 1.3988537 9975333
1.383986 0.77341503 1.3086051 9778724
1.3968496 0.77341503 1.3086051 9844261
1.3656597 0.74924582 1.2677112 9976101
1.3781214 0.74924582 1.2677112 10041382
1.390583 0.74924582 1.2677112 9975333
1.3605281 0.7265414 1.2292956 9844515
1.3726121 0.7265414 1.2292956 9976101
1.3846962 0.7265414 1.2292956 10237989
1.3967803 0.7265414 1.2292956 9910567
1.4088643 0.7265414 1.2292956 9845028
1.465353 0.74924582 1.2677112 10041383
1.4778147 0.74924582 1.2677112 9778472
1.4902763 0.74924582 1.2677112 10040873
0 0 0 10172714
0 0 0 9844518
0 0 0 9976361
0 0 0 9910821
0 0 0 9713958
0 0 0 9844518
0 0 0 9713188
0 0 0 9910567
0 0 0 9845547
0 0 0 9583146
0 0 0 9911085
0 0 0 10107433
0 0 0 9384993
0 0 0 9450275
-1.4239842 0.71690118 1.1931399 9450016
-1.4122555 0.71690118 1.1931399 9581602
-0.73258334 0.37499446 0.62410396 9844260
-0.72644836 0.37499446 0.62410396 9909796
-0.72031337 0.37499446 0.62410396 9909794
-0.72533745 0.38085374 0.63385558 10041378
-0.73052102 0.38689905 0.64391679 9975331
-0.72419131 0.38689905 0.64391679 9910308
-0.74139798 0.39958426 0.66502881 10106403
-0.73486072 0.39958426 0.66502881 10040865
-0.72832346 0.39958426 0.66502881 10106143
-0.7217862 0.39958426 0.66502881 10106401
-1.0146555 0.56685209 0.94341296 10171681
-0.84767473 0.47793409 0.79542661 10303010
0 0 0 10106403
-0.92247534 0.52988344 0.88188601 10302499
-0.91380632 0.52988344 0.88188601 10040610
-0.80069846 0.46874309 0.78012997 10040096
-0.79302979 0.46874309 0.78012997 10040608
-0.78536105 0.46874309 0.78012997 9844001
-0.77769232 0.46874309 0.78012997 9712674
-0.83419222 0.50780499 0.84514076 9581089
-0.82588446 0.50780499 0.84514076 9974817
-0.78487366 0.4874928 0.81133515 10040610
-0.77689815 0.4874928 0.81133515 10040610
-0.96115345 0.609366 1.014169 9909794
0 0 0 9975330
0 0 0 10040354
0 0 0 10433570
0 0 0 10039327
0 0 0 10302499
-1.243224 0.84050477 1.3988537 10236705
-1.0804461 0.73862541 1.2292956 10040095
-1.0683621 0.73862541 1.2292956 10105374
-1.0892868 0.76170748 1.2677112 10039839
-1.0768251 0.76170748 1.2677112 10237219
-1.0643635 0.76170748 1.2677112 10433570
-1.0519018 0.76170748 1.2677112 10433570
-1.0394402 0.76170748 1.2677112 10301984
-1.1332177 0.84050477 1.3988537 10367777
-1.2486362 0.93748617 1.5602599 10302495
-1.0020552 0.76170748 1.2677112 10236961
-0.48718452 0.37499446 0.62410396 10368033
-0.48104957 0.37499446 0.62410396 10368288
-0.46771887 0.3693127 0.61464781 10302497
-0.46877962 0.37499446 0.62410396 10630948
-0.46264464 0.37499446 0.62410396 10565154
-0.45650968 0.37499446 0.62410396 10499361
-0.45037469 0.37499446 0.62410396 10565155
-0.44423974 0.37499446 0.62410396 10565667
-0.43810478 0.37499446 0.62410396 10564640
-0.43871933 0.38085374 0.63385558 10630433
-0.45375842 0.39958426 0.66502881 10630947
-0.44722116 0.39958426 0.66502881 10761503
-0.4406839 0.39958426 0.66502881 10631201
-0.43414664 0.39958426 0.66502881 10761761
-0.38931599 0.36380059 0.605474 10630434
-0.38917267 0.3693127 0.61464781 10630433
-0.38313067 0.3693127 0.61464781 10761249
-0.3714605 0.36380059 0.605474 11023650
-0.36550865 0.36380059 0.605474 10892321
-0.35955682 0.36380059 0.605474 10565408
-0.35360497 0.36380059 0.605474 10761761
-0.31057012 0.32499519 0.5408901 10762273
0 0 0 10828066
0 0 0 11024673
0 0 0 10959394
-0.41726285 0.46874309 0.78012997 11024675
-0.4176254 0.47793409 0.79542661 11156261
-0.37321645 0.4352614 0.72440636 11025443
-0.34748051 0.41312951 0.68757218 11025445
-0.34072164 0.41312951 0.68757218 10761760
-0.32839671 0.40624398 0.67611259 10433568
-0.32175046 0.40624398 0.67611259 10762019
-0.37071091 0.47793409 0.79542661 10893857
-0.37770376 0.49744162 0.82789302 10893602
-0.3772648 0.50780499 0.84514076 11024161
-0.36142731 0.49744162 0.82789302 10695453
-0.35328907 0.49744162 0.82789302 10630433
-0.33824784 0.4874928 0.81133515 10893089
-0.33027238 0.4874928 0.81133515 10959138
-0.32229689 0.4874928 0.81133515 11024162
-0.26193452 0.40624398 0.67611259 10563870
-0.2552883 0.40624398 0.67611259 11024161
-0.24456599 0.39958426 0.66502881 10827296
-0.24199587 0.40624398 0.67611259 10959393
-0.23149148 0.39958426 0.66502881 10959395
-0.22495422 0.39958426 0.66502881 10761760
-0.21841694 0.39958426 0.66502881 10827296
-0.21187969 0.39958426 0.66502881 11220769
-0.20534243 0.39958426 0.66502881 10892833
-0.19880515 0.39958426 0.66502881 10761760
-0.19226789 0.39958426 0.66502881 10696738
-0.18573064 0.39958426 0.66502881 10696226
-0.18217991 0.40624398 0.67611259 10564897
-0.1755337 0.40624398 0.67611259 10696222
0 0 0 10958882
0 0 0 10695456
0 0 0 10433568
-0.2179739 0.5945034 0.98943311 10892833
-0.18973683 0.54165864 0.90148348 10827037
-0.184986 0.55396909 0.92197174 11024162
-0.18879539 0.5945034 0.98943311 11024162
-0.17906922 0.5945034 0.98943311 10958369
-0.17357664 0.609366 1.014169 11089440
-0.15961687 0.5945034 0.98943311 11220256
-0.14989071 0.5945034 0.98943311 11220771
-0.13682728 0.58034855 0.96587515 11154976
-0.12733269 0.58034855 0.96587515 11023905
-0.11783808 0.58034855 0.96587515 10826527
-0.10834349 0.58034855 0.96587515 10892577
-0.094355762 0.55396909 0.92197174 10893088
-0.093822017 0.609366 1.014169 11023905
-0.083852693 0.609366 1.014169 11221539
-0.075777814 0.62499076 1.0401733 11089185
-0.06555286 0.62499076 1.0401733 10761503
-0.055327911 0.62499076 1.0401733 10629917
-0.043975387 0.609366 1.014169 10630431
-0.034006059 0.609366 1.014169 10433311
-0.02465306 0.62499076 1.0401733 10301982
-0.01442811 0.62499076 1.0401733 10826783
-0.0042031598 0.62499076 1.0401733 11023392
0.0060217902 0.62499076 1.0401733 10760990
0.01624674 0.62499076 1.0401733 10826783
0.026471691 0.62499076 1.0401733 11089185
0 0 0 11154208
0 0 0 11023904
0 0 0 11089185
0 0 0 10892576
0 0 0 10893089
0 0 0 10827296
0.3186506 2.03122 3.380563 11089699
0.35188168 2.03122 3.380563 11024162
0.42012301 2.2158763 3.687887 11155233
1.0040253 4.874928 8.1133518 11221026
0.67736244 3.0468299 5.0708447 11286305
0.64640808 2.7082934 4.5074177 11220771
0.69071621 2.7082934 4.5074177 11089696
0.73502433 2.7082934 4.5074177 11155748
0.77933246 2.7082934 4.5074177 11221026
0.92659557 3.0468299 5.0708447 11287074
0.97644222 3.0468299 5.0708447 11682342
1.0262889 3.0468299 5.0708447 11746082
0.9565649 2.7082934 4.5074177 11680550
0.90078574 2.437464 4.0566759 11877927
0.55333114 1.4338024 2.3862798 11352098
0.40855846 1.01561 1.6902815 11156004
0.48591313 1.1606971 1.9317503 11221541
0.5049023 1.1606971 1.9317503 11221539
0.55008614 1.218732 2.028338 11351585
0.54288071 1.1606971 1.9317503 11024417
0.51301163 1.0597669 1.763772 11089696
0.45177931 0.90276444 1.5024725 11483684
0.46654868 0.90276444 1.5024725 11483171
0.39380565 0.73862541 1.2292956 11023904
0.46187449 0.84050477 1.3988537 11090466
0.47562528 0.84050477 1.3988537 10893089
0.48937607 0.84050477 1.3988537 11023392
0.50312686 0.84050477 1.3988537 10958369
0.49964839 0.81248796 1.3522252 11417635
0.54957944 0.8705228 1.4488127 11285279
0.75176179 1.1606971 1.9317503 10891808
0.80928862 1.218732 2.028338 11024420
0.82922727 1.218732 2.028338 11154463
0.67933273 0.9749856 1.6226703 10761505
0.66854197 0.93748617 1.5602599 10630687
0.55565202 0.76170748 1.2677112 10696226
0.55089808 0.73862541 1.2292956 10761761
0.56298208 0.73862541 1.2292956 10564897
0.65438563 0.84050477 1.3988537 10828066
0.8073315 1.01561 1.6902815 10564894
0.82394701 1.01561 1.6902815 10631201
0.84056258 1.01561 1.6902815 10893602
0.822891 0.9749856 1.6226703 11090212
0.91178471 1.0597669 1.763772 11024419
1.0176105 1.1606971 1.9317503 11221541
1.0365998 1.1606971 1.9317503 10893861
1.8472806 2.03122 3.380563 11024675
1.8805116 2.03122 3.380563 10761503
1.7665318 1.8749723 3.1205199 10827812
1.7972068 1.8749723 3.1205199 11024418
2.1602235 2.2158763 3.687887 11089955
0 0 0 10762019
0 0 0 10696226
2.0798981 2.03122 3.380563 10368032
2.1131291 2.03122 3.380563 10630951
1.9812558 1.8749723 3.1205199 10564897
1.6346936 1.523415 2.5354223 11089955
1.6596169 1.523415 2.5354223 10827557
1.6845403 1.523415 2.5354223 10827296
1.6089069 1.4338024 2.3862798 10368290
1.3875096 1.218732 2.028338 9581089
1.6558213 1.4338024 2.3862798 9122336
1.189489 1.01561 1.6902815 8990750
1.2061045 1.01561 1.6902815 8205861
1.1286647 0.93748617 1.5602599 7417117
1.2393357 1.01561 1.6902815 7745312
1.3701285 1.1079382 1.8439435 9122594
0 0 0 10368292
1.4733511 1.1606971 1.9317503 10368547
0.97934836 0.76170748 1.2677112 10171426
0.90679777 0.69641829 1.1590502 10172196
0.91819125 0.69641829 1.1590502 10106148
0.95692545 0.71690118 1.1931399 9843232
0.99800724 0.73862541 1.2292956 9843488
1.0100912 0.73862541 1.2292956 10170914
1.2973764 0.93748617 1.5602599 10170913
1.0342593 0.73862541 1.2292956 9973791
1.0463433 0.73862541 1.2292956 9711905
1.0272971 0.71690118 1.1931399 9777955
1.0390258 0.71690118 1.1931399 9646368
1.0507544 0.71690118 1.1931399 9844001
1.0034562 0.67707336 1.1268544 9778211
1.0145333 0.67707336 1.1268544 9777439
1.0549134 0.69641829 1.1590502 9580832
1.0976689 0.71690118 1.1931399 9580834
1.0777005 0.69641829 1.1590502 9712418
1.1550996 0.73862541 1.2292956 9843231
1.1671836 0.73862541 1.2292956 9908257
2.1619909 1.3541467 2.2537088 9908257
2.184145 1.3541467 2.2537088 9580577
1.5274378 0.93748617 1.5602599 9646368
1.2155198 0.73862541 1.2292956 9646369
1.2276038 0.73862541 1.2292956 9515300
1.1688486 0.69641829 1.1590502 9384226
1.1802421 0.69641829 1.1590502 9384738
1.1916356 0.69641829 1.1590502 9516323
1.2759399 0.73862541 1.2292956 9778465
1.3282747 0.76170748 1.2677112 9910308
1.3407364 0.76170748 1.2677112 9844774
1.3531981 0.76170748 1.2677112 9844772
1.3656597 0.76170748 1.2677112 9909792
1.3781214 0.76170748 1.2677112 10370345
1.390583 0.76170748 1.2677112 10173224
1.3605281 0.73862541 1.2292956 9976358
1.3726121 0.73862541 1.2292956 9910821
1.3846962 0.73862541 1.2292956 10369832
1.3967803 0.73862541 1.2292956 10501159
0 0 0 10435367
0 0 0 10172454
0 0 0 10107177
1.4451164 0.73862541 1.2292956 9909542
0 0 0 10171942
0 0 0 10173226
0 0 0 9976360
0 0 0 9844774
0 0 0 9910567
0 0 0 9779751
0 0 0 9845033
0 0 0 9975849
0 0 0 10173228
0 0 0 9780010
0 0 0 9648426
0 0 0 9713960
0 0 0 9582114
0 0 0 9581602
0 0 0 9515809
-0.72752553 0.37535471 0.61464781 9712675
-0.71071517 0.36975244 0.605474 9581089
-0.71544152 0.37535471 0.61464781 9844515
-0.72031337 0.38112941 0.62410396 9712929
-0.71417844 0.38112941 0.62410396 9910052
-0.70804346 0.38112941 0.62410396 9909539
-0.71287578 0.38708457 0.63385558 9975330
-0.72943997 0.39957118 0.65430254 9975072
-0.72300816 0.39957118 0.65430254 10106145
-0.71657634 0.39957118 0.65430254 10171681
-0.7217862 0.40612152 0.66502881 10040608
-0.71524894 0.40612152 0.66502881 10237476
-0.70871168 0.40612152 0.66502881 10236704
0 0 0 9974815
-0.75774759 0.44238237 0.72440636 9975587
-0.80836719 0.47641179 0.78012997 9909794
-0.74350572 0.44238237 0.72440636 9909794
-0.76365829 0.45876691 0.75123626 9778722
-0.77054286 0.46742287 0.76541048 9844258
-0.74888891 0.45876691 0.75123626 10040867
-0.77002364 0.47641179 0.78012997 9712675
-0.61941338 0.38708457 0.63385558 9581089
-0.60374898 0.38112941 0.62410396 9908770
-0.59761399 0.38112941 0.62410396 9712159
-0.73934877 0.47641179 0.78012997 9646368
0 0 0 10039840
0 0 0 10236704
0 0 0 10040097
0 0 0 10170914
0 0 0 10236961
-1.243224 0.85425556 1.3988537 10105376
-1.0486684 0.72862977 1.1931399 10105375
-1.0683621 0.75070941 1.2292956 9973789
-1.0892868 0.77416915 1.2677112 10171681
-1.4357668 1.0322255 1.6902815 10172196
-1.0643635 0.77416915 1.2677112 10237217
-1.0519018 0.77416915 1.2677112 10302239
-1.3859202 1.0322255 1.6902815 10171424
-1.3693047 1.0322255 1.6902815 10171681
-1.0145168 0.77416915 1.2677112 10171425
-0.49331948 0.38112941 0.62410396 10499875
-0.47980291 0.37535471 0.61464781 10303010
-0.4737609 0.37535471 0.61464781 10171425
-0.46771887 0.37535471 0.61464781 10237475
-0.46877962 0.38112941 0.62410396 10368290
-0.46264464 0.38112941 0.62410396 10499361
-0.44959283 0.37535471 0.61464781 10565154
-0.45037469 0.38112941 0.62410396 10499361
-0.44423974 0.38112941 0.62410396 10433826
-0.43810478 0.38112941 0.62410396 10565669
-0.43871933 0.38708457 0.63385558 10565154
-0.45375842 0.40612152 0.66502881 10631205
-0.44722116 0.40612152 0.66502881 10696226
-0.43357608 0.39957118 0.65430254 10696740
-0.39526781 0.36975244 0.605474 10958628
-0.38931599 0.36975244 0.605474 10564894
-0.38336414 0.36975244 0.605474 10761760
-0.37741232 0.36975244 0.605474 11154976
-0.36599782 0.36431488 0.59656996 10827295
-0.36550865 0.36975244 0.605474 10958367
-0.35955682 0.36975244 0.605474 10499361
-0.36448511 0.38112941 0.62410396 10761249
-0.31476703 0.33477584 0.54819942 10761249
0 0 0 10696994
0 0 0 11089953
0 0 0 10893600
-0.40938994 0.46742287 0.76541048 10893605
-0.38033739 0.44238237 0.72440636 10958882
-0.35423937 0.41988838 0.68757218 11024930
-0.34168914 0.4128902 0.67611259 11221797
-0.33504292 0.4128902 0.67611259 11221796
-0.32839671 0.4128902 0.67611259 11025445
-0.37853 0.48575318 0.79542661 10565409
-0.38584197 0.50557983 0.82789302 10630689
-0.37770376 0.50557983 0.82789302 10499615
-0.36956552 0.50557983 0.82789302 10827296
-0.35419875 0.49546826 0.81133515 11024162
-0.35328907 0.50557983 0.82789302 10761504
-0.33824784 0.49546826 0.81133515 10826529
-0.31756958 0.47641179 0.78012997 10893089
-0.26858073 0.4128902 0.67611259 10826784
-0.25348502 0.39957118 0.65430254 10826781
-0.24705321 0.39957118 0.65430254 11154977
-0.24062139 0.39957118 0.65430254 11023649
-0.23802873 0.40612152 0.66502881 11024162
-0.23149148 0.40612152 0.66502881 10827296
-0.22495422 0.40612152 0.66502881 10762273
-0.21841694 0.40612152 0.66502881 10893089
-0.21187969 0.40612152 0.66502881 11023391
-0.20534243 0.40612152 0.66502881 11089955
-0.19249389 0.39322877 0.64391679 10959139
-0.1891668 0.39957118 0.65430254 10893859
-0.18573064 0.40612152 0.66502881 10696228
-0.17919336 0.40612152 0.66502881 10630433
-0.1755337 0.4128902 0.67611259 10828066
0 0 0 10828066
0 0 0 10302495
0 0 0 10433568
-0.21278405 0.58984315 0.96587515 10892835
-0.18973683 0.55052024 0.90148348 10827296
-0.1808752 0.55052024 0.90148348 10695710
-0.17201358 0.55052024 0.90148348 10958111
-0.17906922 0.60422957 0.98943311 11023648
-0.16934305 0.60422957 0.98943311 10892575
-0.15961687 0.60422957 0.98943311 11220513
-0.14989071 0.60422957 0.98943311 10957597
-0.13364525 0.57612586 0.94341296 11220771
-0.12154484 0.56303209 0.92197174 10760988
-0.11248181 0.56303209 0.92197174 10891806
-0.10341879 0.56303209 0.92197174 10892576
-0.094355762 0.56303209 0.92197174 11089185
-0.089354299 0.58984315 0.96587515 10892832
-0.083852693 0.61933535 1.014169 11024162
-0.07388337 0.61933535 1.014169 11023392
-0.063914038 0.61933535 1.014169 10958369
-0.052628987 0.60422957 0.98943311 10630433
-0.042902816 0.60422957 0.98943311 10695966
-0.034006059 0.61933535 1.014169 10564639
-0.024036733 0.61933535 1.014169 10564126
-0.014067408 0.61933535 1.014169 10826527
-0.0042031598 0.6352157 1.0401733 10695455
0.0060217902 0.6352157 1.0401733 10630175
0.015840571 0.61933535 1.014169 10826782
0.025809899 0.61933535 1.014169 10892575
0.036696639 0.6352157 1.0401733 10826782
0 0 0 11220257
0 0 0 10892575
0 0 0 10892576
0 0 0 10630433
0 0 0 10892835
0 0 0 10892576
0 0 0 11286048
0.57766914 3.0966766 5.0708447 11155233
0.62751579 3.0966766 5.0708447 11286049
0.4926272 2.2521284 3.687887 11220769
0.58176726 2.4773414 4.0566759 11351585
0.62164456 2.4773414 4.0566759 11285794
0.73502433 2.7526016 4.5074177 11089953
0.77933246 2.7526016 4.5074177 11221026
0.92659557 3.0966766 5.0708447 11221025
0.97644222 3.0966766 5.0708447 11287076
1.0262889 3.0966766 5.0708447 11221026
1.0761355 3.0966766 5.0708447 11483171
0.90078574 2.4773414 4.0566759 11352866
0.39194289 1.0322255 1.6902815 11549475
0.40855846 1.0322255 1.6902815 11811875
0.46382618 1.1260642 1.8439435 11614755
0.5049023 1.1796863 1.9317503 11418660
0.52389151 1.1796863 1.9317503 11221539
0.54288071 1.1796863 1.9317503 11286307
0.56186992 1.1796863 1.9317503 11221539
0.45177931 0.91753381 1.5024725 11417378
0.4343729 0.85425556 1.3988537 11548962
0.4061121 0.77416915 1.2677112 11089442
0.46187449 0.85425556 1.3988537 10958369
0.47562528 0.85425556 1.3988537 11154979
0.48937607 0.85425556 1.3988537 11089955
0.48635596 0.82578039 1.3522252 10958882
0.49964839 0.82578039 1.3522252 11024162
0.56993431 0.91753381 1.5024725 10958111
0.58470368 0.91753381 1.5024725 11088928
0.770751 1.1796863 1.9317503 10893089
0.66338181 0.99093652 1.6226703 10630687
0.65320456 0.95282358 1.5602599 10761762
0.62078893 0.88476473 1.4488127 10695968
0.59269542 0.82578039 1.3522252 10630432
0.60598785 0.82578039 1.3522252 10761249
0.61928028 0.82578039 1.3522252 10826529
0.75908732 0.99093652 1.6226703 10958886
0.8073315 1.0322255 1.6902815 10433570
0.82394701 1.0322255 1.6902815 10237985
0.84056258 1.0322255 1.6902815 10434335
0.822891 0.99093652 1.6226703 10434081
0.87379366 1.0322255 1.6902815 10696739
0.92912263 1.0771049 1.763772 10696481
0.9464606 1.0771049 1.763772 10893859
0.67173839 0.75070941 1.2292956 10762787
0.75220466 0.82578039 1.3522252 10828068
1.0935673 1.1796863 1.9317503 10499361
1.7972068 1.9056472 3.1205199 10696483
1.9802049 2.064451 3.380563 10762019
0 0 0 10762019
1.8892312 1.9056472 3.1205199 10433568
1.9199061 1.9056472 3.1205199 10762016
1.950581 1.9056472 3.1205199 10827296
1.9812558 1.9056472 3.1205199 11024676
2.0119307 1.9056472 3.1205199 11024675
1.6596169 1.5483383 2.5354223 10892835
1.6845403 1.5483383 2.5354223 10827296
1.3675709 1.2386707 2.028338 10565153
1.3875096 1.2386707 2.028338 10368803
0 0 0 10041380
0 0 0 9844003
0 0 0 8991780
1.1286647 0.95282358 1.5602599 8074018
1.3520025 1.1260642 1.8439435 7745567
1.3701285 1.1260642 1.8439435 8073251
0 0 0 9909027
0 0 0 10237474
1.4923403 1.1796863 1.9317503 10237474
0.93346822 0.72862977 1.1931399 9844515
0.91819125 0.70781177 1.1590502 10040610
0.95692545 0.72862977 1.1931399 10040357
1.1356634 0.85425556 1.3988537 9909542
1.1494142 0.85425556 1.3988537 10105893
0.99211133 0.72862977 1.1931399 10171683
1.00384 0.72862977 1.1931399 10040356
1.0155686 0.72862977 1.1931399 9580829
1.0272971 0.72862977 1.1931399 9908770
1.0390258 0.72862977 1.1931399 9777441
1.0207329 0.70781177 1.1590502 9514782
1.0034562 0.68815041 1.1268544 9777954
1.04352 0.70781177 1.1590502 9908515
1.0549134 0.70781177 1.1590502 9646369
1.0663069 0.70781177 1.1590502 9581091
1.0777005 0.70781177 1.1590502 9844005
1.1550996 0.75070941 1.2292956 9777953
1.3756093 0.88476473 1.4488127 9711132
2.0482018 1.3038639 2.1350925 9581089
1.156312 0.72862977 1.1931399 9449505
1.1680406 0.72862977 1.1931399 9515042
1.1797693 0.72862977 1.1931399 9580575
1.1574551 0.70781177 1.1590502 9908257
1.1688486 0.70781177 1.1590502 9646369
1.1802421 0.70781177 1.1590502 9514782
1.1916356 0.70781177 1.1590502 9450018
1.2384124 0.72862977 1.1931399 9384995
1.2880239 0.75070941 1.2292956 9450787
1.300108 0.75070941 1.2292956 9647909
1.312192 0.75070941 1.2292956 9910310
1.3656597 0.77416915 1.2677112 10041382
1.3781214 0.77416915 1.2677112 9975846
1.3484441 0.75070941 1.2292956 10370345
1.3605281 0.75070941 1.2292956 10435881
1.3726121 0.75070941 1.2292956 10107943
1.3846962 0.75070941 1.2292956 9976101
0 0 0 10304298
0 0 0 10501417
0 0 0 10172966
0 0 0 10041894
0 0 0 10041641
0 0 0 9976105
0 0 0 9910569
0 0 0 9910569
0 0 0 9844519
0 0 0 9975847
0 0 0 10107688
0 0 0 9779236
0 0 0 9779497
0 0 0 9976362
0 0 0 9976362
0 0 0 9713446
0 0 0 9844516
0 0 0 9647649
0 0 0 9647650
-1.0086554 0.5244205 0.84514076 9450529
-0.716667 0.37570426 0.605474 9647395
-0.71071517 0.37570426 0.605474 9581602
-0.70476335 0.37570426 0.605474 9515809
-0.72031337 0.3872644 0.62410396 9844004
-0.71417844 0.3872644 0.62410396 10041380
-0.70804346 0.3872644 0.62410396 9909794
-0.71287578 0.3933154 0.63385558 9909794
-0.72943997 0.406003 0.65430254 9909536
-0.72300816 0.406003 0.65430254 9909793
-0.71657634 0.406003 0.65430254 10105889
-0.71014446 0.406003 0.65430254 10171682
-0.71524894 0.41265878 0.66502881 9909536
-0.70871168 0.41265878 0.66502881 9843743
-0.75144982 0.44161731 0.71169752 10040610
-0.74445379 0.44161731 0.71169752 10040353
-0.73745781 0.44161731 0.71169752 9909023
-0.74350572 0.4495033 0.72440636 9909281
-0.73638475 0.4495033 0.72440636 9843487
-0.74252313 0.45767608 0.73757738 9975076
-0.73527271 0.45767608 0.73757738 9778468
-0.74150425 0.4661516 0.75123626 9450016
-0.6098839 0.3872644 0.62410396 9646111
-0.60374898 0.3872644 0.62410396 9908511
-0.59761399 0.3872644 0.62410396 9909794
-0.591479 0.3872644 0.62410396 10105632
-0.59449005 0.3933154 0.63385558 9909024
-0.59759665 0.39955851 0.64391679 9974302
0 0 0 9908511
0 0 0 10105889
-0.71475041 0.49357226 0.79542661 10236704
-0.75111449 0.5244205 0.84514076 9908511
-0.93828225 0.66242594 1.0675462 10039840
0 0 0 10040097
0 0 0 10040095
0 0 0 10236705
-1.3623853 1.0068874 1.6226703 10105118
0 0 0 10236189
0 0 0 10236961
0 0 0 10170911
-0.49945447 0.3872644 0.62410396 10367777
-0.49331948 0.3872644 0.62410396 10368288
-0.48718452 0.3872644 0.62410396 10171936
-0.48104957 0.3872644 0.62410396 10302497
-0.46771887 0.38139674 0.61464781 10302498
-0.46167687 0.38139674 0.61464781 10303012
-0.45563486 0.38139674 0.61464781 10499876
-0.44959283 0.38139674 0.61464781 10367775
-0.45037469 0.3872644 0.62410396 10499876
-0.44423974 0.3872644 0.62410396 10499619
-0.43810478 0.3872644 0.62410396 10499874
-0.43871933 0.3933154 0.63385558 10499618
-0.4324885 0.3933154 0.63385558 10827042
-0.42625767 0.3933154 0.63385558 10565154
-0.40729871 0.38139674 0.61464781 10958626
-0.40125671 0.38139674 0.61464781 11090468
-0.38931599 0.37570426 0.605474 10695968
-0.38336414 0.37570426 0.605474 10368029
-0.37186214 0.37017921 0.59656996 10827296
-0.36599782 0.37017921 0.59656996 10695710
-0.3601335 0.37017921 0.59656996 10630944
-0.35955682 0.37570426 0.605474 10695713
-0.36448511 0.3872644 0.62410396 10498847
0 0 0 10696482
0 0 0 10761248
0 0 0 10630432
0 0 0 10696480
0 0 0 10959139
-0.36099821 0.42664722 0.68757218 10959140
-0.34262493 0.41265878 0.66502881 11024675
-0.33608767 0.41265878 0.66502881 11353125
-0.33504292 0.41953641 0.67611259 11024931
-0.32839671 0.41953641 0.67611259 10958882
-0.32175046 0.41953641 0.67611259 11024675
0 0 0 10762530
-0.37014967 0.50344372 0.81133515 10826783
-0.36217421 0.50344372 0.81133515 10630945
-0.35419875 0.50344372 0.81133515 10629663
-0.34622329 0.50344372 0.81133515 10433570
-0.31910172 0.47494689 0.76541048 10564639
-0.27522695 0.41953641 0.67611259 10761504
-0.25991684 0.406003 0.65430254 10695968
-0.24946146 0.39955851 0.64391679 11024162
-0.2393328 0.3933154 0.63385558 10761249
-0.23310196 0.3933154 0.63385558 10892576
-0.22687113 0.3933154 0.63385558 10826783
-0.23149148 0.41265878 0.66502881 10827295
-0.22495422 0.41265878 0.66502881 11024162
-0.21841694 0.41265878 0.66502881 10565151
-0.21187969 0.41265878 0.66502881 10762019
-0.20534243 0.41265878 0.66502881 10762273
-0.19249389 0.39955851 0.64391679 10827553
-0.1891668 0.406003 0.65430254 10827039
-0.18273498 0.406003 0.65430254 10696480
-0.17919336 0.41265878 0.66502881 10696480
-0.1726561 0.41265878 0.66502881 10696224
0 0 0 10630944
0 0 0 10302495
0 0 0 10433569
-0.19859844 0.5593819 0.90148348 10761506
-0.18973683 0.5593819 0.90148348 10892833
-0.1808752 0.5593819 0.90148348 10761503
-0.17201358 0.5593819 0.90148348 10826529
-0.16685995 0.5720951 0.92197174 10630687
-0.16934305 0.61395574 0.98943311 10892835
-0.15961687 0.61395574 0.98943311 10761248
-0.14291905 0.58539969 0.94341296 10760736
-0.12770545 0.5593819 0.90148348 10892578
-0.11884384 0.5593819 0.90148348 10892322
-0.10998221 0.5593819 0.90148348 10826270
-0.10341879 0.5720951 0.92197174 10826783
-0.094355762 0.5720951 0.92197174 10761246
-0.087276295 0.58539969 0.94341296 10761247
-0.081807502 0.61395574 0.98943311 10629917
-0.072081327 0.61395574 0.98943311 11285794
-0.06087051 0.59933776 0.96587515 10761503
-0.051375914 0.59933776 0.96587515 10564894
-0.041881319 0.59933776 0.96587515 10498847
-0.033176642 0.61395574 0.98943311 10433568
-0.024036733 0.62930465 1.014169 10433311
-0.014067408 0.62930465 1.014169 10367775
-0.004098081 0.62930465 1.014169 10629917
0.0058712456 0.62930465 1.014169 10433054
0.015840571 0.62930465 1.014169 10630433
0.025809899 0.62930465 1.014169 10760990
0.036696639 0.6454407 1.0401733 10761503
0 0 0 10630175
0 0 0 10629917
0 0 0 10760990
0 0 0 10827042
0 0 0 11089953
0 0 0 10827296
0 0 0 11154976
0.57766914 3.1465232 5.0708447 11286562
0.62751579 3.1465232 5.0708447 11286049
0.45157495 2.097682 3.380563 11219999
0.52887928 2.2883804 3.687887 11024162
0.62164456 2.5172186 4.0566759 11351585
0.73502433 2.7969096 4.5074177 11154719
0.87674892 3.1465232 5.0708447 11286564
0.92659557 3.1465232 5.0708447 11548964
0.97644222 3.1465232 5.0708447 11483169
1.0262889 3.1465232 5.0708447 11286562
1.0761355 3.1465232 5.0708447 11220771
0.40944803 1.1441902 1.8439435 11549219
0.39194289 1.048841 1.6902815 11615269
0.40855846 1.048841 1.6902815 11747365
0.46382618 1.1441902 1.8439435 11812388
0.5049023 1.1986755 1.9317503 11483940
0.55008614 1.2586093 2.028338 11222053
0.57002479 1.2586093 2.028338 11418148
0.56186992 1.1986755 1.9317503 11483171
0.42062211 0.86800635 1.3988537 11155233
0.37049454 0.74035841 1.1931399 11155489
0.38222316 0.74035841 1.1931399 10892576
0.39395177 0.74035841 1.1931399 10827042
0.38314262 0.69922739 1.1268544 11024162
0.39421964 0.69922739 1.1268544 11154976
0.40529668 0.69922739 1.1268544 11024162
0.55516493 0.93230319 1.5024725 10695456
0.56993431 0.93230319 1.5024725 11023905
0.65779161 1.048841 1.6902815 11089185
0.770751 1.1986755 1.9317503 10892834
0.7897402 1.1986755 1.9317503 10695711
0.60654706 0.89900661 1.4488127 10629663
0.5993824 0.86800635 1.3988537 10563870
0.61313319 0.86800635 1.3988537 10695711
0.62688398 0.86800635 1.3988537 10499106
0.64063483 0.86800635 1.3988537 10761250
0.65438563 0.86800635 1.3988537 10695456
0.77503824 1.0068874 1.6226703 10892835
0.79098916 1.0068874 1.6226703 10499104
0.80694008 1.0068874 1.6226703 10368288
0.822891 1.0068874 1.6226703 10368288
0.91178471 1.0944428 1.763772 10564640
0.85479283 1.0068874 1.6226703 10237472
0.65965432 0.76279348 1.2292956 10434595
0.67173839 0.76279348 1.2292956 10631460
0.75220466 0.83907282 1.3522252 10499874
1.3508773 1.4807168 2.3862798 10761249
1.4602304 1.5732616 2.5354223 10630946
1.8278816 1.936322 3.1205199 10433568
1.8585564 1.936322 3.1205199 10761505
1.7542861 1.7980132 2.8976254 10696226
1.5599236 1.5732616 2.5354223 10827298
1.4916207 1.4807168 2.3862798 11024162
1.5150779 1.4807168 2.3862798 10763300
1.4530611 1.3984548 2.2537088 11024676
1.4752151 1.3984548 2.2537088 10762533
1.3476323 1.2586093 2.028338 10565154
1.3675709 1.2586093 2.028338 10958882
0.73026818 0.66242594 1.0675462 10695970
0.74076217 0.66242594 1.0675462 10827813
0 0 0 10893605
0 0 0 10565923
1.1286647 0.96816099 1.5602599 9779236
1.2393357 1.048841 1.6902815 9319715
1.3701285 1.1441902 1.8439435 9647397
0 0 0 9845032
0 0 0 10565156
0 0 0 10237474
0 0 0 10172194
0 0 0 10105889
1.6267734 1.2586093 2.028338 10040356
1.029195 0.78663081 1.2677112 10040356
1.0100912 0.76279348 1.2292956 9974819
0.99211133 0.74035841 1.1931399 9909024
1.0342593 0.76279348 1.2292956 10105890
1.0463433 0.76279348 1.2292956 9712418
1.0584273 0.76279348 1.2292956 9843747
1.0093393 0.71920532 1.1590502 10040356
1.0207329 0.71920532 1.1590502 9908513
1.0321264 0.71920532 1.1590502 9711393
1.04352 0.71920532 1.1590502 9777186
1.0549134 0.71920532 1.1590502 9974563
1.2869221 0.86800635 1.3988537 9712162
1.3006729 0.86800635 1.3988537 9842977
1.3144237 0.86800635 1.3988537 9646882
1.8341458 1.1986755 1.9317503 9777953
1.853135 1.1986755 1.9317503 9712417
1.1913517 0.76279348 1.2292956 9449505
1.1680406 0.74035841 1.1931399 9842466
1.1797693 0.74035841 1.1931399 9580577
1.1574551 0.71920532 1.1590502 9711393
1.1688486 0.71920532 1.1590502 9384223
1.1474576 0.69922739 1.1268544 9318175
1.2266837 0.74035841 1.1931399 9187362
1.2384124 0.74035841 1.1931399 8991266
1.2501409 0.74035841 1.1931399 9122336
1.300108 0.76279348 1.2292956 9253409
1.312192 0.76279348 1.2292956 9450018
1.3242761 0.76279348 1.2292956 9647397
1.3781214 0.78663081 1.2677112 9975590
1.3484441 0.76279348 1.2292956 9976101
1.3605281 0.76279348 1.2292956 10435366
1.3726121 0.76279348 1.2292956 10172965
1.3846962 0.76279348 1.2292956 10107430
1.3967803 0.76279348 1.2292956 10172714
0 0 0 10369323
0 0 0 10041640
0 0 0 9975847
0 0 0 9976360
0 0 0 9976360
0 0 0 9976104
0 0 0 9975848
0 0 0 9975849
0 0 0 10041899
0 0 0 9844263
0 0 0 9648165
0 0 0 9778983
0 0 0 9647909
0 0 0 9779495
0 0 0 9910570
0 0 0 9910827
0 0 0 9188129
0 0 0 9253920
-1.0086554 0.53272831 0.84514076 9516322
-0.70612776 0.3760435 0.59656996 9515809
-0.71071517 0.38165611 0.605474 9713188
-0.70476335 0.38165611 0.605474 9647395
-0.70939952 0.38743874 0.61464781 9844515
-0.70335746 0.38743874 0.61464781 9778722
-0.70804346 0.39339936 0.62410396 9844001
-0.70190847 0.39339936 0.62410396 10106401
-0.70664495 0.39954624 0.63385558 9975585
-0.72300816 0.41243482 0.65430254 9974815
-0.71657634 0.41243482 0.65430254 9712159
-0.71014446 0.41243482 0.65430254 9581343
-0.71524894 0.41919604 0.66502881 9844001
-0.75844586 0.44861332 0.71169752 10040610
-0.75144982 0.44861332 0.71169752 9909537
-0.74445379 0.44861332 0.71169752 9844001
-0.73745781 0.44861332 0.71169752 9712415
-0.73046178 0.44861332 0.71169752 10040608
-0.73638475 0.45662424 0.72440636 9909792
-0.74252313 0.46492651 0.73757738 9647136
-0.73527271 0.46492651 0.73757738 9646625
-0.61601889 0.39339936 0.62410396 9646625
-0.6098839 0.39339936 0.62410396 9581343
-0.60374898 0.39339936 0.62410396 9909022
-0.59761399 0.39339936 0.62410396 9843487
-0.591479 0.39339936 0.62410396 9712415
-0.59449005 0.39954624 0.63385558 9777438
-0.58825922 0.39954624 0.63385558 9908768
-0.58202839 0.39954624 0.63385558 9777438
-0.58493721 0.40588823 0.64391679 9843231
-0.58793986 0.41243482 0.65430254 10040095
-0.70693129 0.50139135 0.79542661 9974304
-0.74280673 0.53272831 0.84514076 10039327
0 0 0 9842718
0 0 0 9842975
0 0 0 10040609
0 0 0 10236702
0 0 0 10236703
0 0 0 9908509
-0.52163988 0.40588823 0.64391679 10171424
-0.49945447 0.39339936 0.62410396 10367775
-0.49331948 0.39339936 0.62410396 10302240
-0.48718452 0.39339936 0.62410396 10302495
-0.48104957 0.39339936 0.62410396 10237217
-0.46771887 0.38743874 0.61464781 10368290
-0.46167687 0.38743874 0.61464781 10302497
-0.45563486 0.38743874 0.61464781 10434083
-0.44959283 0.38743874 0.61464781 10302241
-0.44355083 0.38743874 0.61464781 10564641
-0.44423974 0.39339936 0.62410396 10499361
-0.43810478 0.39339936 0.62410396 10434339
-0.43196979 0.39339936 0.62410396 10564897
-0.41938275 0.38743874 0.61464781 10499361
-0.41334075 0.38743874 0.61464781 10630945
-0.40729871 0.38743874 0.61464781 11024417
-0.40125671 0.38743874 0.61464781 10564896
-0.38931599 0.38165611 0.605474 10696483
-0.38336414 0.38165611 0.605474 10564894
-0.37186214 0.3760435 0.59656996 10630687
-0.36599782 0.3760435 0.59656996 10433568
-0.3601335 0.3760435 0.59656996 10433568
-0.35426921 0.3760435 0.59656996 10762019
-0.35360497 0.38165611 0.605474 10762019
-0.31476703 0.34555349 0.54819942 10827042
-0.38156644 0.42618263 0.67611259 10827042
0 0 0 10958371
0 0 0 10630687
0 0 0 10564383
-0.36099821 0.43340608 0.68757218 10564640
-0.35423937 0.43340608 0.68757218 10958882
-0.34748051 0.43340608 0.68757218 11024417
-0.34072164 0.43340608 0.68757218 10762787
0 0 0 10696224
0 0 0 10630433
0 0 0 10695967
-0.37014967 0.51141918 0.81133515 10368288
-0.36217421 0.51141918 0.81133515 10761503
-0.35419875 0.51141918 0.81133515 10696480
-0.30912793 0.45662424 0.72440636 10762019
-0.29670861 0.44861332 0.71169752 10564383
-0.27071506 0.41919604 0.66502881 10498847
-0.25579119 0.40588823 0.64391679 10761249
-0.24556363 0.39954624 0.63385558 10957599
-0.2393328 0.39954624 0.63385558 10827296
-0.22951579 0.39339936 0.62410396 10827294
-0.22338082 0.39339936 0.62410396 11023648
-0.22414254 0.40588823 0.64391679 10761503
-0.22495422 0.41919604 0.66502881 10893089
-0.21841694 0.41919604 0.66502881 10761761
-0.21187969 0.41919604 0.66502881 10827040
-0.20203045 0.41243482 0.65430254 10564640
-0.18948616 0.39954624 0.63385558 10695710
-0.18616416 0.40588823 0.64391679 10761248
-0.17983443 0.40588823 0.64391679 11024160
-0.17630315 0.41243482 0.65430254 10892834
-0.1726561 0.41919604 0.66502881 10827809
0 0 0 10630686
0 0 0 10367775
0 0 0 10433568
-0.19859844 0.5682435 0.90148348 10564894
-0.18973683 0.5682435 0.90148348 10630687
-0.1808752 0.5682435 0.90148348 10761248
-0.17201358 0.5682435 0.90148348 10761249
-0.16315195 0.5682435 0.90148348 10761762
-0.15779693 0.58115816 0.92197174 10695713
-0.1487339 0.58115816 0.92197174 10433568
-0.13967088 0.58115816 0.92197174 10564383
-0.12770545 0.5682435 0.90148348 10761504
-0.11884384 0.5682435 0.90148348 10891806
-0.10998221 0.5682435 0.90148348 10760990
-0.10341879 0.58115816 0.92197174 10629663
-0.094355762 0.58115816 0.92197174 10695712
-0.087276295 0.59467345 0.94341296 10760991
-0.078002505 0.59467345 0.94341296 10695710
-0.068728708 0.59467345 0.94341296 10826526
-0.059454918 0.59467345 0.94341296 10696226
-0.051375914 0.60883236 0.96587515 10564895
-0.041881319 0.60883236 0.96587515 10826783
-0.032386724 0.60883236 0.96587515 10498846
-0.023450471 0.6236819 0.98943311 10498845
-0.0137243 0.6236819 0.98943311 10499103
-0.0039981278 0.6236819 0.98943311 10695710
0.0057280441 0.6236819 0.98943311 10301982
0.015840571 0.639274 1.014169 10499102
0.025809899 0.639274 1.014169 10367518
0.035779227 0.639274 1.014169 10236190
0.057185687 0.79909247 1.2677112 10433311
0 0 0 10433054
0 0 0 10696224
0 0 0 10827041
0 0 0 10762275
0 0 0 10826783
0 0 0 10761504
0.57766914 3.1963699 5.0708447 11286049
0.55779183 2.8412178 4.5074177 11285279
0.31875879 1.504174 2.3862798 11220001
0.34221601 1.504174 2.3862798 10958369
0.56513143 2.3246326 3.687887 11220769
0.73502433 2.8412178 4.5074177 11286050
0.77933246 2.8412178 4.5074177 11351842
0.92659557 3.1963699 5.0708447 11417378
0.97644222 3.1963699 5.0708447 11614242
1.0262889 3.1963699 5.0708447 11352868
0.86090839 2.557096 4.0566759 11352355
0.40944803 1.1623163 1.8439435 11352868
0.36179346 0.98349845 1.5602599 11548962
0.42632186 1.1117808 1.763772 11483939
0.46382618 1.1623163 1.8439435 11483941
0.5049023 1.2176647 1.9317503 11418406
0.52389151 1.2176647 1.9317503 11287590
0.54288071 1.2176647 1.9317503 11746597
0.43700993 0.94707257 1.5024725 11352353
0.38118878 0.79909247 1.2677112 11222054
0.37049454 0.752087 1.1931399 11024675
0.38222316 0.752087 1.1931399 11155233
0.37206557 0.71030444 1.1268544 10827554
0.37278739 0.69110698 1.0963988 10826785
0.37347123 0.67291999 1.0675462 10630947
0.40529668 0.71030444 1.1268544 10498849
0.55516493 0.94707257 1.5024725 10892833
0.56993431 0.94707257 1.5024725 11024163
0.58470368 0.94707257 1.5024725 10761250
0.57806325 0.91324848 1.4488127 11023906
0.59230512 0.91324848 1.4488127 10892833
0.58563161 0.8817572 1.3988537 10827042
0.5993824 0.8817572 1.3988537 10630176
0.59269542 0.85236526 1.3522252 10629663
0.62688398 0.8817572 1.3988537 10433568
0.64063483 0.8817572 1.3988537 10630175
