# .PCD v0.7 - Point Cloud Data file format
VERSION 0.7
FIELDS x y z rgb
SIZE 4 4 4 4
TYPE F F F U
COUNT 1 1 1 1
WIDTH 1281
HEIGHT 1
VIEWPOINT 0 0 0 1 0 0 0
POINTS 1281
DATA ascii
0 0 0 590090
0 0 0 786696
0 0 0 720905
0 0 0 720904
0 0 0 1311238
0 0 0 4264975
-0.18166292 0.18771257 0.86312246 8400674
-0.17317837 0.18771257 0.86312246 11354925
-0.17201358 0.19605535 0.90148348 12272681
-0.16685995 0.20051114 0.92197174 12929066
-0.16531107 0.2100593 0.96587515 13125674
-0.15581647 0.2100593 0.96587515 12994090
-0.14989071 0.21518271 0.98943311 13453611
-0.13682728 0.2100593 0.96587515 13256490
-0.12154484 0.20051114 0.92197174 12993574
-0.11248181 0.20051114 0.92197174 12927783
-0.094800554 0.18380189 0.84514076 12928297
-0.088333055 0.18771257 0.86312246 13256491
-0.07984852 0.18771257 0.86312246 13453355
-0.071363986 0.18771257 0.86312246 13453610
-0.065674096 0.19605535 0.90148348 13583911
-0.062355161 0.21518271 0.98943311 13255720
-0.056783907 0.23217081 1.0675462 13322285
-0.047540955 0.2384457 1.0963988 13124905
-0.036763307 0.2384457 1.0963988 13452842
-0.025985656 0.2384457 1.0963988 13387820
-0.015630454 0.24506921 1.1268544 13255973
-0.0049673705 0.2673482 1.2292956 13058596
0.0071166605 0.2673482 1.2292956 12600357
0.020439448 0.28459647 1.3086051 12009765
0.033303093 0.28459647 1.3086051 12271910
0.047705628 0.294083 1.3522252 12206119
0.063101448 0.30422381 1.3988537 12009513
0.079596967 0.31508896 1.4488127 12206633
0.10105724 0.33932659 1.5602599 12535084
0.13157657 0.38358656 1.763772 12469289
0.2014726 0.51897001 2.3862798 12666409
0.22492984 0.51897001 2.3862798 13255975
0.26391128 0.55140567 2.5354223 13124905
0.2718443 0.51897001 2.3862798 13648680
0.3137579 0.55140567 2.5354223 13255977
0.33868122 0.55140567 2.5354223 13124905
0.36360452 0.55140567 2.5354223 13124905
0.41442969 0.588166 2.7044504 13387561
0.66152191 0.88224912 4.0566759 13059625
0.70139921 0.88224912 4.0566759 13191211
0.7412765 0.88224912 4.0566759 13256489
0.33963206 0.38358656 1.763772 13322282
0.35697001 0.38358656 1.763772 13322282
0.57393891 0.588166 2.7044504 13124907
0.64341831 0.63017792 2.8976254 13190700
0.58791435 0.55140567 2.5354223 13388332
0.61283767 0.55140567 2.5354223 13256748
0.637761 0.55140567 2.5354223 13257003
0.62370288 0.51897001 2.3862798 13322284
0.52389151 0.4201186 1.9317503 13257003
0.54288071 0.4201186 1.9317503 13256746
0.53633034 0.40102229 1.8439435 13387561
0.53034961 0.38358656 1.763772 13388333
0.54768759 0.38358656 1.763772 13388075
0.51982349 0.35289964 1.6226703 13256489
0.46187449 0.30422381 1.3988537 13257004
0.47562528 0.30422381 1.3988537 12993319
0.50685376 0.31508896 1.4488127 13322028
0.54039556 0.32675892 1.5024725 13060138
0.5765174 0.33932659 1.5602599 12863787
0.59185487 0.33932659 1.5602599 12864044
0.63147992 0.35289964 1.6226703 12928298
0.67440712 0.36760378 1.6902815 12534569
0.69102269 0.36760378 1.6902815 12731691
0.67933273 0.35289964 1.6226703 13059627
0.69528365 0.35289964 1.6226703 13191211
0.71123457 0.35289964 1.6226703 12535336
0.69921684 0.33932659 1.5602599 12863277
0.71455425 0.33932659 1.5602599 12797226
0.75908732 0.35289964 1.6226703 12731950
0.77503824 0.35289964 1.6226703 12666921
0.79098916 0.35289964 1.6226703 12535338
0.77590394 0.33932659 1.5602599 12272425
0.822891 0.35289964 1.6226703 12141096
0.83884192 0.35289964 1.6226703 12338473
0.85479283 0.35289964 1.6226703 12206633
0.87074375 0.35289964 1.6226703 12141099
0.88669467 0.35289964 1.6226703 12469289
0.90264559 0.35289964 1.6226703 12468776
0.85055238 0.32675892 1.5024725 12403498
0.86532176 0.32675892 1.5024725 12338218
0.91394079 0.33932659 1.5602599 12206376
0.92927819 0.33932659 1.5602599 12403240
0.9446156 0.33932659 1.5602599 11877927
0.95995307 0.33932659 1.5602599 12075048
0.93916857 0.32675892 1.5024725 11551017
0.95393795 0.32675892 1.5024725 11289387
1.0059654 0.33932659 1.5602599 11157545
1.0213027 0.33932659 1.5602599 11550505
1.0781058 0.35289964 1.6226703 11681320
1.0940567 0.35289964 1.6226703 11484711
1.1562579 0.36760378 1.6902815 11550760
1.3404268 0.4201186 1.9317503 11419433
1.359416 0.4201186 1.9317503 11419432
1.3157504 0.40102229 1.8439435 11485224
1.3338765 0.40102229 1.8439435 11551017
1.3520025 0.40102229 1.8439435 11353898
1.3701285 0.40102229 1.8439435 11156517
1.2216641 0.35289964 1.6226703 10959653
1.237615 0.35289964 1.6226703 11157032
1.2535659 0.35289964 1.6226703 11222570
1.2695168 0.35289964 1.6226703 11223338
1.3390288 0.36760378 1.6902815 11290158
1.4145855 0.38358656 1.763772 11028273
1.4319234 0.38358656 1.763772 10963251
1.515137 0.40102229 1.8439435 11028787
1.6062754 0.4201186 1.9317503 11094579
1.6252646 0.4201186 1.9317503 11095093
1.6442538 0.4201186 1.9317503 11028787
1.6632431 0.4201186 1.9317503 11225650
1.6822323 0.4201186 1.9317503 10896942
1.7012215 0.4201186 1.9317503 10833206
1.7202107 0.4201186 1.9317503 10701107
1.7391998 0.4201186 1.9317503 10699565
1.5384154 0.36760378 1.6902815 10436653
1.5550309 0.36760378 1.6902815 10043436
1.7145234 0.40102229 1.8439435 10043436
1.8151566 0.4201186 1.9317503 10174509
1.8341458 0.4201186 1.9317503 10371631
2.0482018 0.46434161 2.1350925 10568752
2.06919 0.46434161 2.1350925 10503216
2.2062991 0.49013841 2.2537088 10503729
2.3595386 0.51897001 2.3862798 10306351
2.2506073 0.49013841 2.2537088 10372655
2.5568564 0.55140567 2.5354223 10504241
2.5817795 0.55140567 2.5354223 10700853
2.979089 0.63017792 2.8976254 10634544
3.0075727 0.63017792 2.8976254 10307632
2.6565495 0.55140567 2.5354223 9653299
2.6814728 0.55140567 2.5354223 9127473
2.8868225 0.588166 2.7044504 9325110
0 0 0 9390903
0 0 0 7748136
1.7114869 0.33932659 1.5602599 7684657
1.7268243 0.33932659 1.5602599 8012336
1.8118482 0.35289964 1.6226703 9653044
1.8277991 0.35289964 1.6226703 10308147
1.84375 0.35289964 1.6226703 10570548
2.021414 0.38358656 1.763772 10635828
2.0387518 0.38358656 1.763772 10898486
2.3645036 0.44112456 2.028338 10766130
2.0734279 0.38358656 1.763772 10569521
2.0036507 0.36760378 1.6902815 10373171
2.1081038 0.38358656 1.763772 10176819
2.8755977 0.51897001 2.3862798 10570808
2.899055 0.51897001 2.3862798 10373428
3.3121803 0.588166 2.7044504 10110513
0 0 0 9979185
0 0 0 9847856
0 0 0 9782063
0 0 0 9781809
0 0 0 9847600
0 0 0 9782063
0 0 0 9781806
0 0 0 5057046
0 0 0 2099717
-3.7242663 0.709328 3.1205199 918282
-4.0013905 0.76843864 3.380563 1115661
-3.9681594 0.76843864 3.380563 2166545
-3.6322417 0.709328 3.1205199 3152152
-3.601567 0.709328 3.1205199 3217429
-3.8684664 0.76843864 3.380563 3283222
-3.8352351 0.76843864 3.380563 3282452
-3.8020041 0.76843864 3.380563 3282453
-3.7687731 0.76843864 3.380563 3282710
-3.7355418 0.76843864 3.380563 3020309
-3.7023108 0.76843864 3.380563 3217429
-3.6690798 0.76843864 3.380563 3085843
-3.6358488 0.76843864 3.380563 3085073
-3.6026175 0.76843864 3.380563 2822671
-3.5693865 0.76843864 3.380563 2888466
-3.5361555 0.76843864 3.380563 2560273
-4.2035093 0.92212641 4.0566759 2297358
-4.1636324 0.92212641 4.0566759 2297360
-4.123755 0.92212641 4.0566759 2101010
-4.0838776 0.92212641 4.0566759 983305
-4.0440001 0.92212641 4.0566759 918284
-4.0041227 0.92212641 4.0566759 1837840
-3.9642456 0.92212641 4.0566759 1115145
-3.9243684 0.92212641 4.0566759 984329
-3.884491 0.92212641 4.0566759 918538
-3.8446138 0.92212641 4.0566759 1509646
-3.8047364 0.92212641 4.0566759 1312523
-3.7648592 0.92212641 4.0566759 984329
-3.7249818 0.92212641 4.0566759 918536
-3.3500948 0.83829671 3.687887 918794
-3.3138428 0.83829671 3.687887 918795
-3.2775905 0.83829671 3.687887 1181197
-3.5654726 0.92212641 4.0566759 1443853
-3.5255952 0.92212641 4.0566759 2364185
-3.485718 0.92212641 4.0566759 3805455
-3.4458406 0.92212641 4.0566759 2036246
-3.4059634 0.92212641 4.0566759 2101524
-3.7400956 1.0245849 4.5074177 2364182
-3.6957874 1.0245849 4.5074177 2561301
-3.6514795 1.0245849 4.5074177 2890266
-3.2464542 0.92212641 4.0566759 3152923
-3.2065768 0.92212641 4.0566759 2889493
-0.45894194 0.1336415 0.587924 2956058
-0.45316261 0.1336415 0.587924 3481630
-0.44738328 0.1336415 0.587924 3612444
-0.44160396 0.1336415 0.587924 3875869
-0.4295986 0.13173234 0.57952511 4597792
-0.42390186 0.13173234 0.57952511 4992550
-0.42426601 0.1336415 0.587924 5912359
-0.41848668 0.1336415 0.587924 6372651
-0.41270739 0.1336415 0.587924 6241579
-0.40692806 0.1336415 0.587924 6373426
-0.40114874 0.1336415 0.587924 4992041
-0.39536941 0.1336415 0.587924 4466472
-0.38959008 0.1336415 0.587924 4071714
-0.38381079 0.1336415 0.587924 3939872
-0.38931599 0.13763081 0.605474 3741978
-0.38917267 0.1397161 0.61464781 3413784
-0.38313067 0.1397161 0.61464781 3347734
-0.37708864 0.1397161 0.61464781 3281941
-0.39498514 0.14873005 0.65430254 3544343
-0.39492306 0.15116826 0.66502881 3478548
-0.39485887 0.15368773 0.67611259 3544341
-0.42350471 0.16765934 0.73757738 3544084
0 0 0 3413523
0 0 0 3281940
0 0 0 3479581
-0.5292114 0.22490887 0.98943311 8410688
-0.51948524 0.22490887 0.98943311 8870207
0 0 0 8739646
0 0 0 7951674
-0.41025665 0.18818906 0.82789302 9264707
-0.39407605 0.18442528 0.81133515 8804406
-0.37853 0.1808091 0.79542661 1443334
-0.36358187 0.177332 0.78012997 984075
-0.34919778 0.17398611 0.76541048 983307
-0.33534649 0.17076415 0.75123626 1839126
-0.3279618 0.17076415 0.75123626 1904403
-0.31474844 0.16765934 0.73757738 1378317
-0.30200699 0.16466542 0.72440636 655882
-0.28971261 0.16177656 0.71169752 918539
-0.26858073 0.15368773 0.67611259 851975
-0.25764054 0.15116826 0.66502881 655624
-0.25110325 0.15116826 0.66502881 918282
-0.24062139 0.14873005 0.65430254 852489
-0.23047227 0.14636926 0.64391679 852491
-0.22414254 0.14636926 0.64391679 655882
-0.22132592 0.14873005 0.65430254 786696
-0.21489409 0.14873005 0.65430254 1049098
-0.20846227 0.14873005 0.65430254 655882
-0.20534243 0.15116826 0.66502881 720903
-0.21275641 0.16177656 0.71169752 589830
0 0 0 655626
0 0 0 917770
0 0 0 1903119
0 0 0 4398622
0 0 0 8009260
0 0 0 10896177
0 0 0 12863534
0 0 0 12863276
0 0 0 13124903
-0.17694312 0.20046225 0.88188601 13519147
-0.17201358 0.20491697 0.90148348 13387815
-0.16315195 0.20491697 0.90148348 13255720
-0.15779693 0.20957418 0.92197174 13059368
-0.15581647 0.21955389 0.96587515 13321512
-0.14632188 0.21955389 0.96587515 13190438
-0.13060786 0.20957418 0.92197174 13190183
-0.12154484 0.20957418 0.92197174 13124392
-0.11248181 0.20957418 0.92197174 13125162
-0.09892232 0.20046225 0.88188601 13255975
-0.088333055 0.19619709 0.86312246 13256232
-0.07984852 0.19619709 0.86312246 13321255
-0.071363986 0.19619709 0.86312246 13256491
-0.065674096 0.20491697 0.90148348 13321512
-0.062355161 0.22490887 0.98943311 13059112
-0.058318608 0.24922334 1.0963988 13190184
-0.047540955 0.24922334 1.0963988 12993833
-0.043878786 0.29746011 1.3086051 12862760
-0.027470553 0.26346469 1.1590502 13190182
-0.017051402 0.27943221 1.2292956 13387561
-0.0049673705 0.27943221 1.2292956 12992805
0.0075758002 0.29746011 1.3086051 12534308
0.020439448 0.29746011 1.3086051 12469289
0.034413196 0.30737546 1.3522252 12075560
0.047705628 0.30737546 1.3522252 12206117
0.06535507 0.32933083 1.4488127 12272424
0.085719809 0.354664 1.5602599 12337703
0.10509952 0.36885056 1.6226703 12337703
0.13157657 0.4009245 1.763772 12403498
0 0 0 12993834
0 0 0 12863016
0 0 0 13190184
0.30809021 0.61475092 2.7044504 13190184
0.38616356 0.709328 3.1205199 13452841
0.41683844 0.709328 3.1205199 13255975
0.3878448 0.61475092 2.7044504 13124389
0.47818813 0.709328 3.1205199 13387048
0.50886297 0.709328 3.1205199 13387050
0.63763559 0.83829671 3.687887 13191211
0.7412765 0.92212641 4.0566759 13190696
0.71013975 0.83829671 3.687887 13321768
0.58645076 0.65866166 2.8976254 13190696
0.61493456 0.65866166 2.8976254 13059625
0.6929121 0.709328 3.1205199 13257517
0.72358692 0.709328 3.1205199 13125161
0.61283767 0.57632899 2.5354223 13190441
0.637761 0.57632899 2.5354223 13059368
0.66268432 0.57632899 2.5354223 13191211
0.68760765 0.57632899 2.5354223 13322283
0.67061734 0.5424273 2.3862798 13190956
0.56186992 0.43910778 1.9317503 13256748
0.53034961 0.4009245 1.763772 13322286
0.54768759 0.4009245 1.763772 12995372
0.54148281 0.38421932 1.6902815 12864301
0.47837001 0.32933083 1.4488127 12929581
0.47562528 0.3179746 1.3988537 13060397
0.50685376 0.32933083 1.4488127 13059369
0.54039556 0.3415283 1.5024725 12863019
0.5765174 0.354664 1.5602599 12863018
0.59185487 0.354664 1.5602599 12993833
0.63147992 0.36885056 1.6226703 12928811
0.770751 0.43910778 1.9317503 12928553
0.7897402 0.43910778 1.9317503 13256748
0.7076382 0.38421932 1.6902815 13256749
0.69528365 0.36885056 1.6226703 12928809
0.68387938 0.354664 1.5602599 12470057
0.69921684 0.354664 1.5602599 12470059
0.71455425 0.354664 1.5602599 12470057
0.72989166 0.354664 1.5602599 12600873
0.77503824 0.36885056 1.6226703 12600614
0.76056653 0.354664 1.5602599 12600874
0.77590394 0.354664 1.5602599 12271654
0.79124135 0.354664 1.5602599 12271912
0.83884192 0.36885056 1.6226703 12338217
0.85479283 0.36885056 1.6226703 12600362
0.90702474 0.38421932 1.6902815 12337448
0.92364031 0.38421932 1.6902815 12469289
0.94025582 0.38421932 1.6902815 12404010
0.85055238 0.3415283 1.5024725 12206632
0.86532176 0.3415283 1.5024725 12206888
0.88009113 0.3415283 1.5024725 12140583
0.92927819 0.354664 1.5602599 12009513
0.9446156 0.354664 1.5602599 11682088
0.95995307 0.354664 1.5602599 12337965
0.97529048 0.354664 1.5602599 12074795
0.99062788 0.354664 1.5602599 12009513
1.0059654 0.354664 1.5602599 11943977
1.0213027 0.354664 1.5602599 11681577
1.0366402 0.354664 1.5602599 11877929
1.0940567 0.36885056 1.6226703 11485996
1.1562579 0.38421932 1.6902815 11419688
1.3404268 0.43910778 1.9317503 11877927
1.4273869 0.46106321 2.028338 11681320
1.2585438 0.4009245 1.763772 11419689
1.3338765 0.41914836 1.8439435 11222569
1.3520025 0.41914836 1.8439435 11090982
1.3701285 0.41914836 1.8439435 11222052
1.2216641 0.36885056 1.6226703 11485222
1.237615 0.36885056 1.6226703 11091237
1.2535659 0.36885056 1.6226703 11157031
1.2695168 0.36885056 1.6226703 11750191
1.2854677 0.36885056 1.6226703 11488564
1.3014187 0.36885056 1.6226703 11422772
1.3173696 0.36885056 1.6226703 11028528
1.3888755 0.38421932 1.6902815 11224367
1.6062754 0.43910778 1.9317503 10961967
1.6252646 0.43910778 1.9317503 10699824
1.6442538 0.43910778 1.9317503 10699824
1.6632431 0.43910778 1.9317503 10634030
1.6822323 0.43910778 1.9317503 10502702
1.7012215 0.43910778 1.9317503 10568750
1.7202107 0.43910778 1.9317503 10240043
1.7391998 0.43910778 1.9317503 10502957
1.5384154 0.38421932 1.6902815 10765867
1.5550309 0.38421932 1.6902815 10831919
1.5716465 0.38421932 1.6902815 10701620
1.8151566 0.43910778 1.9317503 10569264
1.8341458 0.43910778 1.9317503 10437935
2.0482018 0.48532969 2.1350925 10306607
2.184145 0.51229244 2.2537088 10372398
2.2062991 0.51229244 2.2537088 10634030
2.3595386 0.5424273 2.3862798 10765615
2.2506073 0.51229244 2.2537088 10766128
2.5568564 0.57632899 2.5354223 10438189
2.5817795 0.57632899 2.5354223 10503727
2.6067028 0.57632899 2.5354223 10634546
2.8070679 0.61475092 2.7044504 10176305
2.6565495 0.57632899 2.5354223 9848108
2.6814728 0.57632899 2.5354223 9324078
2.7063961 0.57632899 2.5354223 9195320
2.3000586 0.48532969 2.1350925 9591618
2.2049944 0.46106321 2.028338 8869183
1.8541107 0.38421932 1.6902815 8408635
1.7958972 0.36885056 1.6226703 7619890
1.8118482 0.36885056 1.6226703 8079154
1.8277991 0.36885056 1.6226703 9391415
2.0951705 0.41914836 1.8439435 10374197
2.1132965 0.41914836 1.8439435 10702390
1.953804 0.38421932 1.6902815 10505011
2.0560899 0.4009245 1.763772 10701364
2.0734279 0.4009245 1.763772 10766131
2.0907657 0.4009245 1.763772 10109999
2.1081038 0.4009245 1.763772 9585200
2.3278649 0.43910778 1.9317503 9454129
2.899055 0.5424273 2.3862798 9257006
3.1051693 0.57632899 2.5354223 9191727
0 0 0 9257520
0 0 0 9585200
0 0 0 9715757
0 0 0 9714988
0 0 0 9846573
0 0 0 9781293
0 0 0 9781806
0 0 0 5122585
0 0 0 2230786
-4.0346217 0.80166972 3.380563 918282
-4.0013905 0.80166972 3.380563 918282
-3.9681594 0.80166972 3.380563 1707024
-3.9349284 0.80166972 3.380563 2888980
-3.9016974 0.80166972 3.380563 3020052
-3.8684664 0.80166972 3.380563 2954259
-3.8352351 0.80166972 3.380563 2888723
-3.8020041 0.80166972 3.380563 2822930
-3.7687731 0.80166972 3.380563 2888723
-4.0751367 0.87454879 3.687887 2822930
-4.0388846 0.87454879 3.687887 2822674
-3.6690798 0.80166972 3.380563 2756881
-3.6358488 0.80166972 3.380563 2625810
-3.6026175 0.80166972 3.380563 2231826
-3.5693865 0.80166972 3.380563 1837838
-3.8576241 0.87454879 3.687887 1509645
-4.2035093 0.96200371 4.0566759 1180680
-4.1636324 0.96200371 4.0566759 1049352
-4.123755 0.96200371 4.0566759 786696
-4.0838776 0.96200371 4.0566759 852489
-4.0440001 0.96200371 4.0566759 852489
-4.0041227 0.96200371 4.0566759 1969424
-3.9642456 0.96200371 4.0566759 1574666
-3.9243684 0.96200371 4.0566759 1180938
-3.884491 0.96200371 4.0566759 1246731
-3.8446138 0.96200371 4.0566759 984072
-3.8047364 0.96200371 4.0566759 1181197
-3.7648592 0.96200371 4.0566759 1312781
-3.7249818 0.96200371 4.0566759 1378573
-3.3500948 0.87454879 3.687887 1115658
-3.3138428 0.87454879 3.687887 1115661
-3.2775905 0.87454879 3.687887 1378317
-3.2413385 0.87454879 3.687887 2166806
-3.2050865 0.87454879 3.687887 1969939
-3.1688342 0.87454879 3.687887 1771790
-3.1325822 0.87454879 3.687887 3416867
-3.0963302 0.87454879 3.687887 3876128
-3.0600781 0.87454879 3.687887 4401955
-2.5586221 0.74000287 3.1205199 5387819
-2.9875739 0.87454879 3.687887 6112055
-2.9513218 0.87454879 3.687887 6110768
-2.9150696 0.87454879 3.687887 5386789
-0.51913106 0.15770552 0.66502881 5123875
-0.45316261 0.13942082 0.587924 5189670
-0.44099212 0.1374291 0.57952511 5321254
-0.43529537 0.1374291 0.57952511 5583910
-0.4295986 0.1374291 0.57952511 6175534
-0.43004534 0.13942082 0.587924 6701359
-0.42426601 0.13942082 0.587924 7490099
-0.41848668 0.13942082 0.587924 7358256
-0.4187766 0.14147113 0.59656996 7226927
-0.41291231 0.14147113 0.59656996 7227697
-0.40114874 0.13942082 0.587924 5780520
-0.39536941 0.13942082 0.587924 4270121
-0.38959008 0.13942082 0.587924 3940384
-0.38945505 0.14147113 0.59656996 3611163
-0.38931599 0.14358264 0.605474 3479064
-0.38336414 0.14358264 0.605474 3216920
-0.38313067 0.14575812 0.61464781 3085077
-0.37708864 0.14575812 0.61464781 3282199
-0.37104663 0.14575812 0.61464781 3282456
-0.36500463 0.14575812 0.61464781 3281942
-0.37018019 0.15031308 0.63385558 3478550
-0.38184851 0.15770552 0.66502881 3544084
0 0 0 3609618
0 0 0 3347220
0 0 0 3150355
0 0 0 4202523
0 0 0 9593925
0 0 0 10249026
0 0 0 10380871
-0.43701249 0.20913123 0.88188601 10446148
-0.39407605 0.19240074 0.81133515 9658170
-0.37853 0.18862817 0.79542661 1706253
-0.37071091 0.18862817 0.79542661 852744
-0.35591316 0.18500072 0.78012997 786697
-0.33534649 0.17814884 0.75123626 1378835
-0.3279618 0.17814884 0.75123626 1378575
-0.31474844 0.17490976 0.73757738 1378317
-0.30749801 0.17490976 0.73757738 721675
-0.28971261 0.16877258 0.71169752 1114890
-0.27313298 0.16305147 0.68757218 786439
-0.26193452 0.16033395 0.67611259 655880
-0.2552883 0.16033395 0.67611259 983562
-0.24456599 0.15770552 0.66502881 786697
-0.23802873 0.15770552 0.66502881 852232
-0.2477365 0.16877258 0.71169752 918282
-0.25411496 0.17814884 0.75123626 918282
0 0 0 1049098
0 0 0 1312524
0 0 0 2364182
0 0 0 4072228
0 0 0 6830645
0 0 0 9914683
0 0 0 12273455
0 0 0 12928552
0 0 0 13322284
-0.19087209 0.18862817 0.79542661 13256748
-0.183053 0.18862817 0.79542661 13322284
-0.17873861 0.19240074 0.81133515 13059625
-0.17787828 0.20041743 0.84514076 13058855
-0.17317837 0.20468163 0.86312246 13190184
-0.16827415 0.20913123 0.88188601 13059110
-0.16315195 0.21377859 0.90148348 12928040
-0.15429033 0.21377859 0.90148348 13255462
-0.1487339 0.2186372 0.92197174 13387305
-0.14989071 0.23463504 0.98943311 13321511
-0.13060786 0.2186372 0.92197174 13321512
-0.12154484 0.2186372 0.92197174 13255977
-0.11248181 0.2186372 0.92197174 13386536
-0.10341879 0.2186372 0.92197174 13322026
-0.094355762 0.2186372 0.92197174 13124391
-0.081584357 0.20913123 0.88188601 13189925
-0.072915383 0.20913123 0.88188601 12993320
-0.065674096 0.21377859 0.90148348 13190185
-0.06909626 0.260001 1.0963988 12927525
-0.063464366 0.28294227 1.1931399 13190439
-0.051735748 0.28294227 1.1931399 13124391
-0.043878786 0.31032377 1.3086051 13453356
-0.030045917 0.30062616 1.2677112 13583911
-0.017584259 0.30062616 1.2677112 13255977
-0.0051226011 0.30062616 1.2677112 12731432
0.0078283269 0.32066789 1.3522252 12796455
0.021120761 0.32066789 1.3522252 12403496
0.034413196 0.32066789 1.3522252 11878951
0.049350653 0.33172539 1.3988537 12140326
0.070382386 0.37000144 1.5602599 12534569
0.089148603 0.38480148 1.6226703 12338217
0.10509952 0.38480148 1.6226703 12206119
0.12609421 0.40083486 1.6902815 12731432
0 0 0 12862248
0 0 0 12534569
0 0 0 12862248
0.66019332 1.3742909 5.7952509 13190184
0.62751579 1.2025046 5.0708447 13453354
0.60209996 1.0688931 4.5074177 13255977
0.44751328 0.74000287 3.1205199 13124905
0.47818813 0.74000287 3.1205199 13255977
0.50886297 0.74000287 3.1205199 13321257
0.5844993 0.80166972 3.380563 13255975
0.67388767 0.87454879 3.687887 13387050
0.7811538 0.96200371 4.0566759 13190182
0.68419254 0.80166972 3.380563 13255975
0.66223723 0.74000287 3.1205199 13059368
0.6929121 0.74000287 3.1205199 13387820
0.72358692 0.74000287 3.1205199 13519148
0.61283767 0.60125232 2.5354223 13453355
0.637761 0.60125232 2.5354223 13322540
0.66268432 0.60125232 2.5354223 13256748
0.73344809 0.64133579 2.7044504 13257002
0.76003295 0.64133579 2.7044504 13453354
0.84280485 0.68714547 2.8976254 13453356
0.55445641 0.4372744 1.8439435 13257004
0.54768759 0.41826245 1.763772 13191211
0.54148281 0.40083486 1.6902815 13190698
0.47837001 0.34357274 1.4488127 13388077
0.49261189 0.34357274 1.4488127 13191211
0.50685376 0.34357274 1.4488127 13060139
0.54039556 0.35629767 1.5024725 12863274
0.5765174 0.37000144 1.5602599 13125930
0.615529 0.38480148 1.6226703 12731945
0.63147992 0.38480148 1.6226703 13191213
0.64743084 0.38480148 1.6226703 12797225
0.63786709 0.37000144 1.5602599 13256234
0.67933273 0.38480148 1.6226703 13257006
0.69528365 0.38480148 1.6226703 13059627
0.71123457 0.38480148 1.6226703 12928811
0.69921684 0.37000144 1.5602599 12863018
0.71455425 0.37000144 1.5602599 12666155
0.72989166 0.37000144 1.5602599 12797482
0.717628 0.35629767 1.5024725 12599845
0.73239738 0.35629767 1.5024725 12600618
0.74716675 0.35629767 1.5024725 12403496
0.76193613 0.35629767 1.5024725 12534825
0.7767055 0.35629767 1.5024725 12404012
0.89040917 0.40083486 1.6902815 12337703
0.90702474 0.40083486 1.6902815 12403753
0.92364031 0.40083486 1.6902815 12141866
0.94025582 0.40083486 1.6902815 12271656
0.91859657 0.38480148 1.6226703 12206633
0.86532176 0.35629767 1.5024725 12075045
0.88009113 0.35629767 1.5024725 12207146
0.89486051 0.35629767 1.5024725 12009767
0.9446156 0.37000144 1.5602599 11943464
0.95995307 0.37000144 1.5602599 12075306
1.014302 0.38480148 1.6226703 11812391
1.0302529 0.38480148 1.6226703 11747111
1.046204 0.38480148 1.6226703 11812646
1.0213027 0.37000144 1.5602599 11616297
1.0366402 0.37000144 1.5602599 11550505
1.0519776 0.37000144 1.5602599 11484711
1.1100076 0.38480148 1.6226703 11681833
1.1728734 0.40083486 1.6902815 11418917
1.1419095 0.38480148 1.6226703 11878441
1.1578604 0.38480148 1.6226703 11746855
1.22272 0.40083486 1.6902815 11681322
1.2393357 0.40083486 1.6902815 11550506
1.2057132 0.38480148 1.6226703 11418918
1.2216641 0.38480148 1.6226703 11550504
1.237615 0.38480148 1.6226703 11419947
1.2535659 0.38480148 1.6226703 11091239
1.1754786 0.35629767 1.5024725 11355180
1.2360268 0.37000144 1.5602599 11356463
1.3014187 0.38480148 1.6226703 10896686
1.3173696 0.38480148 1.6226703 11159089
1.3888755 0.40083486 1.6902815 11356466
1.6062754 0.45809698 1.9317503 11619125
1.6252646 0.45809698 1.9317503 11159343
1.6442538 0.45809698 1.9317503 11027501
1.6632431 0.45809698 1.9317503 10896689
1.6822323 0.45809698 1.9317503 10962480
1.7012215 0.45809698 1.9317503 11028273
1.5706271 0.41826245 1.763772 10962737
1.587965 0.41826245 1.763772 10897716
1.5384154 0.40083486 1.6902815 10634799
1.5550309 0.40083486 1.6902815 10371628
1.5716465 0.40083486 1.6902815 10370859
1.588262 0.40083486 1.6902815 10370857
1.8341458 0.45809698 1.9317503 10634029
2.0482018 0.50631773 2.1350925 10634029
2.184145 0.53444654 2.2537088 10371370
2.2062991 0.53444654 2.2537088 10502447
2.3595386 0.56588453 2.3862798 10699310
2.3829956 0.56588453 2.3862798 10700081
2.4064529 0.56588453 2.3862798 10634543
2.5817795 0.60125232 2.5354223 10766128
2.6067028 0.60125232 2.5354223 10897457
2.4768248 0.56588453 2.3862798 10700593
2.6565495 0.60125232 2.5354223 10569521
2.5237391 0.56588453 2.3862798 10438448
2.2790704 0.50631773 2.1350925 9718578
2.0810053 0.45809698 1.9317503 9459261
2.0999944 0.45809698 1.9317503 9461060
2.1189837 0.45809698 1.9317503 8869953
2.1379728 0.45809698 1.9317503 7949626
1.8873417 0.40083486 1.6902815 6502957
2.53861 0.53444654 2.2537088 7160884
3.0729165 0.64133579 2.7044504 8931637
0 0 0 10439991
2.0387518 0.41826245 1.763772 10439218
1.8188488 0.37000144 1.5602599 10766898
2.0734279 0.41826245 1.763772 10635827
2.0907657 0.41826245 1.763772 10963509
2.2039268 0.4372744 1.8439435 10963508
2.3278649 0.45809698 1.9317503 10570035
3.080246 0.60125232 2.5354223 10176564
3.3121803 0.64133579 2.7044504 9914421
0 0 0 10044981
0 0 0 10176310
0 0 0 10242357
0 0 0 10176051
0 0 0 10307379
0 0 0 10110514
0 0 0 9913906
0 0 0 5254173
0 0 0 3545360
-4.0346217 0.8349008 3.380563 1246214
-4.0013905 0.8349008 3.380563 1049868
-3.9681594 0.8349008 3.380563 1575442
-3.9349284 0.8349008 3.380563 2757909
-3.9016974 0.8349008 3.380563 2691601
-3.8684664 0.8349008 3.380563 2757137
-3.8352351 0.8349008 3.380563 2231052
-4.1476407 0.91080087 3.687887 1902859
-4.1113887 0.91080087 3.687887 1377544
-4.0751367 0.91080087 3.687887 1049608
-4.0388846 0.91080087 3.687887 918282
-4.0026326 0.91080087 3.687887 721675
-3.9663804 0.91080087 3.687887 721675
-3.9301283 0.91080087 3.687887 721673
-4.2832642 1.001881 4.0566759 721160
-4.2433867 1.001881 4.0566759 852489
-4.2035093 1.001881 4.0566759 786698
-4.1636324 1.001881 4.0566759 852491
-4.123755 1.001881 4.0566759 852491
-4.0838776 1.001881 4.0566759 852489
-4.0440001 1.001881 4.0566759 1115661
-3.6401114 0.91080087 3.687887 1838095
-3.6038594 0.91080087 3.687887 1640202
-3.9243684 1.001881 4.0566759 1509901
-3.884491 1.001881 4.0566759 1772815
-3.8446138 1.001881 4.0566759 2035731
-3.8047364 1.001881 4.0566759 2561561
-3.7648592 1.001881 4.0566759 2692890
-3.7249818 1.001881 4.0566759 2495252
-3.3500948 0.91080087 3.687887 1443594
-3.0376892 0.8349008 3.380563 1706506
-2.7733459 0.77067769 3.1205199 3217940
-2.7426713 0.77067769 3.1205199 4861223
-2.7119963 0.77067769 3.1205199 6242358
-2.6813214 0.77067769 3.1205199 7095610
-2.8715336 0.8349008 3.380563 7488821
-2.8383026 0.8349008 3.380563 7948597
-2.8050716 0.8349008 3.380563 7882800
-2.5586221 0.77067769 3.1205199 8145201
-2.5279472 0.77067769 3.1205199 7817265
-2.4972725 0.77067769 3.1205199 7685933
-0.84383595 0.26365289 1.0675462 7160364
-0.51913106 0.16424279 0.66502881 6306599
-0.51259381 0.16424279 0.66502881 6307117
-0.44738328 0.14520013 0.587924 6767151
-0.44160396 0.14520013 0.587924 7161137
-0.43582466 0.14520013 0.587924 7030579
-0.43004534 0.14520013 0.587924 7424053
-0.43050522 0.14733544 0.59656996 8344636
-0.43097883 0.14953448 0.605474 7621426
-0.42502701 0.14953448 0.605474 7686965
-0.41907516 0.14953448 0.605474 7884598
-0.41312334 0.14953448 0.605474 7884601
-0.39536941 0.14520013 0.587924 4794914
-0.38959008 0.14520013 0.587924 3808285
-0.38945505 0.14733544 0.59656996 3217179
-0.39521471 0.15180014 0.61464781 3217433
-0.38917267 0.15180014 0.61464781 3085591
-0.38313067 0.15180014 0.61464781 3085847
-0.37708864 0.15180014 0.61464781 3019798
-0.37104663 0.15180014 0.61464781 3150357
-0.36500463 0.15180014 0.61464781 3150869
-0.3589626 0.15180014 0.61464781 3347732
-0.38184851 0.16424279 0.66502881 3543571
-0.38803369 0.16981034 0.68757218 3610134
0 0 0 3741204
0 0 0 3413011
0 0 0 3281429
0 0 0 6700342
0 0 0 10118723
0 0 0 10906695
0 0 0 10841157
-0.40211841 0.20446551 0.82789302 10248767
-0.38610059 0.2003762 0.81133515 1115399
-0.37812513 0.2003762 0.81133515 918024
-0.36289182 0.19644725 0.79542661 852233
-0.33534649 0.18553352 0.75123626 984077
-0.3279618 0.18553352 0.75123626 1247248
-0.31474844 0.18216017 0.73757738 1313040
-0.30200699 0.17890732 0.72440636 1049352
-0.27989185 0.16981034 0.68757218 1049098
-0.27313298 0.16981034 0.68757218 786440
-0.27096674 0.17273809 0.69942683 720905
-0.26872456 0.1757686 0.71169752 1049354
0 0 0 1115658
0 0 0 1968139
0 0 0 4331540
0 0 0 8270373
0 0 0 11878699
0 0 0 12600616
0 0 0 12731948
0 0 0 12928811
-0.40442556 0.34547618 1.3988537 12863017
-0.35404903 0.31308782 1.2677112 13059882
-0.3526063 0.32318741 1.3086051 13189669
-0.18477233 0.1757686 0.71169752 12927526
-0.19869116 0.19644725 0.79542661 12994347
-0.18720147 0.19266942 0.78012997 13059112
-0.183053 0.19644725 0.79542661 13255978
-0.17873861 0.2003762 0.81133515 13190698
-0.17424811 0.20446551 0.82789302 13387048
-0.17694312 0.21780021 0.88188601 13321255
-0.16827415 0.21780021 0.88188601 12993832
-0.16315195 0.22264022 0.90148348 13124905
-0.15429033 0.22264022 0.90148348 12993319
-0.1454287 0.22264022 0.90148348 13059625
-0.13656709 0.22264022 0.90148348 13124389
-0.14016454 0.24436122 0.98943311 13124903
-0.12154484 0.22770022 0.92197174 13255975
-0.12373 0.25047025 1.014169 13583912
-0.10341879 0.22770022 0.92197174 13321512
-0.092258967 0.22264022 0.90148348 13059367
-0.083397344 0.22264022 0.90148348 12927526
-0.072915383 0.21780021 0.88188601 13189671
-0.065674096 0.22264022 0.90148348 13255975
-0.058103669 0.22770022 0.92197174 13452841
-0.063464366 0.29467088 1.1931399 13124903
0 0 0 13255462
0 0 0 13452841
-0.031015139 0.32318741 1.3086051 13255716
-0.018151494 0.32318741 1.3086051 13124391
-0.0052878466 0.32318741 1.3086051 12796455
0.0075758002 0.32318741 1.3086051 12665639
0.021120761 0.33396032 1.3522252 12206119
0.034413196 0.33396032 1.3522252 12009767
0.049350653 0.34547618 1.3988537 12272426
0.06535507 0.35781464 1.4488127 12469289
0.089148603 0.4007524 1.6226703 12337192
0.10509952 0.4007524 1.6226703 12402983
0.12609421 0.4174504 1.6902815 12403237
0 0 0 12402467
0 0 0 12665637
0 0 0 12862246
0 0 0 13124391
0.71716088 1.4312586 5.7952509 13255462
0.60209996 1.1132011 4.5074177 13255977
0.64640808 1.1132011 4.5074177 13190182
0.47818813 0.77067769 3.1205199 13190182
0.50886297 0.77067769 3.1205199 12993832
0.5844993 0.8349008 3.380563 13387561
0.61773038 0.8349008 3.380563 13125420
0.86794865 1.1132011 4.5074177 13125418
0.68419254 0.8349008 3.380563 13059624
0.71742362 0.8349008 3.380563 13256744
0.64341831 0.71562928 2.8976254 13322283
0.62710863 0.66792065 2.7044504 13584428
0.6536935 0.66792065 2.7044504 13255719
0.637761 0.62617564 2.5354223 13256749
0.66268432 0.62617564 2.5354223 13190699
0.68760765 0.62617564 2.5354223 13255720
0.71253097 0.62617564 2.5354223 13322027
0.56186992 0.47708619 1.9317503 13519149
0.46915543 0.38533884 1.5602599 13191211
0.46654868 0.37106705 1.5024725 13125418
0.46412811 0.35781464 1.4488127 12994602
0.47837001 0.35781464 1.4488127 12732202
0.49261189 0.35781464 1.4488127 12797738
0.50685376 0.35781464 1.4488127 12994345
0.54039556 0.37106705 1.5024725 12993833
0.55516493 0.37106705 1.5024725 12928296
0.59185487 0.38533884 1.5602599 12862246
0.58470368 0.37106705 1.5024725 13191211
0.62252969 0.38533884 1.5602599 12993832
0.63786709 0.38533884 1.5602599 13059112
0.65320456 0.38533884 1.5602599 12993832
0.69528365 0.4007524 1.6226703 12731948
0.71123457 0.4007524 1.6226703 12732202
0.69921684 0.38533884 1.5602599 12600616
0.68808925 0.37106705 1.5024725 12600361
0.70285863 0.37106705 1.5024725 12731689
0.717628 0.37106705 1.5024725 12796966
0.7062403 0.35781464 1.4488127 12862246
0.72048217 0.35781464 1.4488127 12731432
0.76193613 0.37106705 1.5024725 12403239
0.7767055 0.37106705 1.5024725 12272426
0.82191622 0.38533884 1.5602599 12337960
0.87074375 0.4007524 1.6226703 12272168
0.88669467 0.4007524 1.6226703 12206376
0.90264559 0.4007524 1.6226703 12272424
0.91859657 0.4007524 1.6226703 12468778
0.89860338 0.38533884 1.5602599 12140072
0.88009113 0.37106705 1.5024725 12271915
0.89486051 0.37106705 1.5024725 11878697
0.90962988 0.37106705 1.5024725 11747625
0.95995307 0.38533884 1.5602599 11878440
1.014302 0.4007524 1.6226703 11942950
1.0302529 0.4007524 1.6226703 11943207
1.0897957 0.4174504 1.6902815 11747112
1.0621549 0.4007524 1.6226703 11616297
1.0781058 0.4007524 1.6226703 11615526
1.0519776 0.38533884 1.5602599 11747113
1.067315 0.38533884 1.5602599 11616297
1.1259586 0.4007524 1.6226703 11616041
1.1419095 0.4007524 1.6226703 11484969
1.1578604 0.4007524 1.6226703 11418661
1.1738113 0.4007524 1.6226703 11157031
1.2393357 0.4174504 1.6902815 11091752
1.2559512 0.4174504 1.6902815 11090981
1.2216641 0.4007524 1.6226703 11287846
1.1900145 0.38533884 1.5602599 11025702
1.1607091 0.37106705 1.5024725 11025446
1.1754786 0.37106705 1.5024725 11094318
1.2360268 0.38533884 1.5602599 11160371
1.3014187 0.4007524 1.6226703 11355951
1.3173696 0.4007524 1.6226703 11487539
1.3888755 0.4174504 1.6902815 11224622
1.4665993 0.43560043 1.763772 11224879
1.6252646 0.47708619 1.9317503 10962480
1.6442538 0.47708619 1.9317503 10962222
1.4553376 0.4174504 1.6902815 10699308
1.4719532 0.4174504 1.6902815 10437165
1.5532892 0.43560043 1.763772 10568236
1.5706271 0.43560043 1.763772 11093038
1.587965 0.43560043 1.763772 10633775
1.605303 0.43560043 1.763772 10634287
1.622641 0.43560043 1.763772 10699823
1.6399789 0.43560043 1.763772 10634027
1.7326494 0.45540044 1.8439435 10699310
1.8341458 0.47708619 1.9317503 10765360
2.0482018 0.52730578 2.1350925 10765616
2.184145 0.55660057 2.2537088 10634030
2.2062991 0.55660057 2.2537088 10371372
2.2284532 0.55660057 2.2537088 10568751
2.132154 0.52730578 2.1350925 10502446
2.4064529 0.58934176 2.3862798 10437167
2.4299102 0.58934176 2.3862798 10569264
2.4533675 0.58934176 2.3862798 10700592
2.4768248 0.58934176 2.3862798 10831921
2.5002818 0.58934176 2.3862798 10700849
2.3835316 0.55660057 2.2537088 10700594
1.9682881 0.45540044 1.8439435 10307376
1.9864142 0.45540044 1.8439435 9652785
2.2049944 0.5009405 2.028338 8802103
2.2249329 0.5009405 2.028338 9329729
2.4943018 0.55660057 2.2537088 9132865
2.1569622 0.47708619 1.9317503 8015419
0 0 0 6043180
0 0 0 7226675
0 0 0 9128244
0 0 0 10571320
2.0560899 0.43560043 1.763772 10570547
2.0734279 0.43560043 1.763772 10504499
2.0907657 0.43560043 1.763772 10700594
2.2039268 0.45540044 1.8439435 10569520
2.3278649 0.47708619 1.9317503 10570032
3.080246 0.62617564 2.5354223 10635314
0 0 0 10438448
0 0 0 10306865
0 0 0 9978673
0 0 0 9781550
0 0 0 9650222
0 0 0 9584430
0 0 0 9584684
0 0 0 9650477
0 0 0 6043944
0 0 0 3940117
-4.0346217 0.86813188 3.380563 1443073
-4.0013905 0.86813188 3.380563 918282
-4.3289013 0.94705296 3.687887 1049098
-4.2926493 0.94705296 3.687887 1049096
-4.2563972 0.94705296 3.687887 983560
-4.2201452 0.94705296 3.687887 983305
-4.1838932 0.94705296 3.687887 983305
-4.1476407 0.94705296 3.687887 852232
-4.5225282 1.0417583 4.0566759 852490
-4.4826508 1.0417583 4.0566759 852233
-4.0388846 0.94705296 3.687887 851976
-4.0026326 0.94705296 3.687887 786696
-3.9663804 0.94705296 3.687887 786952
-3.9301283 0.94705296 3.687887 852743
-4.2832642 1.0417583 4.0566759 984329
-4.2433867 1.0417583 4.0566759 1115915
-4.2035093 1.0417583 4.0566759 1379603
-3.78512 0.94705296 3.687887 1774102
-3.7488678 0.94705296 3.687887 2298390
-3.7126157 0.94705296 3.687887 2758424
-3.6763637 0.94705296 3.687887 3151895
-3.6401114 0.94705296 3.687887 3349276
-3.6038594 0.94705296 3.687887 3612446
-3.5676074 0.94705296 3.687887 3546910
-3.884491 1.0417583 4.0566759 4007201
-3.8446138 1.0417583 4.0566759 5255723
-3.8047364 1.0417583 4.0566759 6241071
-3.7648592 1.0417583 4.0566759 7160369
-3.1041512 0.86813188 3.380563 7159597
-3.0709202 0.86813188 3.380563 7224876
-2.8040209 0.80135256 3.1205199 7224876
-2.7733459 0.80135256 3.1205199 7159598
-2.7426713 0.80135256 3.1205199 7356717
-2.5182822 0.74411303 2.8976254 7619630
-2.4897983 0.74411303 2.8976254 7553068
-2.6506467 0.80135256 3.1205199 7488300
-2.6199718 0.80135256 3.1205199 7816752
-2.5892968 0.80135256 3.1205199 7750959
-2.5586221 0.80135256 3.1205199 7619632
-2.053957 0.65109891 2.5354223 7094835
-0.79181802 0.25408739 0.98943311 6175538
-0.78209186 0.25408739 0.98943311 6043696
-0.71970439 0.23676324 0.92197174 6634029
-0.71064138 0.23676324 0.92197174 7029038
-0.57165647 0.19291821 0.75123626 6766122
-0.45478618 0.15548632 0.605474 6766895
-0.44883436 0.15548632 0.605474 6767152
-0.44288251 0.15548632 0.605474 7160880
-0.44355083 0.15784216 0.61464781 8146998
-0.44423974 0.16027051 0.62410396 8212535
-0.43146679 0.15784216 0.61464781 8277816
-0.42542478 0.15784216 0.61464781 8540988
-0.41938275 0.15784216 0.61464781 8475449
-0.40717149 0.15548632 0.605474 8279098
-0.40729871 0.15784216 0.61464781 5779998
-0.40125671 0.15784216 0.61464781 3282972
-0.39521471 0.15784216 0.61464781 3151386
-0.38917267 0.15784216 0.61464781 3217433
-0.38313067 0.15784216 0.61464781 3019800
-0.37708864 0.15784216 0.61464781 3020054
-0.37104663 0.15784216 0.61464781 3085593
-0.36500463 0.15784216 0.61464781 3347734
-0.3589626 0.15784216 0.61464781 3346964
-0.38184851 0.17078005 0.66502881 3085073
-0.38156644 0.17362638 0.67611259 3413009
-0.40170023 0.18602826 0.72440636 3544341
0 0 0 3609876
0 0 0 3281171
0 0 0 3281173
0 0 0 7885390
0 0 0 10841156
0 0 0 9985340
-0.40211841 0.21260373 0.82789302 6960925
-0.38610059 0.20835166 0.81133515 918535
-0.36358187 0.20033814 0.78012997 786696
-0.35591316 0.20033814 0.78012997 590088
-0.34824443 0.20033814 0.78012997 786698
-0.3279618 0.19291821 0.75123626 983563
-0.32057711 0.19291821 0.75123626 786696
-0.30200699 0.18602826 0.72440636 1246474
-0.28971261 0.18276462 0.71169752 1246731
-0.2827166 0.18276462 0.71169752 1969940
-0.29652965 0.19655816 0.76541048 5123888
0 0 0 8274232
0 0 0 10765620
0 0 0 12207661
0 0 0 12731690
0 0 0 12731945
0 0 0 12732202
0 0 0 13124905
0 0 0 13190700
-0.36748829 0.31568432 1.2292956 13322284
-0.35540426 0.31568432 1.2292956 13256233
-0.31471026 0.28937733 1.1268544 13190441
-0.19176835 0.18276462 0.71169752 13124904
-0.18477233 0.18276462 0.71169752 13124648
-0.21110936 0.21703297 0.84514076 12928041
-0.20280159 0.21703297 0.84514076 12796968
-0.18671407 0.20835166 0.81133515 12796710
-0.17873861 0.20835166 0.81133515 12862248
-0.17076315 0.20835166 0.81133515 12861989
-0.17694312 0.22646919 0.88188601 12862248
-0.16469385 0.22165069 0.86312246 12796455
-0.15620932 0.22165069 0.86312246 13124389
-0.14772478 0.22165069 0.86312246 12928037
-0.1454287 0.23150183 0.90148348 13387563
-0.13656709 0.23150183 0.90148348 12928041
-0.12770545 0.23150183 0.90148348 12797223
-0.11626028 0.22646919 0.88188601 12731686
-0.12373 0.26043957 1.014169 13058857
-0.10112059 0.23150183 0.90148348 13255719
-0.092258967 0.23150183 0.90148348 13190184
-0.081584357 0.22646919 0.88188601 12928039
-0.072915383 0.22646919 0.88188601 13189928
-0.065674096 0.23150183 0.90148348 13124390
-0.058103669 0.23676324 0.92197174 13190182
-0.059938572 0.28937733 1.1268544 13058598
-0.053303495 0.31568432 1.2292956 13190182
-0.042507574 0.32554945 1.2677112 13387302
-0.030045917 0.32554945 1.2677112 13255975
-0.017584259 0.32554945 1.2677112 12796455
-0.0052878466 0.33605108 1.3086051 12796453
0.0075758002 0.33605108 1.3086051 12862248
0.020439448 0.33605108 1.3086051 12337190
0.034413196 0.34725276 1.3522252 12337190
0.049350653 0.359227 1.3988537 12271912
0.063101448 0.359227 1.3988537 12272426
0.079596967 0.37205651 1.4488127 12534569
0.10509952 0.41670331 1.6226703 12862246
0 0 0 12469541
0 0 0 12599592
0 0 0 12403496
0 0 0 12403496
0 0 0 12993319
0.71716088 1.4882261 5.7952509 12927526
0.60209996 1.1575093 4.5074177 13255977
0.64640808 1.1575093 4.5074177 13059625
0.47818813 0.80135256 3.1205199 13059112
0.73502433 1.1575093 4.5074177 13059110
0.5844993 0.86813188 3.380563 13124391
0.61773038 0.86813188 3.380563 12928809
0.65096146 0.86813188 3.380563 12993832
0.68419254 0.86813188 3.380563 13059112
0.71742362 0.86813188 3.380563 12993576
0.64341831 0.74411303 2.8976254 13059110
0.62710863 0.69450551 2.7044504 13059110
0.6536935 0.69450551 2.7044504 13191210
0.637761 0.65109891 2.5354223 13059625
0.66268432 0.65109891 2.5354223 13060397
0.68760765 0.65109891 2.5354223 12993832
0.67061734 0.61279899 2.3862798 13125162
0.43700993 0.38583642 1.5024725 13124905
0.45177931 0.38583642 1.5024725 13321770
0.4498862 0.37205651 1.4488127 12993834
0.46412811 0.37205651 1.4488127 13059110
0.46187449 0.359227 1.3988537 13190186
0.47562528 0.359227 1.3988537 13124648
0.50685376 0.37205651 1.4488127 13125419
0.54039556 0.38583642 1.5024725 13058855
0.55516493 0.38583642 1.5024725 12862504
0.56993431 0.38583642 1.5024725 12797225
0.58470368 0.38583642 1.5024725 12600361
0.62252969 0.40067628 1.5602599 12731944
0.63786709 0.40067628 1.5602599 12928809
0.65320456 0.40067628 1.5602599 12666409
0.66854197 0.40067628 1.5602599 12993835
0.68387938 0.40067628 1.5602599 12731433
0.67331988 0.38583642 1.5024725 12665638
0.68808925 0.38583642 1.5024725 12468776
0.70285863 0.38583642 1.5024725 12600105
0.69199842 0.37205651 1.4488127 12271912
0.7062403 0.37205651 1.4488127 12272426
0.72048217 0.37205651 1.4488127 12403496
0.76193613 0.38583642 1.5024725 12272426
0.7767055 0.38583642 1.5024725 12272426
0.82191622 0.40067628 1.5602599 12140582
0.83725363 0.40067628 1.5602599 12074793
0.88669467 0.41670331 1.6226703 12271912
0.90264559 0.41670331 1.6226703 12074790
0.91859657 0.41670331 1.6226703 12140326
0.93454748 0.41670331 1.6226703 12140326
0.91394079 0.40067628 1.5602599 12140586
0.89486051 0.38583642 1.5024725 11943721
0.90962988 0.38583642 1.5024725 11877928
0.92439926 0.38583642 1.5024725 11483941
0.97529048 0.40067628 1.5602599 11549994
1.0302529 0.41670331 1.6226703 11418918
1.0897957 0.43406594 1.6902815 11550504
1.1064112 0.43406594 1.6902815 11419431
1.0781058 0.41670331 1.6226703 11485225
1.0519776 0.40067628 1.5602599 11550248
1.067315 0.40067628 1.5602599 11681063
1.0826524 0.40067628 1.5602599 11418917
1.1419095 0.41670331 1.6226703 11288615
1.1578604 0.41670331 1.6226703 11287845
1.1738113 0.41670331 1.6226703 11681578
1.1897622 0.41670331 1.6226703 11615784
1.2057132 0.41670331 1.6226703 11287847
1.2216641 0.41670331 1.6226703 11353127
1.1900145 0.40067628 1.5602599 11353125
1.1607091 0.38583642 1.5024725 11353382
1.1754786 0.38583642 1.5024725 11158828
1.2360268 0.40067628 1.5602599 11290673
1.2513641 0.40067628 1.5602599 11093551
1.3173696 0.41670331 1.6226703 11093551
1.4492614 0.45293838 1.763772 10765613
1.533263 0.47352648 1.8439435 10765615
1.6252646 0.49607536 1.9317503 10831408
1.6442538 0.49607536 1.9317503 10765873
1.4553376 0.43406594 1.6902815 10897199
1.4719532 0.43406594 1.6902815 10896686
1.4885688 0.43406594 1.6902815 11093296
1.6420193 0.47352648 1.8439435 10830894
1.6601453 0.47352648 1.8439435 10766130
1.6782713 0.47352648 1.8439435 10830637
1.7771782 0.49607536 1.9317503 10699565
1.7961674 0.49607536 1.9317503 10502444
1.7326494 0.47352648 1.8439435 10371115
1.6048776 0.43406594 1.6902815 10042153
1.6919928 0.45293838 1.763772 10305577
2.06919 0.54829383 2.1350925 10436648
2.2062991 0.57875466 2.2537088 10567724
2.2284532 0.57875466 2.2537088 10305325
2.0255466 0.52087915 2.028338 10174509
2.045485 0.52087915 2.028338 10503731
2.0654237 0.52087915 2.028338 10306349
2.0853624 0.52087915 2.028338 10766386
2.1053011 0.52087915 2.028338 10898484
2.2370944 0.54829383 2.1350925 10767413
2.1451783 0.52087915 2.028338 10963507
2.062016 0.49607536 1.9317503 10438191
1.9864142 0.47352648 1.8439435 10372397
2.0045402 0.47352648 1.8439435 9324592
2.0226662 0.47352648 1.8439435 8736568
2.0407922 0.47352648 1.8439435 8738106
2.0589182 0.47352648 1.8439435 9263680
2.0770445 0.47352648 1.8439435 7291694
0 0 0 6109484
0 0 0 7684143
0 0 0 8929580
0 0 0 10111283
0 0 0 10571061
2.1858006 0.47352648 1.8439435 10636083
2.3088756 0.49607536 1.9317503 10898743
3.0553226 0.65109891 2.5354223 10832693
3.080246 0.65109891 2.5354223 10766900
0 0 0 10504757
0 0 0 10438964
0 0 0 10504755
0 0 0 10833205
0 0 0 10766898
0 0 0 10766643
0 0 0 10635827
0 0 0 10307122
0 0 0 6569773
0 0 0 3019788
-4.0346217 0.90136296 3.380563 1311493
-4.0013905 0.90136296 3.380563 983818
-4.3289013 0.9833051 3.687887 721673
-4.2926493 0.9833051 3.687887 655882
-4.2563972 0.9833051 3.687887 721675
-4.2201452 0.9833051 3.687887 721675
-4.1838932 0.9833051 3.687887 1049867
-4.1476407 0.9833051 3.687887 1378061
-4.1113887 0.9833051 3.687887 1772560
-4.0751367 0.9833051 3.687887 2364439
-4.0388846 0.9833051 3.687887 2627098
-4.0026326 0.9833051 3.687887 3021598
-3.9663804 0.9833051 3.687887 3021340
-3.9301283 0.9833051 3.687887 3415326
-3.8938763 0.9833051 3.687887 3415065
-3.5361555 0.90136296 3.380563 3151892
-3.5029244 0.90136296 3.380563 3217940
-3.4696932 0.90136296 3.380563 3612696
-3.4364622 0.90136296 3.380563 4271398
-3.4032311 0.90136296 3.380563 4995120
-3.3699999 0.90136296 3.380563 6439992
-3.3367689 0.90136296 3.380563 7030327
-3.3035378 0.90136296 3.380563 7751732
-3.0187449 0.83202744 3.1205199 8079407
-2.98807 0.83202744 3.1205199 7948336
-3.2038445 0.90136296 3.380563 7357231
-3.4588511 0.9833051 3.687887 7159851
-3.7648592 1.0816356 4.0566759 7225131
-3.1041512 0.90136296 3.380563 7290668
-2.8346958 0.83202744 3.1205199 7224876
-2.8040209 0.83202744 3.1205199 7093292
-2.5752497 0.77259684 2.8976254 6436391
-2.546766 0.77259684 2.8976254 6042916
-2.5182822 0.77259684 2.8976254 5582624
-2.4897983 0.77259684 2.8976254 4334107
-1.4981915 0.47027633 1.763772 3415321
-1.0643635 0.33801112 1.2677112 2496538
-0.801449 0.25753227 0.96587515 2627612
-0.7919544 0.25753227 0.96587515 4469553
-0.7824598 0.25753227 0.96587515 6045497
-0.75498933 0.25154316 0.94341296 2560536
-0.7457155 0.25154316 0.94341296 2298649
-0.71970439 0.24582627 0.92197174 4141103
-0.58996642 0.20408218 0.76541048 6370088
-0.56126267 0.19666101 0.73757738 7685427
-0.52535647 0.1864889 0.69942683 7486250
-0.51848108 0.1864889 0.69942683 6632999
-0.5029344 0.18332808 0.68757218 6502441
-0.48790592 0.18027259 0.67611259 7358519
-0.45118096 0.16900556 0.63385558 7884601
-0.44495013 0.16900556 0.63385558 8672826
-0.43196979 0.16640548 0.62410396 8607033
-0.42583483 0.16640548 0.62410396 8804412
-0.41334075 0.16388418 0.61464781 8738876
-0.40729871 0.16388418 0.61464781 8673340
-0.39526781 0.16143815 0.605474 6240038
-0.39521471 0.16388418 0.61464781 3676184
-0.38917267 0.16388418 0.61464781 3151640
-0.389025 0.16640548 0.62410396 3020054
-0.38289005 0.16640548 0.62410396 3020057
-0.37104663 0.16388418 0.61464781 3019797
-0.3706201 0.16640548 0.62410396 2954261
-0.3821215 0.17445736 0.65430254 3150868
-0.38184851 0.17731731 0.66502881 3150868
-0.38156644 0.18027259 0.67611259 3216404
-0.3878485 0.1864889 0.69942683 3216146
0 0 0 3544341
0 0 0 3478548
0 0 0 3215380
0 0 0 3084564
0 0 0 5385509
0 0 0 6171938
-0.40211841 0.22074196 0.82789302 3806995
-0.37853 0.21208541 0.79542661 1246730
-0.36358187 0.20800686 0.78012997 917769
-0.36289182 0.21208541 0.79542661 918282
-0.35507274 0.21208541 0.79542661 1312268
-0.34725368 0.21208541 0.79542661 2887440
-0.32057711 0.2003029 0.75123626 5710365
-0.30200699 0.19314921 0.72440636 9451304
-0.27989185 0.18332808 0.68757218 12009513
-0.27313298 0.18332808 0.68757218 12665639
-0.27572057 0.18976064 0.71169752 12403749
-0.28900564 0.20408218 0.76541048 12666409
0 0 0 12666155
0 0 0 13059627
-0.28818327 0.22074196 0.82789302 13125162
-0.28004503 0.22074196 0.82789302 12928040
-0.28347731 0.23013523 0.86312246 12797739
-0.27499276 0.23013523 0.86312246 12993832
0 0 0 12993832
-0.33686432 0.30045435 1.1268544 13321768
-0.32578728 0.30045435 1.1268544 12993832
-0.19202659 0.18332808 0.68757218 13124648
-0.18526773 0.18332808 0.68757218 13190696
