# .PCD v0.7 - Point Cloud Data file format
VERSION 0.7
FIELDS x y z rgb
SIZE 4 4 4 4
TYPE F F F U
COUNT 1 1 1 1
WIDTH 1227
HEIGHT 1
VIEWPOINT 0 0 0 1 0 0 0
POINTS 1227
DATA ascii
-4.0838776 -1.0318615 4.0566759 10053446
-4.0440001 -1.0318615 4.0566759 10579020
-3.6401114 -0.93805593 3.687887 12158043
-3.3035378 -0.85988462 3.380563 12354646
-3.2703068 -0.85988462 3.380563 12288601
-3.2370756 -0.85988462 3.380563 12419419
-3.2038445 -0.85988462 3.380563 12550746
-3.1706135 -0.85988462 3.380563 12615511
-3.1373823 -0.85988462 3.380563 12550489
-3.1041512 -0.85988462 3.380563 12156244
-3.0709202 -0.85988462 3.380563 12091219
-3.0376892 -0.85988462 3.380563 12484439
-3.004458 -0.85988462 3.380563 12353111
-2.9712269 -0.85988462 3.380563 12353624
-2.9379959 -0.85988462 3.380563 12221777
-2.9047649 -0.85988462 3.380563 12025425
-2.8715336 -0.85988462 3.380563 11893842
-2.6199718 -0.79373968 3.1205199 12157014
-2.5892968 -0.79373968 3.1205199 12221520
-2.5586221 -0.79373968 3.1205199 11959379
-2.5279472 -0.79373968 3.1205199 11828050
-2.3188956 -0.73704392 2.8976254 12024656
-2.1377177 -0.6879077 2.7044504 12024656
-2.1111329 -0.6879077 2.7044504 11958866
-2.084548 -0.6879077 2.7044504 11695950
-1.9293405 -0.64491343 2.5354223 11959636
-1.9044172 -0.64491343 2.5354223 11696720
-1.8794938 -0.64491343 2.5354223 11762259
-1.8545705 -0.64491343 2.5354223 11762258
-1.8296472 -0.64491343 2.5354223 11696722
-1.9250387 -0.6879077 2.7044504 11630417
-2.1905239 -0.79373968 3.1205199 11827536
-2.1598489 -0.79373968 3.1205199 11499343
-2.1291742 -0.79373968 3.1205199 11630929
-2.0984993 -0.79373968 3.1205199 11893074
-2.0678244 -0.79373968 3.1205199 11893072
-2.0371497 -0.79373968 3.1205199 11696211
-2.0064747 -0.79373968 3.1205199 11564627
-1.9757999 -0.79373968 3.1205199 11959125
-1.9451251 -0.79373968 3.1205199 11893845
-1.9144502 -0.79373968 3.1205199 11959637
-1.8837754 -0.79373968 3.1205199 11762258
-1.7207361 -0.73704392 2.8976254 12287058
-1.6922523 -0.73704392 2.8976254 12154959
-1.6637685 -0.73704392 2.8976254 11959633
-1.761076 -0.79373968 3.1205199 12352337
-1.7304012 -0.79373968 3.1205199 12155729
-1.6997262 -0.79373968 3.1205199 12353878
-1.6690514 -0.79373968 3.1205199 12616277
-1.6383766 -0.79373968 3.1205199 12615253
-1.6077017 -0.79373968 3.1205199 12288344
-1.2813343 -0.64491343 2.5354223 12747096
-1.256411 -0.64491343 2.5354223 12813398
-1.2314876 -0.64491343 2.5354223 12945496
-1.4850023 -0.79373968 3.1205199 13075286
-1.4543275 -0.79373968 3.1205199 13272668
-1.5422902 -0.85988462 3.380563 12813402
-1.5090592 -0.85988462 3.380563 13338715
-1.7709938 -1.0318615 4.0566759 13535319
-1.3316281 -0.79373968 3.1205199 13469785
-1.3009531 -0.79373968 3.1205199 13602137
-1.1795441 -0.73704392 2.8976254 13601372
-1.2396035 -0.79373968 3.1205199 13864798
-1.2089287 -0.79373968 3.1205199 13602396
-1.0940927 -0.73704392 2.8976254 13339993
-0.82880706 -0.57325643 2.2537088 13602139
-0.72598767 -0.51593077 2.028338 13733725
-0.78449893 -0.57325643 2.2537088 13864793
-0.65343839 -0.49136263 1.9317503 13601621
-0.63444918 -0.49136263 1.9317503 13666907
-0.53852749 -0.42994231 1.6902815 13536087
-0.52191198 -0.42994231 1.6902815 13405275
-0.50529641 -0.42994231 1.6902815 13206613
-0.55849242 -0.49136263 1.9317503 13010517
0 0 0 12682323
0 0 0 12812628
-0.21493924 -0.21058398 0.82789302 12220752
-0.19119337 -0.19469085 0.76541048 11038535
-0.18366936 -0.19469085 0.76541048 10182979
-0.17288339 -0.19108547 0.75123626 7356464
-0.15958804 -0.18426098 0.72440636 6107172
-0.14979224 -0.18102835 0.71169752 5778727
-0.1403342 -0.17790715 0.69942683 5319973
-0.13345881 -0.17790715 0.69942683 5712934
-0.12658341 -0.17790715 0.69942683 4466212
-0.11767907 -0.1748918 0.68757218 1836553
-0.10907153 -0.17197692 0.67611259 1837326
-0.10416134 -0.1748918 0.68757218 2494225
-0.097402476 -0.1748918 0.68757218 2887952
-0.090643607 -0.1748918 0.68757218 3085076
-0.083884746 -0.1748918 0.68757218 2953233
-0.077125877 -0.1748918 0.68757218 3413010
-0.071580231 -0.17790715 0.69942683 3872789
-0.064704835 -0.17790715 0.69942683 3938579
-0.058843996 -0.18102835 0.71169752 4267288
-0.051847976 -0.18102835 0.71169752 4070423
-0.044851959 -0.18102835 0.71169752 1705224
-0.037855938 -0.18102835 0.71169752 1377801
-0.031982098 -0.18761118 0.73757738 1115145
-0.024290042 -0.18426098 0.72440636 1443850
-0.017169096 -0.18426098 0.72440636 2296589
-0.010048147 -0.18426098 0.72440636 2230284
-0.0029804225 -0.18761118 0.73757738 2361609
0.0043490706 -0.19108547 0.75123626 4528406
0.011733756 -0.19108547 0.75123626 3281170
0.019479167 -0.19469085 0.76541048 1312523
0.027003186 -0.19469085 0.76541048 10184270
0.034527205 -0.19469085 0.76541048 13142358
0.042051226 -0.19469085 0.76541048 13536091
0.049575243 -0.19469085 0.76541048 13141336
0.057099264 -0.19469085 0.76541048 13601884
0.064623281 -0.19469085 0.76541048 13666905
0.072147302 -0.19469085 0.76541048 13404251
0.079671323 -0.19469085 0.76541048 13011033
0.087195344 -0.19469085 0.76541048 13207126
0.096540891 -0.19843492 0.78012997 13141594
0.10625293 -0.20232579 0.79542661 12813143
0 0 0 12944727
0 0 0 12944474
0 0 0 12747350
0 0 0 12747864
0 0 0 12682070
0 0 0 12550482
0 0 0 12747093
0 0 0 12615511
0 0 0 12420439
0.55333114 -0.6069774 2.3862798 12419670
0.57678843 -0.6069774 2.3862798 12747353
0.78493661 -0.79373968 3.1205199 12877907
0.62370288 -0.6069774 2.3862798 12681555
0.64716011 -0.6069774 2.3862798 12813402
0.67061734 -0.6069774 2.3862798 13075291
0.69407457 -0.6069774 2.3862798 13207131
0.7175318 -0.6069774 2.3862798 13075545
0.74098909 -0.6069774 2.3862798 13535324
0.76444632 -0.6069774 2.3862798 13470813
0.78790355 -0.6069774 2.3862798 13602142
0.86207086 -0.64491343 2.5354223 13799523
0.88699412 -0.64491343 2.5354223 13536094
0.91191745 -0.64491343 2.5354223 13601889
0.93684077 -0.64491343 2.5354223 13864802
0.9617641 -0.64491343 2.5354223 13799263
0.65779161 -0.42994231 1.6902815 13733727
0.67440712 -0.42994231 1.6902815 13930849
0.72106713 -0.44863543 1.763772 13996388
0.89385885 -0.54308504 2.1350925 14390883
0.86910456 -0.51593077 2.028338 14325092
0.88904321 -0.51593077 2.028338 14325349
0.90898186 -0.51593077 2.028338 14323809
0.92892057 -0.51593077 2.028338 14324833
0.94885921 -0.51593077 2.028338 14588516
0.96879786 -0.51593077 2.028338 14653028
1.0985961 -0.57325643 2.2537088 14719591
1.1207502 -0.57325643 2.2537088 14391655
1.1429043 -0.57325643 2.2537088 14063716
1.1037394 -0.54308504 2.1350925 14260328
1.1872123 -0.57325643 2.2537088 14128228
1.2805055 -0.6069774 2.3862798 14193767
1.3039628 -0.6069774 2.3862798 14260069
2.507349 -1.1465129 4.5074177 14128228
2.8706143 -1.2898269 5.0708447 14128226
2.5959654 -1.1465129 4.5074177 14325347
2.6402733 -1.1465129 4.5074177 14193507
2.6845815 -1.1465129 4.5074177 14325348
1.5350003 -0.64491343 2.5354223 14127460
1.5599236 -0.64491343 2.5354223 13996645
1.584847 -0.64491343 2.5354223 13668965
1.7170882 -0.6879077 2.7044504 13930339
0.81734681 -0.32245672 1.2677112 13865059
0.82980847 -0.32245672 1.2677112 13536354
0.89842141 -0.34395385 1.3522252 13601635
0.94315231 -0.35581431 1.3988537 13405537
0.9569031 -0.35581431 1.3988537 13339998
0.97065389 -0.35581431 1.3988537 13471071
1.019562 -0.36852196 1.4488127 13273696
1.0338038 -0.36852196 1.4488127 13339746
1.0480458 -0.36852196 1.4488127 13273954
1.0622877 -0.36852196 1.4488127 13142624
1.0394078 -0.35581431 1.3988537 13208415
1.0531586 -0.35581431 1.3988537 12945759
1.0669094 -0.35581431 1.3988537 12944477
1.0806602 -0.35581431 1.3988537 12682588
1.1754786 -0.38217095 1.5024725 12748129
1.1902479 -0.38217095 1.5024725 12747870
1.1619809 -0.36852196 1.4488127 12551257
1.1356634 -0.35581431 1.3988537 12683358
1.2345561 -0.38217095 1.5024725 12550237
1.2493254 -0.38217095 1.5024725 12156246
1.7065281 -0.51593077 2.028338 12354141
1.7264667 -0.51593077 2.028338 12091481
0 0 0 12026201
1.8593093 -0.54308504 2.1350925 12157016
1.3231723 -0.38217095 1.5024725 11959383
1.3379416 -0.38217095 1.5024725 11893847
1.3527111 -0.38217095 1.5024725 11893590
1.758189 -0.49136263 1.9317503 11696470
1.8660372 -0.51593077 2.028338 11892567
1.8859758 -0.51593077 2.028338 11565401
1.8151566 -0.49136263 1.9317503 11302739
1.8341458 -0.49136263 1.9317503 11434582
1.9457918 -0.51593077 2.028338 11433556
1.9657305 -0.51593077 2.028338 11236950
1.9856691 -0.51593077 2.028338 11564629
2.0056078 -0.51593077 2.028338 11171153
2.132154 -0.54308504 2.1350925 10909268
2.1531422 -0.54308504 2.1350925 11040339
3.1775749 -0.79373968 3.1205199 11367507
3.2082498 -0.79373968 3.1205199 10776917
3.5088348 -0.85988462 3.380563 10907733
2.5002818 -0.6069774 2.3862798 10907985
2.6814728 -0.64491343 2.5354223 10973521
2.8868225 -0.6879077 2.7044504 10711377
3.6417592 -0.85988462 3.380563 11235667
3.1499918 -0.73704392 2.8976254 10776917
3.7082214 -0.85988462 3.380563 10711378
3.7414525 -0.85988462 3.380563 10842194
0 0 0 10514769
3.5149984 -0.79373968 3.1205199 10317394
3.5456731 -0.79373968 3.1205199 10383188
3.8743768 -0.85988462 3.380563 10448979
3.907608 -0.85988462 3.380563 10251857
3.377862 -0.73704392 2.8976254 10054736
1.7662535 -0.38217095 1.5024725 10054993
2.2898865 -0.49136263 1.9317503 10054993
5.3873768 -1.1465129 4.5074177 10185550
0 0 0 9923150
0 0 0 10251343
0 0 0 10053966
0 0 0 10513232
0 0 0 10118989
0 0 0 9922639
0 0 0 9857362
0 0 0 9791823
0 0 0 10054481
0 0 0 10119244
0 0 0 12879710
0 0 0 12813661
-3.7242663 -0.7630648 3.1205199 13274213
-4.0013905 -0.82665354 3.380563 13078118
-3.9681594 -0.82665354 3.380563 12946789
-3.9349284 -0.82665354 3.380563 13144168
-3.9016974 -0.82665354 3.380563 13078118
-3.8684664 -0.82665354 3.380563 13143909
-3.8352351 -0.82665354 3.380563 13406311
-3.8020041 -0.82665354 3.380563 13405797
-3.7687731 -0.82665354 3.380563 13406565
-3.7355418 -0.82665354 3.380563 13209954
-3.7023108 -0.82665354 3.380563 13340770
-3.6690798 -0.82665354 3.380563 13536866
-3.6358488 -0.82665354 3.380563 13668711
-3.6026175 -0.82665354 3.380563 13733221
-3.5693865 -0.82665354 3.380563 13471333
-3.5361555 -0.82665354 3.380563 13472104
-3.821372 -0.90180385 3.687887 13404765
-3.78512 -0.90180385 3.687887 11629898
-4.123755 -0.99198431 4.0566759 10315589
-4.0838776 -0.99198431 4.0566759 10249796
-4.0440001 -0.99198431 4.0566759 9923145
-4.0041227 -0.99198431 4.0566759 10973779
-3.6038594 -0.90180385 3.687887 12353622
-3.2703068 -0.82665354 3.380563 12616536
-3.2370756 -0.82665354 3.380563 12551002
-3.2038445 -0.82665354 3.380563 12551000
-3.4588511 -0.90180385 3.687887 12616535
-3.7648592 -0.99198431 4.0566759 12681302
-3.3863468 -0.90180385 3.687887 12483927
-3.3500948 -0.90180385 3.687887 12353879
-3.0376892 -0.82665354 3.380563 12156244
-3.004458 -0.82665354 3.380563 12353625
-2.9712269 -0.82665354 3.380563 12288600
-2.9379959 -0.82665354 3.380563 12090449
-2.9047649 -0.82665354 3.380563 12287828
-2.8715336 -0.82665354 3.380563 12091220
-2.6199718 -0.7630648 3.1205199 11893841
-2.8050716 -0.82665354 3.380563 12222290
-2.7718403 -0.82665354 3.380563 11894099
-2.5279472 -0.7630648 3.1205199 11959378
-2.3188956 -0.70856017 2.8976254 11893842
-2.1377177 -0.66132277 2.7044504 12024656
-2.1111329 -0.66132277 2.7044504 12025428
-2.084548 -0.66132277 2.7044504 12155729
-2.0579631 -0.66132277 2.7044504 11893072
-1.9044172 -0.61999017 2.5354223 12024658
-1.8794938 -0.61999017 2.5354223 11762513
-1.8545705 -0.61999017 2.5354223 11828051
-1.8296472 -0.61999017 2.5354223 12156244
-1.8047239 -0.61999017 2.5354223 11762257
-1.8984538 -0.66132277 2.7044504 11761743
-2.1598489 -0.7630648 3.1205199 11761999
-2.1291742 -0.7630648 3.1205199 11827794
-2.0984993 -0.7630648 3.1205199 12154959
-2.0678244 -0.7630648 3.1205199 12155470
-2.0371497 -0.7630648 3.1205199 11696720
-2.0064747 -0.7630648 3.1205199 11564619
-1.9757999 -0.7630648 3.1205199 11958353
-1.9451251 -0.7630648 3.1205199 12025430
-1.7777036 -0.70856017 2.8976254 12025684
-1.8837754 -0.7630648 3.1205199 12156244
-1.7207361 -0.70856017 2.8976254 11697234
-1.6922523 -0.70856017 2.8976254 12615764
-1.6637685 -0.70856017 2.8976254 12352595
-1.6352848 -0.70856017 2.8976254 12680533
-1.6068009 -0.70856017 2.8976254 12616023
-1.6997262 -0.7630648 3.1205199 12484437
-1.6690514 -0.7630648 3.1205199 12419414
-1.6383766 -0.7630648 3.1205199 12681815
-1.6077017 -0.7630648 3.1205199 13141338
-1.2813343 -0.61999017 2.5354223 12945242
-1.256411 -0.61999017 2.5354223 13010263
-1.1590472 -0.58352011 2.3862798 13010515
-1.13559 -0.58352011 2.3862798 12813397
-1.4543275 -0.7630648 3.1205199 13338714
-1.4236526 -0.7630648 3.1205199 13274205
-1.3929777 -0.7630648 3.1205199 13470301
-1.2649955 -0.70856017 2.8976254 13798491
-1.1540775 -0.66132277 2.7044504 13995100
-0.99484652 -0.58352011 2.3862798 13733723
-0.97138929 -0.58352011 2.3862798 13864541
-0.94793206 -0.58352011 2.3862798 14127197
-1.1225766 -0.70856017 2.8976254 14060893
-1.0940927 -0.70856017 2.8976254 13996120
-1.065609 -0.70856017 2.8976254 13733727
-0.80665296 -0.5511024 2.2537088 13733210
-0.67242759 -0.47237343 1.9317503 13996895
-0.57175863 -0.41332677 1.6902815 13995868
-0.63444918 -0.47237343 1.9317503 14060891
-0.61546004 -0.47237343 1.9317503 13666648
-0.52191198 -0.41332677 1.6902815 13536086
-0.43311122 -0.35428008 1.4488127 13469782
-0.41886932 -0.35428008 1.4488127 13207122
-0.40462744 -0.35428008 1.4488127 13338968
-0.30363321 -0.2755512 1.1268544 13207382
-0.20253889 -0.1907662 0.78012997 12878161
-0.19119337 -0.18716682 0.76541048 12089681
-0.18026808 -0.18370079 0.75123626 11629900
-0.17288339 -0.18370079 0.75123626 10709827
-0.16248964 -0.18036076 0.73757738 6436139
-0.14979224 -0.17403233 0.71169752 5319973
-0.1403342 -0.17103176 0.69942683 4924701
-0.13345881 -0.17103176 0.69942683 3742232
-0.12236396 -0.16533069 0.67611259 1968397
-0.11571775 -0.16533069 0.67611259 1771531
-0.10907153 -0.16533069 0.67611259 2231566
-0.10416134 -0.16813293 0.68757218 2297102
-0.097402476 -0.16813293 0.68757218 2691344
-0.090643607 -0.16813293 0.68757218 2428687
-0.083884746 -0.16813293 0.68757218 2231310
-0.078455634 -0.17103176 0.69942683 2362380
-0.071580231 -0.17103176 0.69942683 3019025
-0.064704835 -0.17103176 0.69942683 4070938
-0.058843996 -0.17403233 0.71169752 4267033
-0.051847976 -0.17403233 0.71169752 4594968
-0.044851959 -0.17403233 0.71169752 2953745
-0.037855938 -0.17403233 0.71169752 1903116
-0.031410988 -0.17714004 0.72440636 1311238
-0.024290042 -0.17714004 0.72440636 2033933
-0.017169096 -0.17714004 0.72440636 3216918
-0.010048147 -0.17714004 0.72440636 2690060
-0.0029804225 -0.18036076 0.73757738 2624014
0.0043490706 -0.18370079 0.75123626 4267035
0.011955148 -0.18716682 0.76541048 2690575
0.019479167 -0.18716682 0.76541048 1312264
0.027003186 -0.18716682 0.76541048 10512971
0.034527205 -0.18716682 0.76541048 13141588
0.042859904 -0.1907662 0.78012997 13798493
0.050528619 -0.1907662 0.78012997 13471836
0.058197331 -0.1907662 0.78012997 13864284
0.065866046 -0.1907662 0.78012997 13733473
0.074976608 -0.19450672 0.79542661 13799520
0.082795694 -0.19450672 0.79542661 13601884
0.090614773 -0.19450672 0.79542661 13338715
0.096540891 -0.1907662 0.78012997 13207383
0 0 0 13010520
0 0 0 12945240
0 0 0 12878936
0 0 0 12944985
0 0 0 12748633
0 0 0 12485207
0 0 0 12747092
0 0 0 12681813
0 0 0 12813400
0.52987391 -0.58352011 2.3862798 12812633
0.55333114 -0.58352011 2.3862798 12814171
0.57678843 -0.58352011 2.3862798 12682585
0.60024565 -0.58352011 2.3862798 13207384
0.62370288 -0.58352011 2.3862798 13010781
0.64716011 -0.58352011 2.3862798 12879447
0.67061734 -0.58352011 2.3862798 13141336
0.69407457 -0.58352011 2.3862798 13207131
0.7175318 -0.58352011 2.3862798 13338712
0.74098909 -0.58352011 2.3862798 13208412
0.76444632 -0.58352011 2.3862798 13272920
0.83714753 -0.61999017 2.5354223 13536348
0.86207086 -0.61999017 2.5354223 13733471
0.88699412 -0.61999017 2.5354223 13668450
0.91191745 -0.61999017 2.5354223 13799264
0.93684077 -0.61999017 2.5354223 13800290
0.73277265 -0.47237343 1.9317503 13995872
0.65779161 -0.41332677 1.6902815 14323810
0.67440712 -0.41332677 1.6902815 14258272
0.7897402 -0.47237343 1.9317503 14259042
0.84916592 -0.49599215 2.028338 14127456
0.86910456 -0.49599215 2.028338 14193763
0.88904321 -0.49599215 2.028338 14325094
0.90898186 -0.49599215 2.028338 14390886
0.92892057 -0.49599215 2.028338 14455906
0.94885921 -0.49599215 2.028338 14194021
0.96879786 -0.49599215 2.028338 14785388
1.0407752 -0.52209699 2.1350925 14259812
1.0617633 -0.52209699 2.1350925 14457192
1.1429043 -0.5511024 2.2537088 14194278
1.1650583 -0.5511024 2.2537088 14325862
1.2570482 -0.58352011 2.3862798 14193511
1.2805055 -0.58352011 2.3862798 14259816
1.3039628 -0.58352011 2.3862798 14522212
1.32742 -0.58352011 2.3862798 14324321
1.4353071 -0.61999017 2.5354223 14324837
1.6688347 -0.70856017 2.8976254 13996643
1.6973186 -0.70856017 2.8976254 14062435
1.6107488 -0.66132277 2.7044504 13865311
1.5350003 -0.61999017 2.5354223 13998180
1.5599236 -0.61999017 2.5354223 13865570
1.584847 -0.61999017 2.5354223 13733473
1.6097703 -0.61999017 2.5354223 13733475
1.307755 -0.49599215 2.028338 13536866
0.91565067 -0.34206352 1.3988537 13273695
0.92940152 -0.34206352 1.3988537 13274723
0.94315231 -0.34206352 1.3988537 13536097
0.9569031 -0.34206352 1.3988537 13470302
1.0053201 -0.35428008 1.4488127 13470301
1.019562 -0.35428008 1.4488127 13536864
1.0338038 -0.35428008 1.4488127 13273440
1.0480458 -0.35428008 1.4488127 13273441
0 0 0 13208160
0 0 0 13076573
0.95442504 -0.30999509 1.2677112 12879709
0.93758708 -0.30060127 1.2292956 12879966
0.94967109 -0.30060127 1.2292956 12945760
1.094411 -0.34206352 1.3988537 12812891
1.1477391 -0.35428008 1.4488127 12747098
0.9295848 -0.28342408 1.1590502 12419418
1.1356634 -0.34206352 1.3988537 11894872
1.1904647 -0.35428008 1.4488127 12026202
1.2047065 -0.35428008 1.4488127 11961438
1.2189485 -0.35428008 1.4488127 11961695
1.2331904 -0.35428008 1.4488127 11828309
1.8383213 -0.52209699 2.1350925 11959128
1.766344 -0.49599215 2.028338 11959638
1.7862827 -0.49599215 2.028338 11697239
1.8062212 -0.49599215 2.028338 11762777
0 0 0 11828056
0 0 0 11501146
2.8708265 -0.7630648 3.1205199 11368790
1.7961674 -0.47237343 1.9317503 11171670
1.8151566 -0.47237343 1.9317503 11303254
1.9258533 -0.49599215 2.028338 11302741
1.9457918 -0.49599215 2.028338 11171415
1.9657305 -0.49599215 2.028338 10974550
1.9856691 -0.49599215 2.028338 11433300
2.111166 -0.52209699 2.1350925 11039571
2.2506073 -0.5511024 2.2537088 10974550
2.2727613 -0.5511024 2.2537088 10909270
3.1775749 -0.7630648 3.1205199 11039828
2.4533675 -0.58352011 2.3862798 10973524
2.6316261 -0.61999017 2.5354223 10580821
2.5002818 -0.58352011 2.3862798 10515542
3.3002744 -0.7630648 3.1205199 10842710
3.6085281 -0.82665354 3.380563 10646355
4.3701115 -0.99198431 4.0566759 10580560
3.6749904 -0.82665354 3.380563 10842449
3.7082214 -0.82665354 3.380563 10645585
3.7414525 -0.82665354 3.380563 10711123
3.4843235 -0.7630648 3.1205199 10579538
3.5149984 -0.7630648 3.1205199 10578770
3.5456731 -0.7630648 3.1205199 10120274
3.5763481 -0.7630648 3.1205199 10186065
3.607023 -0.7630648 3.1205199 10579538
3.377862 -0.70856017 2.8976254 10185808
2.9805527 -0.61999017 2.5354223 10054223
3.005476 -0.61999017 2.5354223 10251344
5.3873768 -1.1022048 4.5074177 10185550
0 0 0 10251345
0 0 0 10184780
0 0 0 10120274
0 0 0 10120272
0 0 0 10054223
0 0 0 9791821
0 0 0 9858125
0 0 0 9923407
0 0 0 9988686
0 0 0 9857102
0 0 0 12551000
0 0 0 12485979
-3.7242663 -0.73238999 3.1205199 12616797
-3.6935916 -0.73238999 3.1205199 13208162
-3.6629167 -0.73238999 3.1205199 13405541
-3.9349284 -0.7934224 3.380563 13273954
-3.9016974 -0.7934224 3.380563 13471590
-3.8684664 -0.7934224 3.380563 13208419
-3.8352351 -0.7934224 3.380563 13273699
-3.8020041 -0.7934224 3.380563 13406057
-3.7687731 -0.7934224 3.380563 13142371
-3.7355418 -0.7934224 3.380563 13537127
-3.7023108 -0.7934224 3.380563 12946787
-3.6690798 -0.7934224 3.380563 13012580
-3.6358488 -0.7934224 3.380563 13340259
-3.6026175 -0.7934224 3.380563 13601889
-3.5693865 -0.7934224 3.380563 13341288
-3.5361555 -0.7934224 3.380563 13013352
-3.821372 -0.86555177 3.687887 13011803
-3.78512 -0.86555177 3.687887 11630668
-4.123755 -0.95210695 4.0566759 10447173
-4.0838776 -0.95210695 4.0566759 9856323
-4.4933338 -1.0578966 4.5074177 9790790
-4.4490256 -1.0578966 4.5074177 9790022
-4.4047174 -1.0578966 4.5074177 11697238
-4.3604093 -1.0578966 4.5074177 12287828
-4.3161011 -1.0578966 4.5074177 12418644
-3.8446138 -0.95210695 4.0566759 12485209
-3.8047364 -0.95210695 4.0566759 12353619
-4.183177 -1.0578966 4.5074177 12616791
-4.1388688 -1.0578966 4.5074177 12485466
-3.3500948 -0.86555177 3.687887 12090707
-3.0376892 -0.7934224 3.380563 12091221
-2.7733459 -0.73238999 3.1205199 12353625
-2.9712269 -0.7934224 3.380563 12616022
-2.9379959 -0.7934224 3.380563 12616277
-2.9047649 -0.7934224 3.380563 12156496
-2.8715336 -0.7934224 3.380563 12353108
-2.8383026 -0.7934224 3.380563 12615510
-2.8050716 -0.7934224 3.380563 12287058
-2.5586221 -0.73238999 3.1205199 12090451
-2.5279472 -0.73238999 3.1205199 12025171
-2.3188956 -0.68007636 2.8976254 12090193
-2.2904119 -0.68007636 2.8976254 11959122
-2.1111329 -0.63473791 2.7044504 12090449
-2.084548 -0.63473791 2.7044504 12287058
-2.0579631 -0.63473791 2.7044504 12024659
-2.0313783 -0.63473791 2.7044504 11957582
-1.8794938 -0.59506685 2.5354223 11893844
-1.8545705 -0.59506685 2.5354223 11893587
-1.8296472 -0.59506685 2.5354223 11893331
-1.9250387 -0.63473791 2.7044504 12221267
-1.8984538 -0.63473791 2.7044504 11959377
-2.005574 -0.68007636 2.8976254 12090449
-2.1291742 -0.73238999 3.1205199 12089936
-2.0984993 -0.73238999 3.1205199 11762258
-2.0678244 -0.73238999 3.1205199 12155475
-2.0371497 -0.73238999 3.1205199 12090452
-2.0064747 -0.73238999 3.1205199 12023889
-1.9757999 -0.73238999 3.1205199 11959379
-1.9451251 -0.73238999 3.1205199 12287060
-1.7777036 -0.68007636 2.8976254 12352339
-1.8837754 -0.73238999 3.1205199 12352853
-1.7207361 -0.68007636 2.8976254 12418644
-1.5794355 -0.63473791 2.7044504 12287571
-1.5528506 -0.63473791 2.7044504 12353110
-1.5262657 -0.63473791 2.7044504 12353621
-1.6068009 -0.68007636 2.8976254 12747350
-1.5783172 -0.68007636 2.8976254 12615510
-1.6690514 -0.73238999 3.1205199 12616277
-1.5213495 -0.68007636 2.8976254 12812371
-1.3933414 -0.63473791 2.7044504 13010261
-1.2813343 -0.59506685 2.5354223 12943957
-1.256411 -0.59506685 2.5354223 13338971
-1.1590472 -0.56006289 2.3862798 13273174
-1.13559 -0.56006289 2.3862798 13272664
-1.181641 -0.59506685 2.5354223 13339229
-1.1567177 -0.59506685 2.5354223 13339998
-1.1317943 -0.59506685 2.5354223 13339995
-1.1068711 -0.59506685 2.5354223 13733980
-1.0819478 -0.59506685 2.5354223 14126939
-1.0570245 -0.59506685 2.5354223 14258269
-0.97138929 -0.56006289 2.3862798 14126944
-0.94793206 -0.56006289 2.3862798 14062174
-0.98225451 -0.59506685 2.5354223 14194017
-1.0940927 -0.68007636 2.8976254 14390110
-0.93240786 -0.59506685 2.5354223 14194019
-0.80665296 -0.52894831 2.2537088 13996897
-0.67242759 -0.45338425 1.9317503 14259553
-0.65343839 -0.45338425 1.9317503 14194019
-0.63444918 -0.45338425 1.9317503 14258527
-0.53852749 -0.3967112 1.6902815 14126938
-0.48176491 -0.36619499 1.5602599 13799002
-0.43311122 -0.34003818 1.4488127 13536346
-0.45109007 -0.36619499 1.5602599 13339479
-0.40462744 -0.34003818 1.4488127 13602137
-0.26660478 -0.2322212 0.98943311 13272917
-0.1987174 -0.17964281 0.76541048 12878164
-0.18765277 -0.1763161 0.75123626 12877907
-0.18026808 -0.1763161 0.75123626 11631699
-0.17288339 -0.1763161 0.75123626 11629902
-0.16248964 -0.17311035 0.73757738 6567977
-0.14979224 -0.16703631 0.71169752 4991269
-0.14279622 -0.16703631 0.71169752 4334624
-0.13345881 -0.16415636 0.69942683 3216660
-0.12236396 -0.15868448 0.67611259 1968397
-0.11571775 -0.15868448 0.67611259 2033933
-0.10907153 -0.15868448 0.67611259 1311495
-0.10416134 -0.16137406 0.68757218 1442824
-0.097402476 -0.16137406 0.68757218 1705995
-0.090643607 -0.16137406 0.68757218 1904145
-0.08533103 -0.16415636 0.69942683 2297106
-0.078455634 -0.16415636 0.69942683 2888469
-0.071580231 -0.16415636 0.69942683 3611420
-0.064704835 -0.16415636 0.69942683 4464409
-0.05782944 -0.16415636 0.69942683 4398616
-0.051847976 -0.16703631 0.71169752 4464153
-0.044851959 -0.16703631 0.71169752 4003859
-0.037855938 -0.16703631 0.71169752 2165774
-0.030859921 -0.16703631 0.71169752 1902346
-0.024290042 -0.17001909 0.72440636 1903118
-0.01748126 -0.17311035 0.73757738 3675153
-0.010230841 -0.17311035 0.73757738 2689804
-0.0029804225 -0.17311035 0.73757738 3741977
0.0042699962 -0.17311035 0.73757738 4265747
0.011955148 -0.17964281 0.76541048 1508101
0.019479167 -0.17964281 0.76541048 1179910
0.027003186 -0.17964281 0.76541048 7884603
0.035881214 -0.18668763 0.79542661 13075540
0.04548398 -0.19430754 0.82789302 14060893
0.051519375 -0.18668763 0.79542661 14651742
0.059338454 -0.18668763 0.79542661 14258270
0.067157529 -0.18668763 0.79542661 13536091
0.078036882 -0.19430754 0.82789302 13865313
0.082795694 -0.18668763 0.79542661 13537631
0.094313331 -0.19430754 0.82789302 13470555
0 0 0 13142106
0 0 0 13404508
0 0 0 12747863
0 0 0 12945242
0 0 0 12813655
0 0 0 12748119
0 0 0 12681812
0 0 0 12616276
0 0 0 12419154
0.53806776 -0.59506685 2.5354223 12485462
0.47409773 -0.50110894 2.1350925 12813655
0.55333114 -0.56006289 2.3862798 12944731
0.57678843 -0.56006289 2.3862798 13141338
0.60024565 -0.56006289 2.3862798 13208157
0.62370288 -0.56006289 2.3862798 13010522
0.64716011 -0.56006289 2.3862798 13207129
0.71253097 -0.59506685 2.5354223 13011287
0.69407457 -0.56006289 2.3862798 13208414
0.7175318 -0.56006289 2.3862798 13404508
0.74098909 -0.56006289 2.3862798 13405280
0.81222421 -0.59506685 2.5354223 13406045
0.83714753 -0.59506685 2.5354223 13405533
0.86207086 -0.59506685 2.5354223 13799518
0.88699412 -0.59506685 2.5354223 13470300
0.91191745 -0.59506685 2.5354223 13996128
0.93684077 -0.59506685 2.5354223 13996640
0.73277265 -0.45338425 1.9317503 13865056
0.75176179 -0.45338425 1.9317503 13733727
0.770751 -0.45338425 1.9317503 14325089
0.7897402 -0.45338425 1.9317503 14128231
0.84916592 -0.47605348 2.028338 14259560
0.86910456 -0.47605348 2.028338 14062692
0.88904321 -0.47605348 2.028338 14456166
0.90898186 -0.47605348 2.028338 14457191
0.92892057 -0.47605348 2.028338 14259813
0.94885921 -0.47605348 2.028338 14194019
0.96879786 -0.47605348 2.028338 14588521
1.0407752 -0.50110894 2.1350925 14325612
1.0617633 -0.50110894 2.1350925 14456680
1.1429043 -0.52894831 2.2537088 14653288
1.1650583 -0.52894831 2.2537088 14390628
1.2570482 -0.56006289 2.3862798 14062696
1.2093664 -0.52894831 2.2537088 14062949
1.2315204 -0.52894831 2.2537088 14063203
1.1876916 -0.50110894 2.1350925 14260585
1.4353071 -0.59506685 2.5354223 14062435
1.557579 -0.63473791 2.7044504 13865829
1.5841639 -0.63473791 2.7044504 13930597
1.6107488 -0.63473791 2.7044504 13799009
1.4447062 -0.56006289 2.3862798 13471838
1.4681635 -0.56006289 2.3862798 14193506
1.4916207 -0.56006289 2.3862798 14193252
1.3555961 -0.50110894 2.1350925 13865316
1.307755 -0.47605348 2.028338 13734245
0.91565067 -0.32831272 1.3988537 13471584
0.92940152 -0.32831272 1.3988537 13537379
0.94315231 -0.32831272 1.3988537 13471072
0.9569031 -0.32831272 1.3988537 13602144
0.97065389 -0.32831272 1.3988537 13208160
1.019562 -0.34003818 1.4488127 13405280
1.0338038 -0.34003818 1.4488127 13273694
1.0480458 -0.34003818 1.4488127 13142367
0 0 0 13405280
0 0 0 13404000
1.0531586 -0.32831272 1.3988537 12812891
0.9668867 -0.29753342 1.2677112 12813916
1.0806602 -0.32831272 1.3988537 12485982
1.094411 -0.32831272 1.3988537 12288604
1.1477391 -0.34003818 1.4488127 12289629
0.95692545 -0.28003144 1.1931399 12224349
1.1356634 -0.32831272 1.3988537 12353883
1.1904647 -0.34003818 1.4488127 12353625
1.2047065 -0.34003818 1.4488127 12287835
1.2189485 -0.34003818 1.4488127 12025430
1.2331904 -0.34003818 1.4488127 11763031
1.2474322 -0.34003818 1.4488127 11828569
1.3084029 -0.35263219 1.5024725 12024408
1.8802974 -0.50110894 2.1350925 11959383
0 0 0 11959387
0 0 0 11631447
0 0 0 11631704
0 0 0 11434326
2.9015014 -0.73238999 3.1205199 11368538
2.7227349 -0.68007636 2.8976254 11434583
2.7512186 -0.68007636 2.8976254 11302484
2.2891667 -0.56006289 2.3862798 11171927
2.06919 -0.50110894 2.1350925 11105881
1.9856691 -0.47605348 2.028338 11105366
2.111166 -0.50110894 2.1350925 11236952
2.8936377 -0.68007636 2.8976254 10908755
3.1469002 -0.73238999 3.1205199 11171927
3.1775749 -0.73238999 3.1205199 11169875
2.6067028 -0.59506685 2.5354223 11104598
2.6316261 -0.59506685 2.5354223 10973778
2.6565495 -0.59506685 2.5354223 10711377
3.3002744 -0.73238999 3.1205199 10777429
3.3309493 -0.73238999 3.1205199 10646102
4.3701115 -0.95210695 4.0566759 10776919
5.5124855 -1.1901337 5.0708447 10842196
0 0 0 10383183
0 0 0 10448722
0 0 0 10514002
3.5149984 -0.73238999 3.1205199 10514002
3.5456731 -0.73238999 3.1205199 10448209
3.3208945 -0.68007636 2.8976254 10447953
3.3493781 -0.68007636 2.8976254 10251347
3.377862 -0.68007636 2.8976254 10316368
3.179256 -0.63473791 2.7044504 10447954
3.2058408 -0.63473791 2.7044504 10185296
2.4243195 -0.47605348 2.028338 10119759
2.4442582 -0.47605348 2.028338 10185811
0 0 0 10251606
0 0 0 10382159
0 0 0 10317136
0 0 0 10054477
0 0 0 9922893
0 0 0 9923151
0 0 0 9791823
0 0 0 9791568
0 0 0 9791312
0 0 0 12223064
0 0 0 12223578
-3.7242663 -0.70171511 3.1205199 12552289
-3.6935916 -0.70171511 3.1205199 12945248
-3.6629167 -0.70171511 3.1205199 13208161
-3.6322417 -0.70171511 3.1205199 13207903
-3.601567 -0.70171511 3.1205199 13208417
-3.8684664 -0.76019132 3.380563 12814944
-3.8352351 -0.76019132 3.380563 13012323
-3.8020041 -0.76019132 3.380563 13274726
-3.7687731 -0.76019132 3.380563 13273699
-3.7355418 -0.76019132 3.380563 13012068
-3.7023108 -0.76019132 3.380563 12880742
-3.6690798 -0.76019132 3.380563 12945762
-3.6358488 -0.76019132 3.380563 13207649
-3.6026175 -0.76019132 3.380563 13273440
-3.5693865 -0.76019132 3.380563 13143137
-3.5361555 -0.76019132 3.380563 12880736
-3.821372 -0.82929963 3.687887 12880472
-3.78512 -0.82929963 3.687887 11631182
-4.123755 -0.91222966 4.0566759 10118208
-4.5376415 -1.0135885 4.5074177 9790274
-4.4933338 -1.0135885 4.5074177 9659460
-4.4490256 -1.0135885 4.5074177 9396547
-4.955307 -1.140287 5.0708447 10053963
-4.9054604 -1.140287 5.0708447 12681303
-5.5492725 -1.3031851 5.7952509 12681559
-5.4923048 -1.3031851 5.7952509 12746326
-3.8047364 -0.91222966 4.0566759 12418644
-3.7648592 -0.91222966 4.0566759 12287828
-3.7249818 -0.91222966 4.0566759 12222805
-3.6851046 -0.91222966 4.0566759 12288343
-2.8040209 -0.70171511 3.1205199 12419674
-2.7733459 -0.70171511 3.1205199 12549976
-2.7426713 -0.70171511 3.1205199 12287572
-2.9379959 -0.76019132 3.380563 12418644
-2.9047649 -0.76019132 3.380563 12484437
-2.8715336 -0.76019132 3.380563 12287573
-2.8383026 -0.76019132 3.380563 12090450
-2.8050716 -0.76019132 3.380563 11959635
-2.7718403 -0.76019132 3.380563 12025686
-2.5279472 -0.70171511 3.1205199 11893328
-2.4972725 -0.70171511 3.1205199 11893583
-2.2904119 -0.65159255 2.8976254 12221268
-2.2619281 -0.65159255 2.8976254 12024406
-2.2334442 -0.65159255 2.8976254 12156244
-2.0579631 -0.60815305 2.7044504 12090965
-2.0313783 -0.60815305 2.7044504 11958609
-1.8794938 -0.57014352 2.5354223 12024401
-1.8545705 -0.57014352 2.5354223 12025429
-1.9516237 -0.60815305 2.7044504 12156242
-1.9250387 -0.60815305 2.7044504 12352592
-1.8984538 -0.60815305 2.7044504 12156245
-1.871869 -0.60815305 2.7044504 11958867
-1.9770902 -0.65159255 2.8976254 12090192
-2.0984993 -0.70171511 3.1205199 12025173
-2.0678244 -0.70171511 3.1205199 12352597
-2.0371497 -0.70171511 3.1205199 11959379
-2.0064747 -0.70171511 3.1205199 12286549
-1.9757999 -0.70171511 3.1205199 12221524
-1.8061875 -0.65159255 2.8976254 12025430
-1.7777036 -0.65159255 2.8976254 12221780
-1.7492199 -0.65159255 2.8976254 12418388
-1.7207361 -0.65159255 2.8976254 12222807
-1.5794355 -0.60815305 2.7044504 12485207
-1.5528506 -0.60815305 2.7044504 12485464
-1.5262657 -0.60815305 2.7044504 12354393
-1.6068009 -0.65159255 2.8976254 12681300
-1.6997262 -0.70171511 3.1205199 12879447
-1.6690514 -0.70171511 3.1205199 12747352
-1.4199263 -0.60815305 2.7044504 13141851
-1.3062576 -0.57014352 2.5354223 12879447
-1.2813343 -0.57014352 2.5354223 13010775
-1.256411 -0.57014352 2.5354223 13142360
-1.2314876 -0.57014352 2.5354223 13273694
-1.13559 -0.53660566 2.3862798 13601625
-1.1121327 -0.53660566 2.3862798 13601114
-1.0886755 -0.53660566 2.3862798 13339737
-1.0652182 -0.53660566 2.3862798 13602654
-1.041761 -0.53660566 2.3862798 13996383
-1.0183038 -0.53660566 2.3862798 13864796
-0.99484652 -0.53660566 2.3862798 14062170
-1.0321012 -0.57014352 2.5354223 14587748
-1.0071778 -0.57014352 2.5354223 14521948
-0.98225451 -0.57014352 2.5354223 14390880
-0.95733118 -0.57014352 2.5354223 14390110
-0.87756032 -0.53660566 2.3862798 14718047
-0.76419753 -0.48012087 2.1350925 14521182
-0.83064586 -0.53660566 2.3862798 14522466
-0.65343839 -0.43439505 1.9317503 14522465
-0.63444918 -0.43439505 1.9317503 14455905
-0.461595 -0.32579628 1.4488127 14062684
-0.44735312 -0.32579628 1.4488127 14456160
-0.46642751 -0.35085756 1.5602599 13995868
-0.45109007 -0.35085756 1.5602599 14128224
-0.40462744 -0.32579628 1.4488127 13601110
-0.29542691 -0.24654855 1.0963988 13666907
-0.1987174 -0.1721188 0.76541048 13404503
-0.18095088 -0.16289814 0.72440636 13206872
-0.17699048 -0.16585992 0.73757738 12943957
-0.16974005 -0.16585992 0.73757738 11893842
-0.15958804 -0.16289814 0.72440636 5978405
-0.14979224 -0.16004029 0.71169752 2493965
-0.14279622 -0.16004029 0.71169752 3349015
-0.1358002 -0.16004029 0.71169752 4136478
-0.12658341 -0.15728097 0.69942683 3347988
-0.11571775 -0.15203826 0.67611259 2099466
-0.10907153 -0.15203826 0.67611259 1443595
-0.10416134 -0.15461519 0.68757218 1312524
-0.097402476 -0.15461519 0.68757218 1772560
-0.090643607 -0.15461519 0.68757218 2363669
-0.08533103 -0.15728097 0.69942683 3151127
-0.077125877 -0.15461519 0.68757218 3742748
-0.070367016 -0.15461519 0.68757218 4464924
-0.064704835 -0.15728097 0.69942683 4726809
-0.058843996 -0.16004029 0.71169752 4464151
-0.051847976 -0.16004029 0.71169752 4529431
-0.044851959 -0.16004029 0.71169752 4398359
-0.037855938 -0.16004029 0.71169752 3019283
-0.030859921 -0.16004029 0.71169752 2231823
-0.024290042 -0.16289814 0.72440636 2493967
-0.01748126 -0.16585992 0.73757738 3545109
-0.010230841 -0.16585992 0.73757738 3149841
-0.0029804225 -0.16585992 0.73757738 4134933
0.0042699962 -0.16585992 0.73757738 4397076
0.011955148 -0.1721188 0.76541048 1049094
0.019479167 -0.1721188 0.76541048 983559
0.02752248 -0.17542878 0.78012997 6437679
0.037345756 -0.18616931 0.82789302 11828051
0.047419466 -0.19409141 0.86312246 13601882
0 0 0 14389343
0 0 0 13930847
0.069898658 -0.18616931 0.82789302 13995870
0.078036882 -0.18616931 0.82789302 13471325
0.086175106 -0.18616931 0.82789302 13930075
0.10503075 -0.20732491 0.92197174 13273946
0 0 0 13273946
0 0 0 13273946
0 0 0 13075543
0 0 0 13009752
0 0 0 13207129
0 0 0 12485975
0 0 0 12616793
0 0 0 13010778
0 0 0 12944475
0.47828245 -0.50679427 2.2537088 12551253
0.50043648 -0.50679427 2.2537088 12943702
0.52259058 -0.50679427 2.2537088 12944987
0.57678843 -0.53660566 2.3862798 13010779
0.60024565 -0.53660566 2.3862798 13338718
0.62370288 -0.53660566 2.3862798 13273691
0.68760765 -0.57014352 2.5354223 13404506
0.71253097 -0.57014352 2.5354223 13405021
0.73745424 -0.57014352 2.5354223 13470301
0.7175318 -0.53660566 2.3862798 13208160
0.78730088 -0.57014352 2.5354223 13077344
0.81222421 -0.57014352 2.5354223 13470301
0.83714753 -0.57014352 2.5354223 13470301
0.86207086 -0.57014352 2.5354223 13667935
0.88699412 -0.57014352 2.5354223 13537119
0.85827523 -0.53660566 2.3862798 14257759
0.93684077 -0.57014352 2.5354223 13800033
0.73277265 -0.43439505 1.9317503 13733729
0.78934997 -0.45611483 2.028338 14259301
0.770751 -0.43439505 1.9317503 14194534
0.7897402 -0.43439505 1.9317503 13931104
0.80872941 -0.43439505 1.9317503 14259042
0.82771862 -0.43439505 1.9317503 14062690
0.88904321 -0.45611483 2.028338 14456422
0.90898186 -0.45611483 2.028338 14128226
0.97781104 -0.48012087 2.1350925 14325090
0.94885921 -0.45611483 2.028338 14325605
1.0197872 -0.48012087 2.1350925 14522214
1.0407752 -0.48012087 2.1350925 14653028
1.0617633 -0.48012087 2.1350925 14325607
1.0827513 -0.48012087 2.1350925 14062437
1.1650583 -0.50679427 2.2537088 14522214
1.1872123 -0.50679427 2.2537088 13996897
1.2093664 -0.50679427 2.2537088 13931104
1.1667036 -0.48012087 2.1350925 14259042
1.1876916 -0.48012087 2.1350925 14259812
1.2086797 -0.48012087 2.1350925 14258273
1.4602304 -0.57014352 2.5354223 13799520
1.5841639 -0.60815305 2.7044504 14062438
1.510077 -0.57014352 2.5354223 14128226
1.4447062 -0.53660566 2.3862798 13799778
1.4681635 -0.53660566 2.3862798 13537118
1.4087529 -0.50679427 2.2537088 14061152
1.5150779 -0.53660566 2.3862798 13602143
1.6346936 -0.57014352 2.5354223 13733475
1.6596169 -0.57014352 2.5354223 13602145
0.96259439 -0.32579628 1.4488127 13470558
0.94315231 -0.31456193 1.3988537 13273694
0.9910782 -0.32579628 1.4488127 13535842
0.97065389 -0.31456193 1.3988537 13404514
1.019562 -0.32579628 1.4488127 13076829
1.0338038 -0.32579628 1.4488127 13208162
2.4454401 -0.76019132 3.380563 13338463
2.4786713 -0.76019132 3.380563 13141856
0 0 0 12944733
1.9088501 -0.57014352 2.5354223 12813404
1.0669094 -0.31456193 1.3988537 12747098
1.0806602 -0.31456193 1.3988537 12616796
1.0238038 -0.29426762 1.3086051 12419418
1.1081618 -0.31456193 1.3988537 12419417
1.0495312 -0.29426762 1.3086051 12222812
1.1762228 -0.32579628 1.4488127 12223329
1.1904647 -0.32579628 1.4488127 12157273
1.2047065 -0.32579628 1.4488127 12157019
1.2189485 -0.32579628 1.4488127 12156503
1.2331904 -0.32579628 1.4488127 12025947
1.2474322 -0.32579628 1.4488127 11631446
1.2616742 -0.32579628 1.4488127 12025177
8.9314127 -2.2805741 10.141689 11631447
0 0 0 11763035
0 0 0 11566167
0 0 0 11630933
0 0 0 11301973
2.9015014 -0.70171511 3.1205199 11630422
2.7227349 -0.65159255 2.8976254 11434072
2.7512186 -0.65159255 2.8976254 11434070
2.0482018 -0.48012087 2.1350925 11238490
2.06919 -0.48012087 2.1350925 11498839
2.090178 -0.48012087 2.1350925 11170898
2.111166 -0.48012087 2.1350925 11302741
2.8936377 -0.65159255 2.8976254 11106134
3.1469002 -0.70171511 3.1205199 11105364
3.1775749 -0.70171511 3.1205199 10776913
2.780483 -0.60815305 2.7044504 10842450
2.8070679 -0.60815305 2.7044504 10907986
2.8336527 -0.60815305 2.7044504 10973523
2.8602376 -0.60815305 2.7044504 11039315
3.6085281 -0.76019132 3.380563 10776658
3.361624 -0.70171511 3.1205199 10580051
4.4099889 -0.91222966 4.0566759 10514514
3.7082214 -0.76019132 3.380563 10579793
3.7414525 -0.76019132 3.380563 10644817
3.2354431 -0.65159255 2.8976254 10579538
3.2639267 -0.65159255 2.8976254 10447954
3.2924106 -0.65159255 2.8976254 10317653
3.5763481 -0.70171511 3.1205199 10120788
3.907608 -0.76019132 3.380563 9791563
3.9408391 -0.76019132 3.380563 10054735
3.179256 -0.60815305 2.7044504 9857613
3.2058408 -0.60815305 2.7044504 10317652
2.6936884 -0.50679427 2.2537088 10185553
2.7158425 -0.50679427 2.2537088 10053968
0 0 0 10054226
0 0 0 10120272
0 0 0 10120272
0 0 0 10250575
0 0 0 10054222
0 0 0 9922896
0 0 0 9988434
0 0 0 10316370
0 0 0 9791819
0 0 0 12681557
0 0 0 12616023
-3.7242663 -0.6710403 3.1205199 12288600
-3.6935916 -0.6710403 3.1205199 12683360
-3.9681594 -0.72696024 3.380563 12748640
-3.6322417 -0.6710403 3.1205199 13076834
-3.601567 -0.6710403 3.1205199 13207649
-3.5708921 -0.6710403 3.1205199 13011040
-3.8352351 -0.72696024 3.380563 12683617
-3.8020041 -0.72696024 3.380563 12749410
-3.7687731 -0.72696024 3.380563 13011553
-3.7355418 -0.72696024 3.380563 12880996
-3.7023108 -0.72696024 3.380563 13273955
-3.6690798 -0.72696024 3.380563 12946532
-3.6358488 -0.72696024 3.380563 13208676
-3.6026175 -0.72696024 3.380563 13273699
-3.5693865 -0.72696024 3.380563 12946013
-3.5361555 -0.72696024 3.380563 13077854
-3.821372 -0.79304755 3.687887 13011035
-4.1636324 -0.87235236 4.0566759 11695949
-4.123755 -0.87235236 4.0566759 10250309
-4.5376415 -0.96928042 4.5074177 9987140
-4.4933338 -0.96928042 4.5074177 9593666
-4.4490256 -0.96928042 4.5074177 9198912
-4.955307 -1.0904404 5.0708447 9461827
-4.9054604 -1.0904404 5.0708447 11301455
-4.8556137 -1.0904404 5.0708447 12615510
-4.8057671 -1.0904404 5.0708447 12681816
-4.2274847 -0.96928042 4.5074177 12484691
-3.7648592 -0.87235236 4.0566759 12484947
-3.7249818 -0.87235236 4.0566759 12418900
-3.6851046 -0.87235236 4.0566759 12222291
-3.3138428 -0.79304755 3.687887 12419159
-2.7733459 -0.6710403 3.1205199 12484441
-2.7426713 -0.6710403 3.1205199 12222809
-2.7119963 -0.6710403 3.1205199 12419416
-2.9047649 -0.72696024 3.380563 12353366
-2.8715336 -0.72696024 3.380563 12550230
-2.8383026 -0.72696024 3.380563 12025171
-2.8050716 -0.72696024 3.380563 12287057
-2.5586221 -0.6710403 3.1205199 12222037
-2.5279472 -0.6710403 3.1205199 11959637
-2.4972725 -0.6710403 3.1205199 12286547
-2.4665976 -0.6710403 3.1205199 12352337
-2.4359226 -0.6710403 3.1205199 11828307
-2.2334442 -0.6231088 2.8976254 12352340
-2.0579631 -0.58156818 2.7044504 12023889
-1.9044172 -0.5452202 2.5354223 12025426
-1.8794938 -0.5452202 2.5354223 11958865
-1.8545705 -0.5452202 2.5354223 11893584
-1.8296472 -0.5452202 2.5354223 12221521
-1.8047239 -0.5452202 2.5354223 12418385
-1.8984538 -0.58156818 2.7044504 12353363
-1.871869 -0.58156818 2.7044504 12091738
-1.8452841 -0.58156818 2.7044504 11828564
-1.8186992 -0.58156818 2.7044504 12156758
-2.0678244 -0.6710403 3.1205199 12156244
-2.0371497 -0.6710403 3.1205199 12484437
-2.0064747 -0.6710403 3.1205199 12352853
-1.9757999 -0.6710403 3.1205199 12353623
-1.9451251 -0.6710403 3.1205199 12353623
-1.9144502 -0.6710403 3.1205199 12287573
-1.6326052 -0.58156818 2.7044504 12287573
-1.6060203 -0.58156818 2.7044504 12419414
-1.5794355 -0.58156818 2.7044504 12550484
-1.5528506 -0.58156818 2.7044504 12747606
-1.5262657 -0.58156818 2.7044504 12813656
-1.6068009 -0.6231088 2.8976254 12550997
-1.5783172 -0.6231088 2.8976254 12747093
-1.5498334 -0.6231088 2.8976254 12879194
-1.5213495 -0.6231088 2.8976254 13010263
-1.3062576 -0.5452202 2.5354223 13011546
-1.2813343 -0.5452202 2.5354223 13338712
-1.256411 -0.5452202 2.5354223 13208153
-1.2314876 -0.5452202 2.5354223 13011550
-1.13559 -0.51314843 2.3862798 13470045
-1.1121327 -0.51314843 2.3862798 13799259
-1.0886755 -0.51314843 2.3862798 13799003
-1.0652182 -0.51314843 2.3862798 13864798
-1.041761 -0.51314843 2.3862798 14258272
-1.0183038 -0.51314843 2.3862798 14324063
-1.0570245 -0.5452202 2.5354223 14128481
-1.1009078 -0.58156818 2.7044504 14456420
-1.0071778 -0.5452202 2.5354223 14521183
-0.98225451 -0.5452202 2.5354223 14653280
-0.90101761 -0.51314843 2.3862798 14784866
-0.82880706 -0.48464021 2.2537088 14587742
-0.76419753 -0.45913279 2.1350925 14719327
-0.83064586 -0.51314843 2.3862798 14850659
-0.80718863 -0.51314843 2.3862798 14653791
-0.60561061 -0.39652377 1.8439435 14521955
-0.47869116 -0.32309347 1.5024725 14325600
-0.44735312 -0.3115544 1.4488127 14586976
-0.48508459 -0.34894094 1.6226703 14323806
-0.46913368 -0.34894094 1.6226703 14062431
0 0 0 13930845
-0.29542691 -0.2357709 1.0963988 13601882
-0.25687858 -0.21276887 0.98943311 13666903
-0.18424089 -0.15860951 0.73757738 13601114
-0.17382993 -0.1557772 0.72440636 12682068
-0.16670898 -0.1557772 0.72440636 12418383
-0.15958804 -0.1557772 0.72440636 2296065
-0.15246709 -0.1557772 0.72440636 1969166
-0.14279622 -0.15304427 0.71169752 2231568
-0.1358002 -0.15304427 0.71169752 5846318
-0.12880418 -0.15304427 0.71169752 4989724
-0.11767907 -0.14785632 0.68757218 3085074
-0.11092021 -0.14785632 0.68757218 2428434
-0.10416134 -0.14785632 0.68757218 2231827
-0.097402476 -0.14785632 0.68757218 2495769
-0.089132875 -0.14539205 0.67611259 3480862
-0.082486659 -0.14539205 0.67611259 4071713
-0.077125877 -0.14785632 0.68757218 4530463
-0.071580231 -0.15040557 0.69942683 4858654
-0.064704835 -0.15040557 0.69942683 4660759
-0.058843996 -0.15304427 0.71169752 4529688
-0.051847976 -0.15304427 0.71169752 4398359
-0.044851959 -0.15304427 0.71169752 4201238
-0.037855938 -0.15304427 0.71169752 3610386
-0.030859921 -0.15304427 0.71169752 3085586
-0.024290042 -0.1557772 0.72440636 3282708
-0.017169096 -0.1557772 0.72440636 4200984
-0.010230841 -0.15860951 0.73757738 3477777
-0.0029804225 -0.15860951 0.73757738 4069141
0.0042699962 -0.15860951 0.73757738 2426632
0.011955148 -0.16459477 0.76541048 851973
0.019853767 -0.16776007 0.78012997 852743
0.028062137 -0.17104948 0.79542661 6174757
0.037345756 -0.17803109 0.82789302 11959890
0.049527001 -0.19385608 0.90148348 14324833
0 0 0 14128481
0 0 0 14194271
0.076111868 -0.19385608 0.90148348 13995868
0.084973492 -0.19385608 0.90148348 14126686
0.093835115 -0.19385608 0.90148348 13733468
0.12490144 -0.2357709 1.0963988 13799518
0 0 0 13076826
0 0 0 13076826
0 0 0 12945242
0 0 0 13010520
0 0 0 13010522
0 0 0 12878682
0 0 0 12550739
0 0 0 12681043
0 0 0 12747349
0.50641668 -0.51314843 2.3862798 13010263
0.50043648 -0.48464021 2.2537088 12747094
0.52259058 -0.48464021 2.2537088 13011291
0.57678843 -0.51314843 2.3862798 13142109
0.60024565 -0.51314843 2.3862798 13404511
0.62370288 -0.51314843 2.3862798 13207644
0.64716011 -0.51314843 2.3862798 13338969
0.71253097 -0.5452202 2.5354223 13338715
0.73745424 -0.5452202 2.5354223 13338715
0.76237756 -0.5452202 2.5354223 13470303
0.78730088 -0.5452202 2.5354223 13535837
0.81222421 -0.5452202 2.5354223 13667680
0.83714753 -0.5452202 2.5354223 13667934
0.81136078 -0.51314843 2.3862798 13602141
0.83481801 -0.51314843 2.3862798 13996642
0.72953403 -0.43617618 2.028338 13864800
0.88173252 -0.51314843 2.3862798 13733984
0.90518975 -0.51314843 2.3862798 13668705
0.87705553 -0.48464021 2.2537088 14127971
0.80928862 -0.43617618 2.028338 14062440
0.7897402 -0.41540587 1.9317503 14062948
0.80872941 -0.41540587 1.9317503 14325862
0.82771862 -0.41540587 1.9317503 13996642
0.88904321 -0.43617618 2.028338 14260071
0.90898186 -0.43617618 2.028338 14259814
0.92892057 -0.43617618 2.028338 14587237
0.94885921 -0.43617618 2.028338 14324838
1.0197872 -0.45913279 2.1350925 14325606
1.0407752 -0.45913279 2.1350925 14653029
1.0617633 -0.45913279 2.1350925 14062694
1.0827513 -0.45913279 2.1350925 14194276
1.1037394 -0.45913279 2.1350925 14325862
1.1872123 -0.48464021 2.2537088 14194019
1.2093664 -0.48464021 2.2537088 14062436
1.2315204 -0.48464021 2.2537088 13668965
1.1876916 -0.45913279 2.1350925 14062177
1.2086797 -0.45913279 2.1350925 14194018
1.4602304 -0.5452202 2.5354223 13996642
1.5841639 -0.58156818 2.7044504 14126945
1.8585564 -0.6710403 3.1205199 14062181
1.4447062 -0.51314843 2.3862798 14128227
1.4681635 -0.51314843 2.3862798 13930849
1.4916207 -0.51314843 2.3862798 13471328
1.9812558 -0.6710403 3.1205199 13668450
1.8682213 -0.6231088 2.8976254 13602915
1.6596169 -0.5452202 2.5354223 13470306
1.6845403 -0.5452202 2.5354223 13602147
1.7094636 -0.5452202 2.5354223 13405280
1.7343869 -0.5452202 2.5354223 13339233
1.0053201 -0.3115544 1.4488127 13405793
1.019562 -0.3115544 1.4488127 13273440
2.412209 -0.72696024 3.380563 13207648
2.4454401 -0.72696024 3.380563 13010783
2.1245754 -0.6231088 2.8976254 12748639
2.153059 -0.6231088 2.8976254 13011039
1.9088501 -0.5452202 2.5354223 12683099
1.820022 -0.51314843 2.3862798 12683102
1.1192552 -0.3115544 1.4488127 12683102
1.094411 -0.30081114 1.3988537 12420186
1.1477391 -0.3115544 1.4488127 12616793
1.1619809 -0.3115544 1.4488127 12157531
1.1762228 -0.3115544 1.4488127 12091483
2.2222006 -0.58156818 2.7044504 11960410
2.2487855 -0.58156818 2.7044504 12092256
2.2753706 -0.58156818 2.7044504 12156764
1.6442538 -0.41540587 1.9317503 12156249
1.6632431 -0.41540587 1.9317503 11762265
7.0653758 -1.7447047 8.1133518 12024408
0 0 0 11762777
0 0 0 11828571
0 0 0 11631448
0 0 0 11368790
0 0 0 11500376
2.9015014 -0.6710403 3.1205199 11434329
2.9321761 -0.6710403 3.1205199 11236950
2.7512186 -0.6231088 2.8976254 11302745
2.0482018 -0.45913279 2.1350925 11170902
2.06919 -0.45913279 2.1350925 11171671
2.090178 -0.45913279 2.1350925 11039828
