# .PCD v0.7 - Point Cloud Data file format
VERSION 0.7
FIELDS x y z rgb
SIZE 4 4 4 4
TYPE F F F U
COUNT 1 1 1 1
WIDTH 1326
HEIGHT 1
VIEWPOINT 0 0 0 1 0 0 0
POINTS 1326
DATA ascii
0 0 0 8805190
0 0 0 9067335
0 0 0 9133127
0 0 0 8673342
0 0 0 8804928
0 0 0 8936256
0 0 0 8608575
0 0 0 8804928
0 0 0 8870467
0 0 0 8936256
0 0 0 8608060
0 0 0 8672828
0 0 0 8344892
0 0 0 8410428
0 0 0 8344636
0 0 0 8739135
0 0 0 8410426
0 0 0 8410941
0 0 0 8476221
0 0 0 8541755
0 0 0 8541758
-21.017546 -11.93845 20.283379 8410944
-10.40908 -5.9692249 10.141689 8214334
-10.309386 -5.9692249 10.141689 8476477
-10.209694 -5.9692249 10.141689 8607294
-8.0880003 -4.7753801 8.1133518 8345150
-8.0082455 -4.7753801 8.1133518 8541756
-9.910614 -5.9692249 10.141689 8344634
-9.8109207 -5.9692249 10.141689 8475963
-9.7112274 -5.9692249 10.141689 8541502
-9.6115341 -5.9692249 10.141689 8739396
-12.682454 -7.9589663 13.522252 8606783
-12.549529 -7.9589663 13.522252 8541504
-12.416605 -7.9589663 13.522252 8344893
-12.283681 -7.9589663 13.522252 8279356
-12.150757 -7.9589663 13.522252 8410942
-12.017832 -7.9589663 13.522252 8279613
-11.884908 -7.9589663 13.522252 8606781
-11.751984 -7.9589663 13.522252 8540988
-11.61906 -7.9589663 13.522252 8213822
0 0 0 8476221
0 0 0 8214075
0 0 0 8017211
0 0 0 8344890
-16.431656 -11.93845 20.283379 8542269
-8.1161346 -5.9692249 10.141689 8410428
-8.0164413 -5.9692249 10.141689 8344636
-7.9167485 -5.9692249 10.141689 8804928
-6.2536445 -4.7753801 8.1133518 8607036
-6.1738896 -4.7753801 8.1133518 8542013
-5.0784454 -3.9794831 6.761126 8410683
-6.0143805 -4.7753801 8.1133518 8476735
-5.9346261 -4.7753801 8.1133518 8476479
-7.3185887 -5.9692249 10.141689 8540990
-7.2188954 -5.9692249 10.141689 8411201
-9.4922695 -7.9589663 13.522252 8476222
-7.0195093 -5.9692249 10.141689 8607808
-9.2264214 -7.9589663 13.522252 8345408
-6.8201227 -5.9692249 10.141689 8476734
-6.7204294 -5.9692249 10.141689 8673600
-4.4138241 -3.9794831 6.761126 8410429
-4.3473616 -3.9794831 6.761126 8607036
-4.2808995 -3.9794831 6.761126 9001020
-4.2144375 -3.9794831 6.761126 8476220
-4.9775705 -4.7753801 8.1133518 8542015
-8.1630259 -7.9589663 13.522252 8541756
-8.0301018 -7.9589663 13.522252 8608575
-7.8971772 -7.9589663 13.522252 8804674
-7.7642531 -7.9589663 13.522252 8870207
-4.5787973 -4.7753801 8.1133518 8738881
-4.499043 -4.7753801 8.1133518 8608062
-3.68274 -3.9794831 6.761126 8608578
-4.3395338 -4.7753801 8.1133518 8607808
-4.259779 -4.7753801 8.1133518 8936773
-4.1800246 -4.7753801 8.1133518 8804929
0 0 0 8803901
-4.0205154 -4.7753801 8.1133518 8608580
-2.8148289 -3.4109855 5.7952509 9002052
-2.4131286 -2.9846125 5.0708447 8739133
-2.363282 -2.9846125 5.0708447 9001791
-2.3134353 -2.9846125 5.0708447 8871234
-2.2635887 -2.9846125 5.0708447 8870719
-2.2137423 -2.9846125 5.0708447 8871233
-2.1638956 -2.9846125 5.0708447 9002305
-2.114049 -2.9846125 5.0708447 8870721
-2.0642023 -2.9846125 5.0708447 9067843
-2.0143557 -2.9846125 5.0708447 9001793
-2.2451532 -3.4109855 5.7952509 9133636
-2.1881855 -3.4109855 5.7952509 9132352
-2.131218 -3.4109855 5.7952509 8936514
-1.0371252 -1.7054927 2.8976254 8805954
-1.7651225 -2.9846125 5.0708447 8936255
-1.7152759 -2.9846125 5.0708447 9133125
-2.2205722 -3.9794831 6.761126 9329985
-2.5849323 -4.7753801 8.1133518 9133121
-2.0876479 -3.9794831 6.761126 9132864
-2.0211856 -3.9794831 6.761126 9067586
-1.9547236 -3.9794831 6.761126 9264965
-1.4161961 -2.9846125 5.0708447 9067331
-1.5615422 -3.4109855 5.7952509 9001792
-0.046808992 -0.10611955 0.1802967 8870722
-1.6888748 -3.9794831 6.761126 9461059
-0.043072905 -0.10564999 0.17949893 9132864
-1.5559505 -3.9794831 6.761126 9067326
-0.036181904 -0.09666761 0.16423789 9132864
-1.2197367 -3.4109855 5.7952509 9329473
-2.0348461 -5.9692249 10.141689 9198657
-1.1058016 -3.4109855 5.7952509 9264963
-0.73418385 -2.3876901 4.0566759 9067584
-0.99186641 -3.4109855 5.7952509 9068100
-0.045446474 -0.16581181 0.2817136 9198655
-0.68283546 -2.6529889 4.5074177 9329473
-0.15123016 -0.62833947 1.0675462 9199170
-0.48617935 -2.1706271 3.687887 9199170
-0.048521567 -0.23408724 0.3977133 8936770
-0.41367516 -2.1706271 3.687887 9068100
-0.018451795 -0.10611955 0.1802967 9067071
-0.37528807 -2.3876901 4.0566759 8871234
-0.013746343 -0.097856142 0.1662572 9133121
-0.29553348 -2.3876901 4.0566759 8936254
-0.016079003 -0.15016918 0.25513685 9067842
-0.19616258 -2.1706271 3.687887 9134146
-0.012654787 -0.17177625 0.29184717 8937026
-0.13602424 -2.3876901 4.0566759 9263935
-0.0098109115 -0.24364182 0.41394651 9330242
-0.080385178 -3.4109855 5.7952509 9395520
-0.007451056 -1.0853136 1.8439435 9199170
0.058712453 -5.9692249 10.141689 9264963
0.0048740222 -0.18366845 0.31205198 9133376
0.34413195 -7.9589663 13.522252 9133633
0.035779227 -0.59692252 1.014169 9133377
0.91497099 -11.93845 20.283379 9133891
0.021638012 -0.23181456 0.39385203 9657920
2.6274881 -23.8769 40.566757 9461572
0.012301874 -0.097060569 0.16490552 9329730
3.4250343 -23.8769 40.566757 9198400
0.015866419 -0.099074274 0.1683268 9395522
4.2225804 -23.8769 40.566757 9199682
0.018485414 -0.095507599 0.16226703 9396290
1.2550316 -5.9692249 10.141689 9395521
0.14260262 -0.62833947 1.0675462 9199168
0.96961206 -3.9794831 6.761126 9396288
0.028256569 -0.10853136 0.18439434 9264963
0.82690233 -2.9846125 5.0708447 9461826
0.081558041 -0.27763835 0.47170648 9396545
0.7412765 -2.3876901 4.0566759 9002303
0.053503681 -0.16354041 0.2778545 9330756
0.51314443 -1.4923062 2.5354223 9396547
0.041589778 -0.11534734 0.19597468 9593156
0.52987391 -1.4045235 2.3862798 9462084
0.041807245 -0.10611955 0.1802967 9593926
0.70038593 -1.7054927 2.8976254 9789252
0.1478866 -0.34604201 0.587924 9462342
1.7671582 -3.9794831 6.761126 9724486
0.088013776 -0.1910152 0.32453406 9789766
2.8501239 -5.9692249 10.141689 9790022
0.094394147 -0.1910152 0.32453406 9724743
2.4396083 -4.7753801 8.1133518 9725255
0 0 0 9790794
2.5991175 -4.7753801 8.1133518 10053448
0.054228179 -0.09666761 0.16423789 9659208
1.9704475 -3.4109855 5.7952509 9791564
0.22174853 -0.37307656 0.63385558 9987658
1.8238349 -2.9846125 5.0708447 9790022
1.8736815 -2.9846125 5.0708447 9593928
2.1983178 -3.4109855 5.7952509 10053451
1.9733748 -2.9846125 5.0708447 9790022
2.0232215 -2.9846125 5.0708447 9856587
2.0730681 -2.9846125 5.0708447 9659207
2.1229148 -2.9846125 5.0708447 9593926
2.1727614 -2.9846125 5.0708447 9986631
2.2226081 -2.9846125 5.0708447 10118471
2.2724545 -2.9846125 5.0708447 9986631
2.3223011 -2.9846125 5.0708447 9724745
2.3721478 -2.9846125 5.0708447 9659205
2.4219944 -2.9846125 5.0708447 9790022
2.4718411 -2.9846125 5.0708447 9528134
2.5216877 -2.9846125 5.0708447 9724741
2.2858086 -2.6529889 4.5074177 9396036
2.621381 -2.9846125 5.0708447 9396035
2.6712277 -2.9846125 5.0708447 9658436
2.7210743 -2.9846125 5.0708447 9593670
2.4630408 -2.6529889 4.5074177 9329990
2.8207676 -2.9846125 5.0708447 9265220
2.8706143 -2.9846125 5.0708447 9198657
2.9204607 -2.9846125 5.0708447 8870978
2.9703074 -2.9846125 5.0708447 8870979
3.020154 -2.9846125 5.0708447 8542016
3.0700006 -2.9846125 5.0708447 8739394
2.7731977 -2.6529889 4.5074177 8870980
2.8175058 -2.6529889 4.5074177 9068101
2.5756326 -2.3876901 4.0566759 8937543
2.61551 -2.3876901 4.0566759 9331018
2.6553872 -2.3876901 4.0566759 9199946
2.6952646 -2.3876901 4.0566759 9856332
2.4864924 -2.1706271 3.687887 9397065
2.5227444 -2.1706271 3.687887 9724488
3.1276627 -2.6529889 4.5074177 9528395
3.1719708 -2.6529889 4.5074177 9659469
5.7893019 -4.7753801 8.1133518 9724745
5.8690567 -4.7753801 8.1133518 9988427
5.9488115 -4.7753801 8.1133518 9856585
6.0285659 -4.7753801 8.1133518 10118988
6.1083207 -4.7753801 8.1133518 9922378
6.1880751 -4.7753801 8.1133518 9922380
6.2678299 -4.7753801 8.1133518 10184267
6.3475842 -4.7753801 8.1133518 10118987
6.4273391 -4.7753801 8.1133518 10053194
6.5070934 -4.7753801 8.1133518 10250574
6.5868483 -4.7753801 8.1133518 10185040
5.5555019 -3.9794831 6.761126 9922895
5.621964 -3.9794831 6.761126 10185037
4.2663198 -2.9846125 5.0708447 9922380
3.8365927 -2.6529889 4.5074177 10053195
3.8809006 -2.6529889 4.5074177 10117961
3.9252088 -2.6529889 4.5074177 9856585
7.1451306 -4.7753801 8.1133518 9921862
7.224885 -4.7753801 8.1133518 9987401
7.3046398 -4.7753801 8.1133518 10053964
7.3843942 -4.7753801 8.1133518 10118476
7.464149 -4.7753801 8.1133518 10184270
6.2865858 -3.9794831 6.761126 9528140
6.3530478 -3.9794831 6.761126 9922639
6.4195104 -3.9794831 6.761126 9856589
6.4859724 -3.9794831 6.761126 9528910
6.5524344 -3.9794831 6.761126 9922638
6.618897 -3.9794831 6.761126 10118989
8.0224314 -4.7753801 8.1133518 9725003
6.751821 -3.9794831 6.761126 9528908
6.8182831 -3.9794831 6.761126 9528139
4.5898304 -2.6529889 4.5074177 9594443
4.6341386 -2.6529889 4.5074177 9528907
4.6784468 -2.6529889 4.5074177 9528393
5.3130989 -2.9846125 5.0708447 9593672
4.7670631 -2.6529889 4.5074177 9856586
4.3302341 -2.3876901 4.0566759 9528134
4.3701115 -2.3876901 4.0566759 9594183
4.8999872 -2.6529889 4.5074177 9462595
4.9442954 -2.6529889 4.5074177 9528134
4.9886036 -2.6529889 4.5074177 9462087
5.0329118 -2.6529889 4.5074177 9593417
5.07722 -2.6529889 4.5074177 9527879
5.1215281 -2.6529889 4.5074177 9659210
5.1658363 -2.6529889 4.5074177 9527882
5.210144 -2.6529889 4.5074177 9396808
5.9112587 -2.9846125 5.0708447 9265992
6.8126917 -3.4109855 5.7952509 9133891
5.3430686 -2.6529889 4.5074177 9264708
5.3873768 -2.6529889 4.5074177 9133637
5.431685 -2.6529889 4.5074177 9134406
6.1604919 -2.9846125 5.0708447 8872004
6.2103386 -2.9846125 5.0708447 9068101
7.1544971 -3.4109855 5.7952509 9133382
8.4133759 -3.9794831 6.761126 9198920
0 0 0 9067591
0 0 0 8871239
0 0 0 8936775
0 0 0 8870730
0 0 0 9198921
0 0 0 8804929
0 0 0 8607295
0 0 0 8673855
0 0 0 8542012
0 0 0 8476476
0 0 0 8870720
0 0 0 8476219
0 0 0 8607549
0 0 0 8541240
0 0 0 8738876
0 0 0 8542011
0 0 0 8476734
0 0 0 8608062
0 0 0 8541754
0 0 0 8738876
0 0 0 8672827
0 0 0 8279613
0 0 0 8673088
-21.017546 -11.739063 20.283379 8476224
-13.878773 -7.8260417 13.522252 8476222
0 0 0 8475709
0 0 0 8607552
-13.48 -7.8260417 13.522252 8542013
-10.010307 -5.8695316 10.141689 8214077
-9.910614 -5.8695316 10.141689 8345149
-9.8109207 -5.8695316 10.141689 8541246
-9.7112274 -5.8695316 10.141689 8410944
-9.6115341 -5.8695316 10.141689 8213820
-9.5118408 -5.8695316 10.141689 8148797
-9.4121475 -5.8695316 10.141689 8542015
-12.416605 -7.8260417 13.522252 8279613
-12.283681 -7.8260417 13.522252 8279097
-12.150757 -7.8260417 13.522252 8344636
-12.017832 -7.8260417 13.522252 8279358
-11.884908 -7.8260417 13.522252 8279102
-11.751984 -7.8260417 13.522252 8475457
-11.61906 -7.8260417 13.522252 8607809
-11.486135 -7.8260417 13.522252 8673088
0 0 0 8475709
0 0 0 8476734
0 0 0 8279356
-16.431656 -11.739063 20.283379 8541754
-8.1161346 -5.8695316 10.141689 8345660
-8.0164413 -5.8695316 10.141689 8541756
-7.9167485 -5.8695316 10.141689 8541756
-7.8170552 -5.8695316 10.141689 8804412
-7.7173619 -5.8695316 10.141689 8542013
-6.0941353 -4.6956253 8.1133518 8475708
-6.0143805 -4.6956253 8.1133518 8738108
-7.418282 -5.8695316 10.141689 8672828
-7.3185887 -5.8695316 10.141689 8345149
-7.2188954 -5.8695316 10.141689 8409916
-7.1192021 -5.8695316 10.141689 8475709
-9.3593454 -7.8260417 13.522252 8541759
-9.2264214 -7.8260417 13.522252 8673343
-3.8972127 -3.354018 5.7952509 8738621
-4.4802861 -3.9130208 6.761126 8410682
-3.3103681 -2.9347658 5.0708447 8672826
0 0 0 8672826
-4.2808995 -3.9130208 6.761126 8869692
-8.428875 -7.8260417 13.522252 8804160
-8.2959509 -7.8260417 13.522252 8672829
0 0 0 8476222
0 0 0 8608061
0 0 0 8411201
-7.7642531 -7.8260417 13.522252 8738366
-4.5787973 -4.6956253 8.1133518 8804674
-1.8746011 -1.9565104 3.380563 8936000
-1.84137 -1.9565104 3.380563 9067071
-1.808139 -1.9565104 3.380563 8805185
-2.1298895 -2.3478127 4.0566759 8804928
-4.1800246 -4.6956253 8.1133518 8738621
-4.1002698 -4.6956253 8.1133518 9067073
-4.0205154 -4.6956253 8.1133518 8804928
-2.1893115 -2.6086807 4.5074177 8805698
-2.1450033 -2.6086807 4.5074177 8738881
-3.7812514 -4.6956253 8.1133518 9067583
-3.7014968 -4.6956253 8.1133518 8936770
-2.012079 -2.6086807 4.5074177 8804926
-1.9677709 -2.6086807 4.5074177 9198655
-1.9234627 -2.6086807 4.5074177 9132862
-2.114049 -2.9347658 5.0708447 9133376
-2.0642023 -2.9347658 5.0708447 9002049
-2.0143557 -2.9347658 5.0708447 9133121
-2.2451532 -3.354018 5.7952509 8870722
-1.1782538 -1.8060098 3.1205199 8870721
-0.93240786 -1.4673829 2.5354223 9002303
-0.96798348 -1.5652083 2.7044504 8870720
-1.0086414 -1.677009 2.8976254 9067584
-1.0555544 -1.8060098 3.1205199 9067073
-1.4803816 -2.6086807 4.5074177 8739135
-1.4360734 -2.6086807 4.5074177 9001793
-1.1387171 -2.1343751 3.687887 9198912
-1.1024649 -2.1343751 3.687887 9067843
-1.0662129 -2.1343751 3.687887 9264449
-1.258841 -2.6086807 4.5074177 9132866
-1.3663495 -2.9347658 5.0708447 9199172
-1.3165028 -2.9347658 5.0708447 9199170
-1.447607 -3.354018 5.7952509 9264448
-1.2168095 -2.9347658 5.0708447 9264191
-1.0373005 -2.6086807 4.5074177 9265473
-0.99299228 -2.6086807 4.5074177 9002303
-0.94868416 -2.6086807 4.5074177 9001791
-0.90437603 -2.6086807 4.5074177 8870721
-0.86006796 -2.6086807 4.5074177 9068098
-0.81575984 -2.6086807 4.5074177 8936770
-0.77145171 -2.6086807 4.5074177 9002305
-0.72714359 -2.6086807 4.5074177 9133379
-0.68283546 -2.6086807 4.5074177 9199684
-0.63852733 -2.6086807 4.5074177 9067841
-0.44566441 -1.9565104 3.380563 8936513
-0.4124333 -1.9565104 3.380563 9263937
-0.75840443 -3.9130208 6.761126 9264448
-0.83033079 -4.6956253 8.1133518 9199169
-0.75057614 -4.6956253 8.1133518 9132862
-0.8385269 -5.8695316 10.141689 9132862
-0.59106696 -4.6956253 8.1133518 9264445
-0.21304679 -1.9565104 3.380563 9198912
-0.17981569 -1.9565104 3.380563 9264703
-0.14658462 -1.9565104 3.380563 9133635
-0.11335353 -1.9565104 3.380563 9133893
-0.073959179 -1.8060098 3.1205199 9395264
-0.043284331 -1.8060098 3.1205199 9264961
-0.01366027 -1.9565104 3.380563 9199170
0.019570816 -1.9565104 3.380563 9330754
0.052801903 -1.9565104 3.380563 9264705
0.086032987 -1.9565104 3.380563 9133633
0.11926407 -1.9565104 3.380563 9395264
0.12199613 -1.5652083 2.7044504 9461057
0.018887416 -0.19896717 0.34378609 9395518
0.18767771 -1.677009 2.8976254 9526082
0.020310478 -0.15757132 0.27226013 9330758
0.26346418 -1.8060098 3.1205199 9263682
0.13185541 -0.80959052 1.3988537 9330500
0.35188168 -1.9565104 3.380563 9199427
0.019255638 -0.09782552 0.16902815 9461311
0.3137579 -1.4673829 2.5354223 9134406
0.03588675 -0.15548427 0.26865402 9330757
0.34221601 -1.3810662 2.3862798 9330756
1.2432891 -4.6956253 8.1133518 9462340
0.66152191 -2.3478127 4.0566759 9396291
0.098788619 -0.33067784 0.57136279 9462083
1.8531911 -5.8695316 10.141689 9462084
0.042920537 -0.12900069 0.22289427 9331268
4.1051555 -11.739063 20.283379 9330754
0.037268762 -0.10163691 0.17561367 9330754
9.0078564 -23.478127 40.566757 9594183
0.052551005 -0.13116272 0.22662993 9460800
4.9027014 -11.739063 20.283379 9921349
0.10972232 -0.25245297 0.43620169 9659464
3.5343163 -7.8260417 13.522252 9921351
0.10681284 -0.22794297 0.39385203 9724742
2.2800992 -4.6956253 8.1133518 9396291
0.15525353 -0.30892271 0.53377312 10052678
1.1089128 -2.1343751 3.687887 9724999
0.11663717 -0.21739006 0.37561813 9986885
0.68397826 -1.2356908 2.1350925 9790793
0.088120788 -0.15446135 0.26688656 9659720
0.53050512 -0.90300488 1.5602599 9790022
0.13646065 -0.22575122 0.39006498 9724229
1.6211867 -2.6086807 4.5074177 9659460
1.6654948 -2.6086807 4.5074177 9658950
1.7098029 -2.6086807 4.5074177 9855302
1.7541111 -2.6086807 4.5074177 9790535
2.0232215 -2.9347658 5.0708447 9791305
2.0730681 -2.9347658 5.0708447 9659206
2.1229148 -2.9347658 5.0708447 9724743
1.9313436 -2.6086807 4.5074177 9658951
2.2226081 -2.9347658 5.0708447 9659462
2.0199597 -2.6086807 4.5074177 9790022
2.0642679 -2.6086807 4.5074177 9462856
1.8977184 -2.3478127 4.0566759 9724229
2.152884 -2.6086807 4.5074177 9659205
2.1971922 -2.6086807 4.5074177 9724483
2.2415004 -2.6086807 4.5074177 9462596
2.0572276 -2.3478127 4.0566759 9528135
2.3301165 -2.6086807 4.5074177 9395521
2.3744247 -2.6086807 4.5074177 9198915
2.4187329 -2.6086807 4.5074177 9592647
2.4630408 -2.6086807 4.5074177 9002307
2.507349 -2.6086807 4.5074177 9002051
2.5516572 -2.6086807 4.5074177 8738627
2.5959654 -2.6086807 4.5074177 8542015
2.6402733 -2.6086807 4.5074177 8739907
2.6845815 -2.6086807 4.5074177 9002820
2.7288897 -2.6086807 4.5074177 9068102
2.7731977 -2.6086807 4.5074177 9002820
2.8175058 -2.6086807 4.5074177 9461831
2.5756326 -2.3478127 4.0566759 9396554
2.61551 -2.3478127 4.0566759 9659207
2.6553872 -2.3478127 4.0566759 9725001
2.6952646 -2.3478127 4.0566759 9856587
2.7351418 -2.3478127 4.0566759 10053453
2.5227444 -2.1343751 3.687887 10118733
2.8148963 -2.3478127 4.0566759 9856587
3.1719708 -2.6086807 4.5074177 9856589
3.216279 -2.6086807 4.5074177 10118474
3.260587 -2.6086807 4.5074177 10316366
3.7180068 -2.9347658 5.0708447 10184780
5.0238047 -3.9130208 6.761126 10118987
3.8177001 -2.9347658 5.0708447 10185552
5.1567287 -3.9130208 6.761126 10185295
5.2231913 -3.9130208 6.761126 10119501
6.3475842 -4.6956253 8.1133518 10119502
6.4273391 -4.6956253 8.1133518 10251087
6.5070934 -4.6956253 8.1133518 10382159
5.4890399 -3.9130208 6.761126 10118989
5.5555019 -3.9130208 6.761126 10251086
3.7479763 -2.6086807 4.5074177 10447954
3.7922845 -2.6086807 4.5074177 10119246
3.8365927 -2.6086807 4.5074177 9988172
3.8809006 -2.6086807 4.5074177 9922379
3.9252088 -2.6086807 4.5074177 10316366
3.969517 -2.6086807 4.5074177 10315848
4.515553 -2.9347658 5.0708447 9857613
4.0581331 -2.6086807 4.5074177 9923149
4.1024413 -2.6086807 4.5074177 10250318
4.6650929 -2.9347658 5.0708447 10053966
4.7149396 -2.9347658 5.0708447 10119246
4.7647862 -2.9347658 5.0708447 9988173
4.8146329 -2.9347658 5.0708447 9857100
5.5594049 -3.354018 5.7952509 9988171
5.6163726 -3.354018 5.7952509 9922636
5.6733398 -3.354018 5.7952509 9856588
4.4569063 -2.6086807 4.5074177 9856589
4.5012145 -2.6086807 4.5074177 9791054
4.5455227 -2.6086807 4.5074177 9790793
4.5898304 -2.6086807 4.5074177 9659208
4.6341386 -2.6086807 4.5074177 9659979
4.2106023 -2.3478127 4.0566759 9856072
4.2504797 -2.3478127 4.0566759 9857100
4.2903566 -2.3478127 4.0566759 9462344
4.3302341 -2.3478127 4.0566759 9332042
4.3701115 -2.3478127 4.0566759 9201485
4.4099889 -2.3478127 4.0566759 9593930
4.4498658 -2.3478127 4.0566759 9986633
4.9886036 -2.6086807 4.5074177 9659466
5.0329118 -2.6086807 4.5074177 9397065
5.07722 -2.6086807 4.5074177 9528137
5.1215281 -2.6086807 4.5074177 9396036
5.1658363 -2.6086807 4.5074177 9527622
5.861412 -2.9347658 5.0708447 9658955
5.9112587 -2.9347658 5.0708447 9133384
5.9611053 -2.9347658 5.0708447 9264969
5.3430686 -2.6086807 4.5074177 9134154
5.3873768 -2.6086807 4.5074177 9134154
5.431685 -2.6086807 4.5074177 9265738
5.4759932 -2.6086807 4.5074177 9002311
5.5203009 -2.6086807 4.5074177 9002566
6.2601852 -2.9347658 5.0708447 8937545
7.2114644 -3.354018 5.7952509 8872265
0 0 0 8805186
0 0 0 9133638
0 0 0 8936260
0 0 0 9067591
0 0 0 9198919
0 0 0 8868924
0 0 0 8672831
0 0 0 8607808
0 0 0 8411199
0 0 0 8411199
0 0 0 8739136
0 0 0 8870207
0 0 0 8673088
0 0 0 8607808
0 0 0 8608062
0 0 0 8608062
0 0 0 8804412
0 0 0 8672825
0 0 0 8476218
0 0 0 8673340
0 0 0 8804928
0 0 0 8607808
0 0 0 8345408
-21.017546 -11.539677 20.283379 8345408
-20.818159 -11.539677 20.283379 8738367
0 0 0 8673085
0 0 0 8738367
-13.48 -7.6931176 13.522252 8869692
-10.010307 -5.7698383 10.141689 8476222
-7.9284911 -4.615871 8.1133518 8476222
-6.5406137 -3.8465588 6.761126 8345150
-6.4741511 -3.8465588 6.761126 8410686
-12.815378 -7.6931176 13.522252 8278843
-12.682454 -7.6931176 13.522252 8410429
-12.549529 -7.6931176 13.522252 8475711
-9.3124542 -5.7698383 10.141689 8542015
-12.283681 -7.6931176 13.522252 8475709
-12.150757 -7.6931176 13.522252 8409916
-18.026749 -11.539677 20.283379 8409918
-17.827362 -11.539677 20.283379 8541761
-17.627975 -11.539677 20.283379 8672832
-11.61906 -7.6931176 13.522252 8476222
-17.229202 -11.539677 20.283379 8475963
-17.029816 -11.539677 20.283379 8475963
0 0 0 8279098
-16.631042 -11.539677 20.283379 8476222
-2.053957 -1.4424596 2.5354223 8608062
-2.0290337 -1.4424596 2.5354223 8410683
-1.8862215 -1.357609 2.3862798 8541756
-7.9167485 -5.7698383 10.141689 8738364
0 0 0 8542012
0 0 0 8607547
-5.0784454 -3.8465588 6.761126 8541502
-7.5179753 -5.7698383 10.141689 8607554
-7.418282 -5.7698383 10.141689 8410429
-7.3185887 -5.7698383 10.141689 8345406
-7.2188954 -5.7698383 10.141689 8410427
-9.4922695 -7.6931176 13.522252 8475967
0 0 0 8541502
-9.2264214 -7.6931176 13.522252 8476990
-6.8201227 -5.7698383 10.141689 8607547
-6.7204294 -5.7698383 10.141689 8936000
-6.6207361 -5.7698383 10.141689 8870207
0 0 0 8673342
0 0 0 8542013
0 0 0 8607549
0 0 0 8738365
0 0 0 8673342
0 0 0 8475961
-7.8971772 -7.6931176 13.522252 8475965
-7.7642531 -7.6931176 13.522252 8804160
-1.9078321 -1.9232794 3.380563 8541756
-1.8746011 -1.9232794 3.380563 8673600
-1.84137 -1.9232794 3.380563 8673088
-1.808139 -1.9232794 3.380563 8673088
-1.7749078 -1.9232794 3.380563 8804674
-2.0900123 -2.3079355 4.0566759 8870464
-4.1002698 -4.615871 8.1133518 9067071
-2.2336197 -2.5643728 4.5074177 9133633
-1.1590472 -1.357609 2.3862798 8870717
-1.13559 -1.357609 2.3862798 8870462
-1.4543275 -1.7753348 3.1205199 9001793
-1.4236526 -1.7753348 3.1205199 8936000
-1.3929777 -1.7753348 3.1205199 9068356
-1.3623029 -1.7753348 3.1205199 9067327
-1.5737422 -2.0981228 3.687887 9264192
-1.8791547 -2.5643728 4.5074177 9198657
-1.8348465 -2.5643728 4.5074177 9067069
-2.0143557 -2.8849192 5.0708447 9132865
-1.7462304 -2.5643728 4.5074177 8870462
-1.1782538 -1.7753348 3.1205199 9002053
-0.99456835 -1.5386235 2.7044504 8870719
-0.96798348 -1.5386235 2.7044504 9067584
-1.0086414 -1.6485251 2.8976254 8936514
-0.98015761 -1.6485251 2.8976254 8673342
-1.0248796 -1.7753348 3.1205199 9132865
-1.077055 -1.9232794 3.380563 9133377
-1.043824 -1.9232794 3.380563 9395264
-1.0105928 -1.9232794 3.380563 9199170
-0.9773618 -1.9232794 3.380563 9133634
-0.94413066 -1.9232794 3.380563 9002307
-1.2145329 -2.5643728 4.5074177 9329728
-1.1702248 -2.5643728 4.5074177 9265220
-1.6888748 -3.8465588 6.761126 9198656
-1.6224127 -3.8465588 6.761126 9330241
-1.0373005 -2.5643728 4.5074177 9329471
-0.99299228 -2.5643728 4.5074177 9198909
-0.77619612 -2.0981228 3.687887 9068098
-0.73994398 -2.0981228 3.687887 9197629
-0.64505088 -1.9232794 3.380563 9396291
-0.56475681 -1.7753348 3.1205199 9330243
-0.53408194 -1.7753348 3.1205199 9198913
-0.72714359 -2.5643728 4.5074177 9395266
-0.68283546 -2.5643728 4.5074177 9067586
-0.63852733 -2.5643728 4.5074177 9461828
-0.44566441 -1.9232794 3.380563 9199170
-0.4124333 -1.9232794 3.380563 9460544
-0.37920222 -1.9232794 3.380563 9067582
-0.34597114 -1.9232794 3.380563 9264963
-0.22075768 -1.357609 2.3862798 9330756
-0.25800827 -1.7753348 3.1205199 9199168
-0.59106696 -4.615871 8.1133518 9264449
-0.21304679 -1.9232794 3.380563 9264962
-0.17981569 -1.9232794 3.380563 9527104
-0.14658462 -1.9232794 3.380563 9526850
-0.10463403 -1.7753348 3.1205199 9264193
-0.080122441 -1.9232794 3.380563 9330752
-0.043284331 -1.7753348 3.1205199 9264448
-0.01366027 -1.9232794 3.380563 9199170
0.018065371 -1.7753348 3.1205199 9396291
0.048740219 -1.7753348 3.1205199 9133375
0.079415068 -1.7753348 3.1205199 9133376
0.11008992 -1.7753348 3.1205199 9264705
0.14076477 -1.7753348 3.1205199 9264704
0.17143962 -1.7753348 3.1205199 9329986
0.20211448 -1.7753348 3.1205199 9395266
0.23278932 -1.7753348 3.1205199 9265220
0.26346418 -1.7753348 3.1205199 9461314
0.29413903 -1.7753348 3.1205199 9461829
0.30161285 -1.6485251 2.8976254 9462085
0.35548872 -1.7753348 3.1205199 9199169
0.38616356 -1.7753348 3.1205199 9265477
0.41683844 -1.7753348 3.1205199 9002307
0.44751328 -1.7753348 3.1205199 9264450
0.47818813 -1.7753348 3.1205199 9330754
0.50886297 -1.7753348 3.1205199 9462084
0.77933246 -2.5643728 4.5074177 9397059
0.82364053 -2.5643728 4.5074177 9198655
0.86794865 -2.5643728 4.5074177 9462084
0.91225678 -2.5643728 4.5074177 9723971
0.71742362 -1.9232794 3.380563 9658437
0.7506547 -1.9232794 3.380563 9723971
0.72358692 -1.7753348 3.1205199 9462342
0.70038593 -1.6485251 2.8976254 9593413
0.72886968 -1.6485251 2.8976254 9527620
0.75735348 -1.6485251 2.8976254 9527874
0.73344809 -1.5386235 2.7044504 9593926
0.76003295 -1.5386235 2.7044504 9528133
0.84280485 -1.6485251 2.8976254 9659462
0.93831086 -1.7753348 3.1205199 9855298
0.96898574 -1.7753348 3.1205199 9724231
0.99966061 -1.7753348 3.1205199 9724487
1.0303354 -1.7753348 3.1205199 9920840
1.0610102 -1.7753348 3.1205199 9659206
0.88699412 -1.4424596 2.5354223 9724486
1.12236 -1.7753348 3.1205199 9724997
1.6654948 -2.5643728 4.5074177 9659208
1.7098029 -2.5643728 4.5074177 9725253
1.7541111 -2.5643728 4.5074177 9725001
1.7984191 -2.5643728 4.5074177 9659463
1.8427273 -2.5643728 4.5074177 9593412
1.8870354 -2.5643728 4.5074177 9593414
1.9313436 -2.5643728 4.5074177 9725001
1.9756516 -2.5643728 4.5074177 9790024
2.0199597 -2.5643728 4.5074177 9527877
1.5482008 -1.9232794 3.380563 9396550
1.5814319 -1.9232794 3.380563 9791305
1.614663 -1.9232794 3.380563 9527622
1.977473 -2.3079355 4.0566759 9527622
2.0173502 -2.3079355 4.0566759 9330757
1.5824827 -1.7753348 3.1205199 9330757
1.6131576 -1.7753348 3.1205199 8936512
1.6438324 -1.7753348 3.1205199 8673598
1.8140495 -1.9232794 3.380563 9067328
1.7051822 -1.7753348 3.1205199 8870210
1.8805116 -1.9232794 3.380563 8804422
2.2964914 -2.3079355 4.0566759 8870468
2.5959654 -2.5643728 4.5074177 8871234
2.6402733 -2.5643728 4.5074177 9396295
2.0134361 -1.9232794 3.380563 9462344
2.4560006 -2.3079355 4.0566759 9134407
2.495878 -2.3079355 4.0566759 9659466
2.5357554 -2.3079355 4.0566759 9593160
2.5756326 -2.3079355 4.0566759 10053196
2.61551 -2.3079355 4.0566759 10052678
2.6553872 -2.3079355 4.0566759 9856330
2.6952646 -2.3079355 4.0566759 10250315
2.7351418 -2.3079355 4.0566759 10184777
2.7750192 -2.3079355 4.0566759 10053964
2.8148963 -2.3079355 4.0566759 10185547
2.8547738 -2.3079355 4.0566759 10054219
2.8946509 -2.3079355 4.0566759 10446669
3.260587 -2.5643728 4.5074177 10512973
3.7180068 -2.8849192 5.0708447 10120015
5.0238047 -3.8465588 6.761126 10447952
3.8177001 -2.8849192 5.0708447 10053966
3.4378195 -2.5643728 4.5074177 10250318
3.4821277 -2.5643728 4.5074177 10185547
6.3475842 -4.615871 8.1133518 10447952
6.4273391 -4.615871 8.1133518 10185293
6.5070934 -4.615871 8.1133518 10317137
3.6593602 -2.5643728 4.5074177 10513486
3.7036684 -2.5643728 4.5074177 10186063
2.810982 -1.9232794 3.380563 10513231
2.8442132 -1.9232794 3.380563 10316364
2.8774443 -1.9232794 3.380563 10317388
2.6867774 -1.7753348 3.1205199 10382159
3.9252088 -2.5643728 4.5074177 10447436
3.969517 -2.5643728 4.5074177 9988684
4.0138249 -2.5643728 4.5074177 10120014
4.0581331 -2.5643728 4.5074177 10053964
3.6921971 -2.3079355 4.0566759 10119500
3.7320745 -2.3079355 4.0566759 10053966
2.9015014 -1.7753348 3.1205199 10184782
3.8118291 -2.3079355 4.0566759 10053452
4.2796736 -2.5643728 4.5074177 10053966
4.3239818 -2.5643728 4.5074177 10185807
4.3682899 -2.5643728 4.5074177 9988686
4.4125981 -2.5643728 4.5074177 9791822
4.4569063 -2.5643728 4.5074177 9988174
4.5012145 -2.5643728 4.5074177 9987401
4.5455227 -2.5643728 4.5074177 9593928
4.1308475 -2.3079355 4.0566759 9987916
4.1707249 -2.3079355 4.0566759 10053966
4.2106023 -2.3079355 4.0566759 10184010
4.2504797 -2.3079355 4.0566759 9856843
4.2903566 -2.3079355 4.0566759 9594184
4.3302341 -2.3079355 4.0566759 9790794
4.3701115 -2.3079355 4.0566759 9593930
4.4099889 -2.3079355 4.0566759 9660236
4.4498658 -2.3079355 4.0566759 9725515
4.4897432 -2.3079355 4.0566759 9986633
5.0329118 -2.5643728 4.5074177 9329991
5.07722 -2.5643728 4.5074177 9725515
5.1215281 -2.5643728 4.5074177 9725003
5.1658363 -2.5643728 4.5074177 9723979
5.861412 -2.8849192 5.0708447 9724233
5.9112587 -2.8849192 5.0708447 9462089
5.2987604 -2.5643728 4.5074177 9331272
5.3430686 -2.5643728 4.5074177 9265224
5.3873768 -2.5643728 4.5074177 9265483
5.431685 -2.5643728 4.5074177 9265225
5.4759932 -2.5643728 4.5074177 9396297
6.2103386 -2.8849192 5.0708447 9199432
6.2601852 -2.8849192 5.0708447 9265740
6.3100319 -2.8849192 5.0708447 9199687
0 0 0 9265479
0 0 0 9068100
0 0 0 9002052
0 0 0 9068102
0 0 0 9331018
0 0 0 8148029
0 0 0 8344894
0 0 0 8476222
0 0 0 8476222
0 0 0 8542015
0 0 0 8607808
0 0 0 8476479
0 0 0 8869953
0 0 0 8673088
0 0 0 8345404
0 0 0 8542269
0 0 0 8869694
0 0 0 9000510
0 0 0 8672572
0 0 0 8541758
0 0 0 8673855
0 0 0 8673084
0 0 0 8541755
-21.017546 -11.34029 20.283379 8279356
-13.878773 -7.5601931 13.522252 8213822
-10.309386 -5.670145 10.141689 8344636
0 0 0 8476220
0 0 0 8607549
-10.010307 -5.670145 10.141689 8541502
-6.6070757 -3.7800965 6.761126 8738367
-4.3604093 -2.5200646 4.5074177 8344124
-4.3161011 -2.5200646 4.5074177 8475709
-9.6115341 -5.670145 10.141689 8475709
-12.682454 -7.5601931 13.522252 8476222
-12.549529 -7.5601931 13.522252 8475964
-12.416605 -7.5601931 13.522252 8672317
-9.2127609 -5.670145 10.141689 8541502
-12.150757 -7.5601931 13.522252 8672574
-12.017832 -7.5601931 13.522252 8672574
-11.884908 -7.5601931 13.522252 8344638
-17.627975 -11.34029 20.283379 8476222
-17.428589 -11.34029 20.283379 8673085
-17.229202 -11.34029 20.283379 8475965
-11.35321 -7.5601931 13.522252 8607035
0 0 0 8542269
0 0 0 8475709
-10.954437 -7.5601931 13.522252 8476478
-2.0290337 -1.4175363 2.5354223 8607292
-2.0041103 -1.4175363 2.5354223 8411199
0 0 0 8476476
0 0 0 8476220
-15.434724 -11.34029 20.283379 8738881
-7.6176686 -5.670145 10.141689 8541502
-7.5179753 -5.670145 10.141689 8541502
-7.418282 -5.670145 10.141689 8542012
-7.3185887 -5.670145 10.141689 8607807
-7.2188954 -5.670145 10.141689 8542269
-7.1192021 -5.670145 10.141689 8410429
0 0 0 8607295
-6.919816 -5.670145 10.141689 8804414
-5.4560986 -4.5361161 8.1133518 8607549
-6.7204294 -5.670145 10.141689 8607808
-6.6207361 -5.670145 10.141689 8607806
0 0 0 8607549
-8.561799 -7.5601931 13.522252 8543039
0 0 0 8673342
-6.2219629 -5.670145 10.141689 8738108
-6.1222696 -5.670145 10.141689 8476477
-4.8180614 -4.5361161 8.1133518 8608062
-3.9485886 -3.7800965 6.761126 8674371
-2.1175237 -2.0618708 3.687887 8541757
-1.9078321 -1.8900483 3.380563 8804671
-1.8746011 -1.8900483 3.380563 8804414
-1.2997906 -1.3341517 2.3862798 8738877
-1.6690514 -1.74466 3.1205199 8673856
-1.6383766 -1.74466 3.1205199 8738623
-1.7416768 -1.8900483 3.380563 8804928
-1.1389638 -1.2600323 2.2537088 8870977
-1.1168098 -1.2600323 2.2537088 9002304
-1.0946558 -1.2600323 2.2537088 9067069
-1.0725017 -1.2600323 2.2537088 9067584
-1.4543275 -1.74466 3.1205199 8936512
-1.0886755 -1.3341517 2.3862798 8936768
-1.1317943 -1.4175363 2.5354223 9001791
-1.1068711 -1.4175363 2.5354223 9001791
-1.9234627 -2.5200646 4.5074177 9067584
-1.8791547 -2.5200646 4.5074177 9001793
-1.8348465 -2.5200646 4.5074177 9001791
-1.3429037 -1.8900483 3.380563 9198914
-1.2089287 -1.74466 3.1205199 9067069
-1.1782538 -1.74466 3.1205199 9001792
-1.2432104 -1.8900483 3.380563 9133121
-1.2099794 -1.8900483 3.380563 9067582
-1.1767483 -1.8900483 3.380563 9067585
-1.0555544 -1.74466 3.1205199 9002307
-1.0248796 -1.74466 3.1205199 9199168
-0.9942047 -1.74466 3.1205199 9067586
-1.043824 -1.8900483 3.380563 9067071
-1.0105928 -1.8900483 3.380563 9067583
-0.9773618 -1.8900483 3.380563 8936254
-0.87150532 -1.74466 3.1205199 9265477
-1.2145329 -2.5200646 4.5074177 9526852
-1.3165028 -2.8350725 5.0708447 9264963
-2.02665 -4.5361161 8.1133518 9068096
-1.9468954 -4.5361161 8.1133518 9199168
-1.5559505 -3.7800965 6.761126 9264963
-0.8124482 -2.0618708 3.687887 9526594
-0.7115131 -1.8900483 3.380563 9199170
-0.67828202 -1.8900483 3.380563 9198913
-0.59543163 -1.74466 3.1205199 9461827
-0.56475681 -1.74466 3.1205199 9461057
-0.53408194 -1.74466 3.1205199 9133377
-0.72714359 -2.5200646 4.5074177 9067584
-0.68283546 -2.5200646 4.5074177 9068098
-0.63852733 -2.5200646 4.5074177 9132606
-0.44566441 -1.8900483 3.380563 9199171
-0.54991114 -2.5200646 4.5074177 9526594
-0.37920222 -1.8900483 3.380563 9199426
-0.23064744 -1.2600323 2.2537088 9330753
-0.20849338 -1.2600323 2.2537088 9396035
-0.25800827 -1.74466 3.1205199 9330241
-0.22733343 -1.74466 3.1205199 9396290
-0.21304679 -1.8900483 3.380563 9067840
-0.16598374 -1.74466 3.1205199 9264193
-0.13530888 -1.74466 3.1205199 9396288
-0.10463403 -1.74466 3.1205199 9330241
-0.10682993 -2.5200646 4.5074177 9395518
-0.062521815 -2.5200646 4.5074177 9330241
-0.018213693 -2.5200646 4.5074177 9133889
0.018065371 -1.74466 3.1205199 9396289
0.048740219 -1.74466 3.1205199 9198913
0.079415068 -1.74466 3.1205199 9198655
0.11008992 -1.74466 3.1205199 9067582
0.14076477 -1.74466 3.1205199 9264961
0.17143962 -1.74466 3.1205199 9527620
0.20211448 -1.74466 3.1205199 9461829
0.23278932 -1.74466 3.1205199 8937027
0.26346418 -1.74466 3.1205199 9264965
0.29413903 -1.74466 3.1205199 9264965
0.30161285 -1.6200414 2.8976254 9199942
0.33009666 -1.6200414 2.8976254 9330756
0.38616356 -1.74466 3.1205199 9133632
0.41683844 -1.74466 3.1205199 9462084
0.44751328 -1.74466 3.1205199 9723459
0.47818813 -1.74466 3.1205199 9330239
0.50886297 -1.74466 3.1205199 9593415
0.53953785 -1.74466 3.1205199 9396037
0.57021266 -1.74466 3.1205199 9397063
0.65096146 -1.8900483 3.380563 9331268
0.68419254 -1.8900483 3.380563 9526850
0.71742362 -1.8900483 3.380563 9658438
0.6929121 -1.74466 3.1205199 9659206
0.72358692 -1.74466 3.1205199 9527622
0.70038593 -1.6200414 2.8976254 9528134
0.72886968 -1.6200414 2.8976254 9593927
0.81561148 -1.74466 3.1205199 9527874
0.73344809 -1.5120386 2.7044504 9659208
0.76003295 -1.5120386 2.7044504 9461828
0.73745424 -1.4175363 2.5354223 9528133
0.87128866 -1.6200414 2.8976254 9527620
0.78730088 -1.4175363 2.5354223 9659207
0.81222421 -1.4175363 2.5354223 9790534
0.83714753 -1.4175363 2.5354223 9986886
1.0610102 -1.74466 3.1205199 9791307
0.88699412 -1.4175363 2.5354223 9659206
0.91191745 -1.4175363 2.5354223 9725257
0.93684077 -1.4175363 2.5354223 9658951
0.9617641 -1.4175363 2.5354223 9789765
0.98668742 -1.4175363 2.5354223 9330501
1.2450594 -1.74466 3.1205199 9724230
1.2757342 -1.74466 3.1205199 9461827
1.8870354 -2.5200646 4.5074177 9723460
1.9313436 -2.5200646 4.5074177 9723973
1.9756516 -2.5200646 4.5074177 9789764
1.5149697 -1.8900483 3.380563 9724229
1.5482008 -1.8900483 3.380563 9462085
1.4597833 -1.74466 3.1205199 9462081
1.4904583 -1.74466 3.1205199 9265476
1.3183153 -1.5120386 2.7044504 9068613
1.5518079 -1.74466 3.1205199 9198918
1.4694482 -1.6200414 2.8976254 8870467
1.6131576 -1.74466 3.1205199 8673599
1.6438324 -1.74466 3.1205199 8607807
1.6745073 -1.74466 3.1205199 8673601
1.7051822 -1.74466 3.1205199 8870728
1.735857 -1.74466 3.1205199 9396556
1.7665318 -1.74466 3.1205199 9527368
1.9469738 -1.8900483 3.380563 9857101
1.9802049 -1.8900483 3.380563 9790024
1.8585564 -1.74466 3.1205199 9790794
2.0466671 -1.8900483 3.380563 9725513
2.495878 -2.2680581 4.0566759 9923145
2.5357554 -2.2680581 4.0566759 9856587
2.3414841 -2.0618708 3.687887 9988171
2.3777361 -2.0618708 3.687887 10381900
2.2128224 -1.8900483 3.380563 10513745
2.2460537 -1.8900483 3.380563 10054476
2.7351418 -2.2680581 4.0566759 10053961
2.7750192 -2.2680581 4.0566759 10447182
2.8148963 -2.2680581 4.0566759 10250828
2.8547738 -2.2680581 4.0566759 10382411
2.8946509 -2.2680581 4.0566759 10447693
3.260587 -2.5200646 4.5074177 10251344
3.3048952 -2.5200646 4.5074177 10645585
3.3492033 -2.5200646 4.5074177 10447439
3.3935113 -2.5200646 4.5074177 10251087
3.4378195 -2.5200646 4.5074177 10382413
3.4821277 -2.5200646 4.5074177 10841679
3.5264359 -2.5200646 4.5074177 10447952
3.5707438 -2.5200646 4.5074177 10251085
3.615052 -2.5200646 4.5074177 10776399
3.6593602 -2.5200646 4.5074177 10906702
2.777751 -1.8900483 3.380563 10645071
2.810982 -1.8900483 3.380563 10841937
2.6254277 -1.74466 3.1205199 10448206
2.6561024 -1.74466 3.1205199 10054477
2.6867774 -1.74466 3.1205199 10710610
3.5326879 -2.2680581 4.0566759 10448207
3.969517 -2.5200646 4.5074177 10119757
4.0138249 -2.5200646 4.5074177 10251340
3.6523199 -2.2680581 4.0566759 10382160
2.8401515 -1.74466 3.1205199 10316368
2.8708265 -1.74466 3.1205199 10316368
2.9015014 -1.74466 3.1205199 10119501
2.9321761 -1.74466 3.1205199 10119756
3.8517065 -2.2680581 4.0566759 10185804
4.3239818 -2.5200646 4.5074177 10054477
4.3682899 -2.5200646 4.5074177 9856842
4.4125981 -2.5200646 4.5074177 10447436
4.4569063 -2.5200646 4.5074177 10118987
4.0510931 -2.2680581 4.0566759 9987658
4.09097 -2.2680581 4.0566759 10185039
4.1308475 -2.2680581 4.0566759 9725516
4.1707249 -2.2680581 4.0566759 10053967
4.2106023 -2.2680581 4.0566759 10249802
4.2504797 -2.2680581 4.0566759 9922891
4.2903566 -2.2680581 4.0566759 9726028
4.3302341 -2.2680581 4.0566759 9593672
4.8556795 -2.5200646 4.5074177 9922380
4.8999872 -2.5200646 4.5074177 9726028
4.4498658 -2.2680581 4.0566759 9594186
4.4897432 -2.2680581 4.0566759 9659980
5.0329118 -2.5200646 4.5074177 9594186
5.07722 -2.5200646 4.5074177 9528651
5.1215281 -2.5200646 4.5074177 9725003
5.8115654 -2.8350725 5.0708447 9659212
5.861412 -2.8350725 5.0708447 9790024
5.9112587 -2.8350725 5.0708447 9462858
5.9611053 -2.8350725 5.0708447 9593930
6.010952 -2.8350725 5.0708447 9593420
6.0607986 -2.8350725 5.0708447 9331531
5.431685 -2.5200646 4.5074177 9266510
5.4759932 -2.5200646 4.5074177 9134670
5.5203009 -2.5200646 4.5074177 9134412
6.2601852 -2.8350725 5.0708447 9265228
6.3100319 -2.8350725 5.0708447 9462091
0 0 0 9198918
0 0 0 9330247
0 0 0 8936514
0 0 0 9133125
0 0 0 9461319
0 0 0 8146746
0 0 0 8475709
0 0 0 8213050
0 0 0 8148542
0 0 0 8475451
0 0 0 8409916
0 0 0 8475709
0 0 0 8410174
0 0 0 8607036
0 0 0 8345147
-15.075092 -7.427269 13.522252 8542268
-14.942167 -7.427269 13.522252 8870206
-11.106933 -5.5704517 10.141689 8804157
0 0 0 8607035
0 0 0 8672828
0 0 0 8475707
0 0 0 8411195
0 0 0 8608317
-21.017546 -11.140903 20.283379 8541754
-13.878773 -7.427269 13.522252 8410428
-10.309386 -5.5704517 10.141689 8541759
-10.209694 -5.5704517 10.141689 8476222
0 0 0 8476221
0 0 0 8475963
-6.6070757 -3.7136345 6.761126 8344635
-4.3604093 -2.4757564 4.5074177 8279615
-4.3161011 -2.4757564 4.5074177 8476223
-5.4923048 -3.1831152 5.7952509 8542015
-12.682454 -7.427269 13.522252 8475963
0 0 0 8607549
0 0 0 8476218
-12.283681 -7.427269 13.522252 8410430
-12.150757 -7.427269 13.522252 8410687
-12.017832 -7.427269 13.522252 8541245
-11.884908 -7.427269 13.522252 8345408
-11.751984 -7.427269 13.522252 8673088
-17.428589 -11.140903 20.283379 8607549
0 0 0 8607292
0 0 0 8410941
0 0 0 8542267
-11.087361 -7.427269 13.522252 8738877
-10.954437 -7.427269 13.522252 8672833
-10.821513 -7.427269 13.522252 8607804
-10.688589 -7.427269 13.522252 8607293
-15.833497 -11.140903 20.283379 8476734
-15.63411 -11.140903 20.283379 8476735
-7.7173619 -5.5704517 10.141689 8607549
-6.0941353 -4.4563618 8.1133518 8607548
-6.0143805 -4.4563618 8.1133518 8607295
-5.9346261 -4.4563618 8.1133518 8608062
-5.8548713 -4.4563618 8.1133518 8476220
-5.7751169 -4.4563618 8.1133518 8607293
-7.1192021 -5.5704517 10.141689 8738622
-7.0195093 -5.5704517 10.141689 8672572
-5.5358529 -4.4563618 8.1133518 8673342
-5.4560986 -4.4563618 8.1133518 8607805
-6.7204294 -5.5704517 10.141689 8542012
-6.6207361 -5.5704517 10.141689 8542269
-8.6947231 -7.427269 13.522252 8608059
-6.4213495 -5.5704517 10.141689 8738877
0 0 0 8607804
-6.2219629 -5.5704517 10.141689 8804928
-4.0815129 -3.7136345 6.761126 8738367
-4.0150509 -3.7136345 6.761126 8739134
-4.738307 -4.4563618 8.1133518 8607808
-7.7642531 -7.427269 13.522252 8476989
-7.6313286 -7.427269 13.522252 8804926
-1.8746011 -1.8568172 3.380563 8870723
-1.6997262 -1.7139852 3.1205199 8673340
-1.808139 -1.8568172 3.380563 8673598
-7.0996313 -7.427269 13.522252 9264450
0 0 0 8935743
-1.1389638 -1.2378782 2.2537088 8870207
-1.1168098 -1.2378782 2.2537088 9001793
-1.0946558 -1.2378782 2.2537088 9067585
-2.4131286 -2.7852259 5.0708447 9002048
-3.7812514 -4.4563618 8.1133518 8936257
-3.7014968 -4.4563618 8.1133518 8870203
-3.6217422 -4.4563618 8.1133518 8936512
-2.9516561 -3.7136345 6.761126 9002306
-3.4622331 -4.4563618 8.1133518 9001535
-2.8187318 -3.7136345 6.761126 9067841
-1.3761348 -1.8568172 3.380563 9002306
-1.3429037 -1.8568172 3.380563 9264450
-1.3096726 -1.8568172 3.380563 9329471
-1.9146624 -2.7852259 5.0708447 9067586
-1.2432104 -1.8568172 3.380563 9198142
-1.2099794 -1.8568172 3.380563 8936510
-1.5689979 -2.4757564 4.5074177 8937025
-1.5246897 -2.4757564 4.5074177 9133119
-1.4803816 -2.4757564 4.5074177 9198657
-0.9942047 -1.7139852 3.1205199 9395265
-1.043824 -1.8568172 3.380563 9264707
-1.0105928 -1.8568172 3.380563 9133634
-0.9773618 -1.8568172 3.380563 9461829
-0.94413066 -1.8568172 3.380563 9396034
-1.2145329 -2.4757564 4.5074177 9396549
-1.755337 -3.7136345 6.761126 9462086
-2.02665 -4.4563618 8.1133518 9264962
-1.9468954 -4.4563618 8.1133518 9528133
-1.8671408 -4.4563618 8.1133518 9461829
-0.99299228 -2.4757564 4.5074177 9592643
-0.7115131 -1.8568172 3.380563 9396546
-0.67828202 -1.8568172 3.380563 9330497
-0.59543163 -1.7139852 3.1205199 9331270
-0.56475681 -1.7139852 3.1205199 9330498
-0.57858872 -1.8568172 3.380563 9264962
-0.72714359 -2.4757564 4.5074177 9592384
-0.68283546 -2.4757564 4.5074177 9265476
-0.63852733 -2.4757564 4.5074177 9264193
-0.59421921 -2.4757564 4.5074177 9199170
-0.82486659 -3.7136345 6.761126 9199170
-0.75840443 -3.7136345 6.761126 9133377
-0.46129489 -2.4757564 4.5074177 9331008
-0.28868315 -1.7139852 3.1205199 9461827
-0.25800827 -1.7139852 3.1205199 9067326
-0.24627787 -1.8568172 3.380563 9527361
-0.21304679 -1.8568172 3.380563 9461827
-0.17981569 -1.8568172 3.380563 9462340
-0.14658462 -1.8568172 3.380563 9264448
-0.10463403 -1.7139852 3.1205199 9462081
-0.080122441 -1.8568172 3.380563 9462081
-0.062521815 -2.4757564 4.5074177 9133378
-0.032784648 -4.4563618 8.1133518 9395775
0.046969965 -4.4563618 8.1133518 9198655
0.052801903 -1.8568172 3.380563 9396035
0.079415068 -1.7139852 3.1205199 9264192
0.11008992 -1.7139852 3.1205199 9329471
0.14076477 -1.7139852 3.1205199 9199169
0.17143962 -1.7139852 3.1205199 9527619
0.20211448 -1.7139852 3.1205199 9330501
0.23278932 -1.7139852 3.1205199 9330756
0.26346418 -1.7139852 3.1205199 9527622
0.29413903 -1.7139852 3.1205199 9199170
0.30161285 -1.5915576 2.8976254 9462082
0.33009666 -1.5915576 2.8976254 9264958
0.38616356 -1.7139852 3.1205199 9396289
0.41683844 -1.7139852 3.1205199 9593413
0.48480603 -1.8568172 3.380563 9461827
0.51803714 -1.8568172 3.380563 9396547
0.50886297 -1.7139852 3.1205199 9461057
0.53953785 -1.7139852 3.1205199 9329473
0.57021266 -1.7139852 3.1205199 9462083
0.60088754 -1.7139852 3.1205199 9592900
0.63156235 -1.7139852 3.1205199 9462341
0.71742362 -1.8568172 3.380563 9592645
0.7506547 -1.8568172 3.380563 9790024
0.72358692 -1.7139852 3.1205199 9592643
0.70038593 -1.5915576 2.8976254 9593415
0.78493661 -1.7139852 3.1205199 9724999
0.81561148 -1.7139852 3.1205199 9528387
0.84628636 -1.7139852 3.1205199 9789765
0.76003295 -1.4854537 2.7044504 9593157
0.73745424 -1.3926129 2.5354223 9462083
0.76237756 -1.3926129 2.5354223 9790792
0.78730088 -1.3926129 2.5354223 9855049
0.81222421 -1.3926129 2.5354223 9986118
0.83714753 -1.3926129 2.5354223 9791048
0.86207086 -1.3926129 2.5354223 9725000
0.88699412 -1.3926129 2.5354223 9658693
0.91191745 -1.3926129 2.5354223 9593415
0.88173252 -1.3106945 2.3862798 9724230
0.9617641 -1.3926129 2.5354223 9855045
0.98668742 -1.3926129 2.5354223 9920838
1.1561265 -1.5915576 2.8976254 9724744
1.1846102 -1.5915576 2.8976254 9593928
1.3064091 -1.7139852 3.1205199 9462342
1.7382091 -2.2281809 4.0566759 9265479
1.7780864 -2.2281809 4.0566759 9460802
1.3984337 -1.7139852 3.1205199 9265476
1.4291085 -1.7139852 3.1205199 9265221
1.355513 -1.5915576 2.8976254 9002048
1.2917304 -1.4854537 2.7044504 9198657
1.3183153 -1.4854537 2.7044504 8608577
1.3449001 -1.4854537 2.7044504 8739906
1.371485 -1.4854537 2.7044504 8739648
1.6131576 -1.7139852 3.1205199 8936258
1.6438324 -1.7139852 3.1205199 8936775
1.6745073 -1.7139852 3.1205199 8936776
1.7051822 -1.7139852 3.1205199 9330501
1.735857 -1.7139852 3.1205199 9396293
1.7665318 -1.7139852 3.1205199 9594440
1.7972068 -1.7139852 3.1205199 9659720
1.8278816 -1.7139852 3.1205199 9725515
1.8585564 -1.7139852 3.1205199 10053964
1.8892312 -1.7139852 3.1205199 9922378
2.0798981 -1.8568172 3.380563 10250315
2.3052318 -2.0256188 3.687887 10054219
2.3414841 -2.0256188 3.687887 10251341
2.3777361 -2.0256188 3.687887 10316620
2.4139881 -2.0256188 3.687887 10579792
2.2460537 -1.8568172 3.380563 10579792
2.4864924 -2.0256188 3.687887 10513227
2.7750192 -2.2281809 4.0566759 10644815
2.8148963 -2.2281809 4.0566759 10710352
2.8547738 -2.2281809 4.0566759 10907217
2.8946509 -2.2281809 4.0566759 10973010
2.9345284 -2.2281809 4.0566759 10710606
2.9744058 -2.2281809 4.0566759 10710607
3.3492033 -2.4757564 4.5074177 10580047
3.3935113 -2.4757564 4.5074177 10776401
3.4378195 -2.4757564 4.5074177 10841679
3.4821277 -2.4757564 4.5074177 10710608
3.5264359 -2.4757564 4.5074177 10777169
2.6780577 -1.8568172 3.380563 10645585
2.7112887 -1.8568172 3.380563 10776399
2.7445199 -1.8568172 3.380563 10973265
2.777751 -1.8568172 3.380563 10448722
2.810982 -1.8568172 3.380563 10251343
2.6254277 -1.7139852 3.1205199 10842453
2.6561024 -1.7139852 3.1205199 10644559
2.9106753 -1.8568172 3.380563 10448719
2.9439063 -1.8568172 3.380563 10251343
3.5725653 -2.2281809 4.0566759 10317646
3.6124425 -2.2281809 4.0566759 10383181
2.8094769 -1.7139852 3.1205199 10709581
2.8401515 -1.7139852 3.1205199 10513231
2.8708265 -1.7139852 3.1205199 10382157
2.9015014 -1.7139852 3.1205199 10185034
3.1765239 -1.8568172 3.380563 10250825
3.5015512 -2.0256188 3.687887 10185805
3.8915837 -2.2281809 4.0566759 9988686
4.3682899 -2.4757564 4.5074177 10119759
4.4125981 -2.4757564 4.5074177 10315335
4.4569063 -2.4757564 4.5074177 10119756
4.0510931 -2.2281809 4.0566759 10119499
4.09097 -2.2281809 4.0566759 10053195
4.1308475 -2.2281809 4.0566759 9790795
4.1707249 -2.2281809 4.0566759 10053195
4.2106023 -2.2281809 4.0566759 10250830
4.2504797 -2.2281809 4.0566759 9790792
4.2903566 -2.2281809 4.0566759 9791566
4.3302341 -2.2281809 4.0566759 10053711
4.8556795 -2.4757564 4.5074177 10054478
4.8999872 -2.4757564 4.5074177 9725514
4.9442954 -2.4757564 4.5074177 9725258
4.4897432 -2.2281809 4.0566759 9528394
4.5296206 -2.2281809 4.0566759 9922892
5.07722 -2.4757564 4.5074177 9593927
5.1215281 -2.4757564 4.5074177 9659979
5.1658363 -2.4757564 4.5074177 9725772
5.861412 -2.7852259 5.0708447 9659721
5.9112587 -2.7852259 5.0708447 9791051
5.2987604 -2.4757564 4.5074177 9725002
6.010952 -2.7852259 5.0708447 9725003
6.0607986 -2.7852259 5.0708447 9528137
6.1106453 -2.7852259 5.0708447 9462858
5.4759932 -2.4757564 4.5074177 9462605
6.2103386 -2.7852259 5.0708447 9331531
6.2601852 -2.7852259 5.0708447 9134154
7.2114644 -3.1831152 5.7952509 9199176
0 0 0 9330760
0 0 0 9462344
0 0 0 9265479
0 0 0 9198918
0 0 0 9527881
0 0 0 8016441
0 0 0 8016187
0 0 0 7949880
0 0 0 8080951
0 0 0 8147000
0 0 0 8278587
0 0 0 8278587
0 0 0 8278845
0 0 0 8344637
0 0 0 8475708
-15.075092 -7.2943444 13.522252 8410426
-11.206626 -5.4707584 10.141689 8212791
-11.106933 -5.4707584 10.141689 8475963
-14.676319 -7.2943444 13.522252 8541756
-21.815092 -10.941517 20.283379 8607549
0 0 0 8410429
0 0 0 8344891
0 0 0 8344891
-14.011698 -7.2943444 13.522252 8410683
-13.878773 -7.2943444 13.522252 8475709
-10.309386 -5.4707584 10.141689 8542012
-10.209694 -5.4707584 10.141689 8410683
0 0 0 8607549
0 0 0 8541502
-13.214151 -7.2943444 13.522252 8542014
-5.6062403 -3.1261475 5.7952509 8213308
-5.5492725 -3.1261475 5.7952509 8410431
-5.4923048 -3.1261475 5.7952509 8410427
0 0 0 8607293
0 0 0 8738881
0 0 0 8476222
-12.283681 -7.2943444 13.522252 8476478
-9.1130676 -5.4707584 10.141689 8540988
-9.0133743 -5.4707584 10.141689 8607551
-11.884908 -7.2943444 13.522252 8410429
-11.751984 -7.2943444 13.522252 8738622
-11.61906 -7.2943444 13.522252 8607549
-17.229202 -10.941517 20.283379 8803901
0 0 0 8475966
0 0 0 8607550
0 0 0 8608062
-10.954437 -7.2943444 13.522252 8542015
-10.821513 -7.2943444 13.522252 8607806
