# .PCD v0.7 - Point Cloud Data file format
VERSION 0.7
FIELDS x y z rgb
SIZE 4 4 4 4
TYPE F F F U
COUNT 1 1 1 1
WIDTH 1257
HEIGHT 1
VIEWPOINT 0 0 0 1 0 0 0
POINTS 1257
DATA ascii
1.8870354 -1.5452859 4.5074177 14588519
1.9313436 -1.5452859 4.5074177 14718562
1.9756516 -1.5452859 4.5074177 14719073
2.0199597 -1.5452859 4.5074177 15046757
2.0642679 -1.5452859 4.5074177 14784615
2.1085761 -1.5452859 4.5074177 15047275
2.152884 -1.5452859 4.5074177 14588779
2.1971922 -1.5452859 4.5074177 14522983
2.0173502 -1.3907573 4.0566759 14785638
2.0572276 -1.3907573 4.0566759 14718562
2.3301165 -1.5452859 4.5074177 14784615
2.3744247 -1.5452859 4.5074177 14522212
2.4187329 -1.5452859 4.5074177 14587492
2.770921 -1.7384466 5.0708447 14784103
2.507349 -1.5452859 4.5074177 14259814
2.2964914 -1.3907573 4.0566759 14061663
2.3363688 -1.3907573 4.0566759 13930594
2.376246 -1.3907573 4.0566759 14127201
2.4161234 -1.3907573 4.0566759 13865054
2.2327278 -1.2643248 3.687887 13864799
2.2689798 -1.2643248 3.687887 13799263
2.5357554 -1.3907573 4.0566759 13733216
2.861814 -1.5452859 4.5074177 13601630
2.61551 -1.3907573 4.0566759 13799265
2.9504302 -1.5452859 4.5074177 13601887
2.9947383 -1.5452859 4.5074177 13470814
3.0390465 -1.5452859 4.5074177 13273694
3.0833545 -1.5452859 4.5074177 13076317
3.5186205 -1.7384466 5.0708447 13010525
3.5684669 -1.7384466 5.0708447 13206877
3.216279 -1.5452859 4.5074177 12878942
3.260587 -1.5452859 4.5074177 12485977
3.3048952 -1.5452859 4.5074177 12682840
3.3492033 -1.5452859 4.5074177 12748123
3.3935113 -1.5452859 4.5074177 12551000
3.4378195 -1.5452859 4.5074177 12353625
3.4821277 -1.5452859 4.5074177 12485211
3.5264359 -1.5452859 4.5074177 12222298
3.5707438 -1.5452859 4.5074177 12155734
3.2535467 -1.3907573 4.0566759 12090456
3.2934241 -1.3907573 4.0566759 11958867
3.7036684 -1.5452859 4.5074177 12090453
3.7479763 -1.5452859 4.5074177 11959126
3.7922845 -1.5452859 4.5074177 11827798
3.8365927 -1.5452859 4.5074177 12090199
4.3660131 -1.7384466 5.0708447 11564884
4.4158597 -1.7384466 5.0708447 11827029
4.4657063 -1.7384466 5.0708447 11564629
4.515553 -1.7384466 5.0708447 11499863
4.5653996 -1.7384466 5.0708447 11499349
4.6152463 -1.7384466 5.0708447 11499348
4.6650929 -1.7384466 5.0708447 11171922
4.1910577 -1.5452859 4.5074177 11367505
4.2353659 -1.5452859 4.5074177 11301970
4.2796736 -1.5452859 4.5074177 11302227
4.3239818 -1.5452859 4.5074177 11564629
4.3682899 -1.5452859 4.5074177 11105364
4.4125981 -1.5452859 4.5074177 10973518
4.4569063 -1.5452859 4.5074177 11105105
4.5012145 -1.5452859 4.5074177 11104849
4.5455227 -1.5452859 4.5074177 11039826
4.5898304 -1.5452859 4.5074177 11039314
4.1707249 -1.3907573 4.0566759 10907472
4.2106023 -1.3907573 4.0566759 10842191
4.2504797 -1.3907573 4.0566759 10842192
4.7670631 -1.5452859 4.5074177 10711378
3.9365761 -1.2643248 3.687887 11104849
3.9728284 -1.2643248 3.687887 11105104
4.0090804 -1.2643248 3.687887 11105618
4.9442954 -1.5452859 4.5074177 11368019
4.9886036 -1.5452859 4.5074177 11630678
5.0329118 -1.5452859 4.5074177 11696215
5.07722 -1.5452859 4.5074177 11695958
5.1215281 -1.5452859 4.5074177 12023895
5.8115654 -1.7384466 5.0708447 11827545
5.861412 -1.7384466 5.0708447 11828058
5.2544522 -1.5452859 4.5074177 12090203
5.2987604 -1.5452859 4.5074177 11828058
5.3430686 -1.5452859 4.5074177 11892824
5.3873768 -1.5452859 4.5074177 11959387
4.8885164 -1.3907573 4.0566759 12155737
4.9283938 -1.3907573 4.0566759 11827801
4.9682708 -1.3907573 4.0566759 11696730
5.5646091 -1.5452859 4.5074177 11696987
0 0 0 11893594
0 0 0 12024406
0 0 0 11630936
0 0 0 11696216
0 0 0 11762011
0 0 0 11630425
0 0 0 12090451
0 0 0 12090196
-4.8415465 -1.35088 4.0566759 12221269
-5.3351879 -1.5009779 4.5074177 12089940
-5.9522395 -1.6885999 5.0708447 11958867
-5.9023929 -1.6885999 5.0708447 12090453
-11.705092 -3.3771999 10.141689 12025430
-11.605399 -3.3771999 10.141689 12090453
-4.6022825 -1.35088 4.0566759 11696208
-4.5624051 -1.35088 4.0566759 11828306
-4.5225282 -1.35088 4.0566759 11696463
-4.4826508 -1.35088 4.0566759 12089681
-4.0388846 -1.2280726 3.687887 11959123
-4.0026326 -1.2280726 3.687887 11762002
-3.9663804 -1.2280726 3.687887 11761745
0 0 0 11433038
0 0 0 11367503
-4.2433867 -1.35088 4.0566759 11433039
-4.2035093 -1.35088 4.0566759 11564367
-4.6262579 -1.5009779 4.5074177 11629903
0 0 0 11432782
-5.104847 -1.6885999 5.0708447 11695183
-5.0550003 -1.6885999 5.0708447 11564109
-5.0051537 -1.6885999 5.0708447 11301708
-4.955307 -1.6885999 5.0708447 11235916
-4.9054604 -1.6885999 5.0708447 11169869
-4.3161011 -1.5009779 4.5074177 11170128
-4.2717929 -1.5009779 4.5074177 11301714
-3.8047364 -1.35088 4.0566759 11038538
-3.4225991 -1.2280726 3.687887 11104332
-3.3863468 -1.2280726 3.687887 10907726
-3.3500948 -1.2280726 3.687887 10972747
-3.6452272 -1.35088 4.0566759 11038540
-3.2775905 -1.2280726 3.687887 10907725
-3.5654726 -1.35088 4.0566759 11104075
-3.9173281 -1.5009779 4.5074177 10907467
-3.1688342 -1.2280726 3.687887 10906952
-4.3073006 -1.6885999 5.0708447 11038283
-3.0963302 -1.2280726 3.687887 10972747
-4.2076073 -1.6885999 5.0708447 10775883
-2.7718403 -1.1257333 3.380563 11038541
-2.7386093 -1.1257333 3.380563 10841933
-1.1194669 -0.46582067 1.3988537 10906954
-1.1057161 -0.46582067 1.3988537 11104332
-1.130964 -0.48245713 1.4488127 10906954
-1.1167221 -0.48245713 1.4488127 10907467
-6.1738896 -2.7017601 8.1133518 10841931
-7.6176686 -3.3771999 10.141689 11104590
-6.0143805 -2.7017601 8.1133518 11235662
-1.2363803 -0.56286663 1.6902815 10972745
-1.1259367 -0.51956922 1.5602599 10973258
-1.1550233 -0.54035199 1.6226703 10842187
-0.91860676 -0.43576774 1.3086051 10776138
-0.85084957 -0.40935755 1.2292956 11038538
-0.52225024 -0.25488299 0.76541048 11367246
-0.48715159 -0.24122857 0.72440636 11235661
-0.48003066 -0.24122857 0.72440636 10973258
-0.46461308 -0.2369965 0.71169752 10643780
-0.45761704 -0.2369965 0.71169752 10381638
-0.44285169 -0.23291034 0.69942683 10315335
-0.4359763 -0.23291034 0.69942683 9723965
-0.42910087 -0.23291034 0.69942683 7290398
-0.42963299 -0.2369965 0.71169752 4069896
-0.45453405 -0.25488299 0.76541048 2493967
-0.48350069 -0.27568981 0.82789302 2297361
0 0 0 2166801
0 0 0 1509387
0 0 0 1378058
0 0 0 1180678
-0.60271305 -0.37524447 1.1268544 1180680
-0.62643808 -0.39731765 1.1931399 1378059
-0.63333696 -0.40935755 1.2292956 1312009
-0.62125295 -0.40935755 1.2292956 1509388
-0.67008585 -0.4502933 1.3522252 1444109
-0.70370722 -0.48245713 1.4488127 1181707
-0.74250114 -0.51956922 1.5602599 1509643
-0.72716373 -0.51956922 1.5602599 1509388
-0.74029934 -0.54035199 1.6226703 1180681
-0.78733522 -0.5873391 1.763772 1180681
-0.80499715 -0.61403632 1.8439435 1180680
-0.78687108 -0.61403632 1.8439435 1443852
-0.99484652 -0.7946353 2.3862798 2035217
-1.2702783 -1.0391384 3.1205199 2691344
-1.6114845 -1.35088 4.0566759 3414550
-1.7462304 -1.5009779 4.5074177 6767924
-1.9146624 -1.6885999 5.0708447 9395262
-2.131218 -1.9298285 5.7952509 9395259
-1.8149691 -1.6885999 5.0708447 9526848
-1.5689979 -1.5009779 4.5074177 9592640
-1.5246897 -1.5009779 4.5074177 9657918
-1.4803816 -1.5009779 4.5074177 9789504
-1.4360734 -1.5009779 4.5074177 9855551
-1.3917654 -1.5009779 4.5074177 10118210
-1.5158893 -1.6885999 5.0708447 9855294
-1.4660426 -1.6885999 5.0708447 10052673
-1.4161961 -1.6885999 5.0708447 10053188
-1.2145329 -1.5009779 4.5074177 9986880
-1.1702248 -1.5009779 4.5074177 10250053
-1.013325 -1.35088 4.0566759 10052417
-0.97344768 -1.35088 4.0566759 10184003
-0.84870028 -1.2280726 3.687887 10052674
-0.74474418 -1.1257333 3.380563 10118465
-0.7115131 -1.1257333 3.380563 10184003
-0.81393844 -1.35088 4.0566759 9920833
-0.77406114 -1.35088 4.0566759 9725250
-0.73418385 -1.35088 4.0566759 9658688
-0.69430655 -1.35088 4.0566759 9658432
-0.72714359 -1.5009779 4.5074177 9264444
-0.68283546 -1.5009779 4.5074177 9526590
-0.63852733 -1.5009779 4.5074177 9921092
-0.59421921 -1.5009779 4.5074177 9856837
-0.61864996 -1.6885999 5.0708447 10315589
-0.65006095 -1.9298285 5.7952509 10446403
-0.5930934 -1.9298285 5.7952509 10511944
-0.46911007 -1.6885999 5.0708447 10578757
-0.41926345 -1.6885999 5.0708447 10776651
-0.36941683 -1.6885999 5.0708447 11169867
-0.31957018 -1.6885999 5.0708447 11038540
-0.26972356 -1.6885999 5.0708447 11170378
-0.21987693 -1.6885999 5.0708447 11563596
-0.1700303 -1.6885999 5.0708447 11300939
-0.12018367 -1.6885999 5.0708447 11694923
-0.056269631 -1.35088 4.0566759 11694923
-0.016392324 -1.35088 4.0566759 11760716
0.023484983 -1.35088 4.0566759 11564109
0.07040254 -1.5009779 4.5074177 11498061
0.11471066 -1.5009779 4.5074177 11630159
0.15901878 -1.5009779 4.5074177 11498573
0.2033269 -1.5009779 4.5074177 11498316
0.24763502 -1.5009779 4.5074177 11629388
0.29194313 -1.5009779 4.5074177 11498572
0.37828264 -1.6885999 5.0708447 11564364
0.42812929 -1.6885999 5.0708447 11564107
0.4779759 -1.6885999 5.0708447 11760716
0.46917561 -1.5009779 4.5074177 11564621
0.57766914 -1.6885999 5.0708447 11761230
0.62751579 -1.6885999 5.0708447 11957837
0.67736244 -1.6885999 5.0708447 11892814
0.72720903 -1.6885999 5.0708447 12220239
0.77705568 -1.6885999 5.0708447 12155731
0.82690233 -1.6885999 5.0708447 12220754
0.87674892 -1.6885999 5.0708447 12352596
0.82364053 -1.5009779 4.5074177 12352594
0.86794865 -1.5009779 4.5074177 12418388
0.91225678 -1.5009779 4.5074177 12680788
0.9565649 -1.5009779 4.5074177 12549717
1.000873 -1.5009779 4.5074177 13010008
1.0451812 -1.5009779 4.5074177 12943957
1.0894892 -1.5009779 4.5074177 12747350
1.1337974 -1.5009779 4.5074177 13141080
0.96390444 -1.2280726 3.687887 13273177
1.1001723 -1.35088 4.0566759 13404251
1.1400496 -1.35088 4.0566759 13404505
1.3110299 -1.5009779 4.5074177 13470044
1.2198042 -1.35088 4.0566759 13799263
1.2596815 -1.35088 4.0566759 13930078
1.2995588 -1.35088 4.0566759 14127199
1.4882623 -1.5009779 4.5074177 14324579
1.3793133 -1.35088 4.0566759 14324321
1.4191908 -1.35088 4.0566759 14521183
1.4590681 -1.35088 4.0566759 14587489
1.6654948 -1.5009779 4.5074177 14455649
1.7098029 -1.5009779 4.5074177 14849635
1.7541111 -1.5009779 4.5074177 14849891
1.7984191 -1.5009779 4.5074177 14784612
1.8427273 -1.5009779 4.5074177 14916199
1.8870354 -1.5009779 4.5074177 15047527
1.9313436 -1.5009779 4.5074177 14785125
1.9756516 -1.5009779 4.5074177 14915941
2.0199597 -1.5009779 4.5074177 15046503
2.0642679 -1.5009779 4.5074177 14849893
2.1085761 -1.5009779 4.5074177 15112552
2.152884 -1.5009779 4.5074177 15046757
2.4718411 -1.6885999 5.0708447 14980964
2.2415004 -1.5009779 4.5074177 14915431
2.2858086 -1.5009779 4.5074177 14653800
2.097105 -1.35088 4.0566759 14849894
2.3744247 -1.5009779 4.5074177 14916200
2.7210743 -1.6885999 5.0708447 14653544
2.770921 -1.6885999 5.0708447 14653801
2.8207676 -1.6885999 5.0708447 14324833
2.5516572 -1.5009779 4.5074177 14128228
2.3363688 -1.35088 4.0566759 14062181
2.376246 -1.35088 4.0566759 14062690
2.4161234 -1.35088 4.0566759 14193507
2.4560006 -1.35088 4.0566759 13865061
2.495878 -1.35088 4.0566759 13930595
2.5357554 -1.35088 4.0566759 13930079
3.2195406 -1.6885999 5.0708447 14061665
3.2693872 -1.6885999 5.0708447 13733218
2.9504302 -1.5009779 4.5074177 13732190
2.9947383 -1.5009779 4.5074177 13470299
3.0390465 -1.5009779 4.5074177 13535837
3.4687738 -1.6885999 5.0708447 13404511
3.5186205 -1.6885999 5.0708447 13272670
3.1719708 -1.5009779 4.5074177 13338464
2.8946509 -1.35088 4.0566759 13076060
3.260587 -1.5009779 4.5074177 13010270
3.3048952 -1.5009779 4.5074177 12747613
3.7678535 -1.6885999 5.0708447 12681820
3.8177001 -1.6885999 5.0708447 12551257
3.4378195 -1.5009779 4.5074177 12616027
3.4821277 -1.5009779 4.5074177 12616027
3.5264359 -1.5009779 4.5074177 12418648
3.5707438 -1.5009779 4.5074177 12156246
3.615052 -1.5009779 4.5074177 12156503
3.6593602 -1.5009779 4.5074177 12287319
3.7036684 -1.5009779 4.5074177 12090199
3.7479763 -1.5009779 4.5074177 12090199
3.7922845 -1.5009779 4.5074177 12024661
3.8365927 -1.5009779 4.5074177 12089683
3.8809006 -1.5009779 4.5074177 11434065
4.4158597 -1.6885999 5.0708447 11500121
4.4657063 -1.6885999 5.0708447 11696470
4.515553 -1.6885999 5.0708447 11433813
4.5653996 -1.6885999 5.0708447 11564625
4.6152463 -1.6885999 5.0708447 11302739
4.6650929 -1.6885999 5.0708447 11433298
4.7149396 -1.6885999 5.0708447 11433043
4.2353659 -1.5009779 4.5074177 11499093
4.8146329 -1.6885999 5.0708447 11302484
4.8644795 -1.6885999 5.0708447 11236946
4.9143262 -1.6885999 5.0708447 11236434
4.4125981 -1.5009779 4.5074177 11301969
4.4569063 -1.5009779 4.5074177 11039826
4.5012145 -1.5009779 4.5074177 10908755
4.5455227 -1.5009779 4.5074177 11038801
4.5898304 -1.5009779 4.5074177 11039315
4.1707249 -1.35088 4.0566759 11170642
4.2106023 -1.35088 4.0566759 11169874
3.5420659 -1.1257333 3.380563 11169617
4.2903566 -1.35088 4.0566759 10710608
4.8113713 -1.5009779 4.5074177 10973265
4.3701115 -1.35088 4.0566759 11170130
4.0090804 -1.2280726 3.687887 11170128
4.0453324 -1.2280726 3.687887 11499091
4.9886036 -1.5009779 4.5074177 11498838
5.0329118 -1.5009779 4.5074177 11564887
5.07722 -1.5009779 4.5074177 11695700
5.7617188 -1.6885999 5.0708447 12089686
5.8115654 -1.6885999 5.0708447 12089942
5.861412 -1.6885999 5.0708447 11828055
5.9112587 -1.6885999 5.0708447 11827799
5.2987604 -1.5009779 4.5074177 11827800
5.3430686 -1.5009779 4.5074177 11893593
5.3873768 -1.5009779 4.5074177 11959385
5.431685 -1.5009779 4.5074177 11564884
4.9283938 -1.35088 4.0566759 11827799
4.9682708 -1.35088 4.0566759 11697243
5.5646091 -1.5009779 4.5074177 11565400
0 0 0 11762521
0 0 0 11894108
0 0 0 11892824
0 0 0 11368023
0 0 0 11368534
0 0 0 11368022
0 0 0 12090710
0 0 0 12024402
-4.8415465 -1.3110027 4.0566759 12418391
-4.8016691 -1.3110027 4.0566759 12483156
-4.7617917 -1.3110027 4.0566759 12155732
-4.7219143 -1.3110027 4.0566759 12090451
-5.8525462 -1.6387533 5.0708447 12221267
-5.1579552 -1.4566697 4.5074177 11893844
-4.6022825 -1.3110027 4.0566759 11762258
-4.5624051 -1.3110027 4.0566759 11828308
-4.5225282 -1.3110027 4.0566759 11893587
-4.4826508 -1.3110027 4.0566759 11958866
-4.0388846 -1.1918206 3.687887 12155474
-4.0026326 -1.1918206 3.687887 12155474
0 0 0 11893073
0 0 0 11827538
0 0 0 11630674
-3.8576241 -1.1918206 3.687887 11498832
-3.5029244 -1.0925022 3.380563 11498831
-1.4870114 -0.46821523 1.4488127 11499086
-1.3302435 -0.4229041 1.3086051 11499343
-0.85080779 -0.27312556 0.84514076 11368016
-0.84249997 -0.27312556 0.84514076 11498576
-5.0051537 -1.6387533 5.0708447 11301967
0 0 0 11236687
0 0 0 11236686
0 0 0 11170637
-4.2717929 -1.4566697 4.5074177 11170637
-2.9267204 -1.0084636 3.1205199 11367246
-3.1373823 -1.0925022 3.380563 11301710
-3.3863468 -1.1918206 3.687887 11170126
-3.6851046 -1.3110027 4.0566759 11236944
-3.6452272 -1.3110027 4.0566759 11235919
-3.60535 -1.3110027 4.0566759 11105359
-3.5654726 -1.3110027 4.0566759 11235919
0 0 0 11300941
0 0 0 10907726
0 0 0 11104333
-3.0963302 -1.1918206 3.687887 11170126
-2.8050716 -1.0925022 3.380563 11300683
-1.1469685 -0.45206988 1.3988537 11234892
-1.1332177 -0.45206988 1.3988537 10972747
-1.1194669 -0.45206988 1.3988537 11104590
-1.1057161 -0.45206988 1.3988537 11170126
-1.0919653 -0.45206988 1.3988537 10972744
-1.0782145 -0.45206988 1.3988537 11039308
-1.1024803 -0.46821523 1.4488127 10907722
-1.0882384 -0.46821523 1.4488127 11170126
-0.93974692 -0.40968832 1.2677112 11103560
-0.92728525 -0.40968832 1.2677112 11169867
-0.88710165 -0.39727351 1.2292956 11236173
-0.54482228 -0.24735899 0.76541048 11170125
-0.53729826 -0.24735899 0.76541048 10908237
-0.48410407 -0.22603494 0.69942683 11367246
-0.46132103 -0.21850044 0.67611259 11366986
-0.45467481 -0.21850044 0.67611259 11235914
-0.4406839 -0.21491848 0.66502881 10249026
-0.42714426 -0.21145205 0.65430254 9329723
-0.42071244 -0.21145205 0.65430254 9855554
-0.4210721 -0.21491848 0.66502881 9460281
-0.4359763 -0.22603494 0.69942683 7092505
-0.436629 -0.23000048 0.71169752 2755079
-0.46205807 -0.24735899 0.76541048 2231569
-0.4916389 -0.26755157 0.82789302 2167055
0 0 0 2034446
0 0 0 1640459
0 0 0 1443852
0 0 0 1575438
-0.61379004 -0.36416742 1.1268544 1246474
-0.58642346 -0.35432506 1.0963988 1050122
-0.62643808 -0.38558903 1.1931399 1246475
-0.63333696 -0.39727351 1.2292956 1115145
-0.70694304 -0.45206988 1.3988537 1574668
-0.69319224 -0.45206988 1.3988537 1312523
-0.75783861 -0.50423181 1.5602599 1443852
-0.74250114 -0.50423181 1.5602599 1312266
-0.75625026 -0.52440107 1.6226703 1246473
-0.74029934 -0.52440107 1.6226703 1115145
-0.72434843 -0.52440107 1.6226703 983816
-0.80499715 -0.59591031 1.8439435 1180681
-0.78687108 -0.59591031 1.8439435 1180938
-0.99484652 -0.77117807 2.3862798 1443853
0 0 0 1509644
0 0 0 1772044
-1.964509 -1.6387533 5.0708447 2757909
-2.1881855 -1.8728609 5.7952509 8211765
-3.7296314 -3.2775066 10.141689 9723969
0 0 0 9789763
-1.5689979 -1.4566697 4.5074177 10183234
-1.5246897 -1.4566697 4.5074177 9920579
-1.4803816 -1.4566697 4.5074177 9723198
-1.4360734 -1.4566697 4.5074177 9461311
-1.3917654 -1.4566697 4.5074177 9592384
-1.3474573 -1.4566697 4.5074177 9591868
-1.4660426 -1.6387533 5.0708447 9986368
-1.4161961 -1.6387533 5.0708447 9854784
-1.3663495 -1.6387533 5.0708447 9592125
-1.1702248 -1.4566697 4.5074177 9855038
-1.013325 -1.3110027 4.0566759 9855551
-0.97344768 -1.3110027 4.0566759 9986882
-0.77797526 -1.0925022 3.380563 9724225
-0.74474418 -1.0925022 3.380563 10052164
-0.77619612 -1.1918206 3.687887 9723966
-0.81393844 -1.3110027 4.0566759 9657918
-0.86006796 -1.4566697 4.5074177 9396286
-0.81575984 -1.4566697 4.5074177 9657919
-0.69430655 -1.3110027 4.0566759 9986369
-0.6544292 -1.3110027 4.0566759 9921092
-0.68283546 -1.4566697 4.5074177 9921860
-0.63852733 -1.4566697 4.5074177 10511944
-0.59421921 -1.4566697 4.5074177 10512198
-0.54991114 -1.4566697 4.5074177 10840904
-0.56880337 -1.6387533 5.0708447 10578759
-0.51895672 -1.6387533 5.0708447 11038790
-0.46911007 -1.6387533 5.0708447 11038792
-0.41926345 -1.6387533 5.0708447 11365960
-0.36941683 -1.6387533 5.0708447 11498316
-0.31957018 -1.6387533 5.0708447 11761231
-0.26972356 -1.6387533 5.0708447 11499086
-0.19544616 -1.4566697 4.5074177 11564107
-0.15113805 -1.4566697 4.5074177 11498057
-0.10682993 -1.4566697 4.5074177 12024144
-0.056269631 -1.3110027 4.0566759 12089681
-0.016392324 -1.3110027 4.0566759 11695693
0.023484983 -1.3110027 4.0566759 11958352
0.07040254 -1.4566697 4.5074177 11761228
0.11471066 -1.4566697 4.5074177 11630412
0.15901878 -1.4566697 4.5074177 11957837
0.2033269 -1.4566697 4.5074177 11826508
0.24763502 -1.4566697 4.5074177 11957837
0.29194313 -1.4566697 4.5074177 11827277
0.33625126 -1.4566697 4.5074177 11893072
0.38055938 -1.4566697 4.5074177 12089423
0.42486748 -1.4566697 4.5074177 11760713
0.46917561 -1.4566697 4.5074177 11957837
0.57766914 -1.6387533 5.0708447 11958865
0.62751579 -1.6387533 5.0708447 12024145
0.67736244 -1.6387533 5.0708447 12089937
0.64640808 -1.4566697 4.5074177 12221266
0.69071621 -1.4566697 4.5074177 12287574
0.73502433 -1.4566697 4.5074177 12483669
0.77933246 -1.4566697 4.5074177 12418385
0.82364053 -1.4566697 4.5074177 12418131
0.86794865 -1.4566697 4.5074177 12681816
0.91225678 -1.4566697 4.5074177 12747093
0.9565649 -1.4566697 4.5074177 12747609
0.81889606 -1.1918206 3.687887 12878421
0.94066304 -1.3110027 4.0566759 12944471
1.0894892 -1.4566697 4.5074177 13141333
1.1337974 -1.4566697 4.5074177 13469276
0.96390444 -1.1918206 3.687887 13535835
1.0001565 -1.1918206 3.687887 13404765
1.0364087 -1.1918206 3.687887 13535836
1.1799269 -1.3110027 4.0566759 13601886
1.2198042 -1.3110027 4.0566759 13536348
1.145165 -1.1918206 3.687887 14193249
1.0829656 -1.0925022 3.380563 14192480
1.1161966 -1.0925022 3.380563 14127200
1.1494278 -1.0925022 3.380563 14587492
1.4191908 -1.3110027 4.0566759 14587492
1.6211867 -1.4566697 4.5074177 14653282
1.6654948 -1.4566697 4.5074177 14259812
1.7098029 -1.4566697 4.5074177 14718308
1.7541111 -1.4566697 4.5074177 14522467
1.7984191 -1.4566697 4.5074177 15112549
1.8427273 -1.4566697 4.5074177 14785128
1.6983318 -1.3110027 4.0566759 15113321
1.9313436 -1.4566697 4.5074177 15047269
1.9756516 -1.4566697 4.5074177 14980962
2.0199597 -1.4566697 4.5074177 15047525
2.0642679 -1.4566697 4.5074177 14916452
2.1085761 -1.4566697 4.5074177 14982247
2.4219944 -1.6387533 5.0708447 15047785
2.4718411 -1.6387533 5.0708447 15112808
2.5216877 -1.6387533 5.0708447 14981993
2.2858086 -1.4566697 4.5074177 14915687
2.3301165 -1.4566697 4.5074177 14588005
2.6712277 -1.6387533 5.0708447 14916202
2.7210743 -1.6387533 5.0708447 14522214
2.770921 -1.6387533 5.0708447 14784613
3.7610233 -2.1850045 6.761126 14587747
3.8274856 -2.1850045 6.761126 14456423
2.5959654 -1.4566697 4.5074177 14324833
2.376246 -1.3110027 4.0566759 14324833
2.4161234 -1.3110027 4.0566759 13930590
2.4560006 -1.3110027 4.0566759 14389604
2.7731977 -1.4566697 4.5074177 13865059
3.1696939 -1.6387533 5.0708447 13995618
3.6794748 -1.8728609 5.7952509 13733216
4.3591828 -2.1850045 6.761126 13733216
4.4256449 -2.1850045 6.761126 13535838
4.4921074 -2.1850045 6.761126 13666911
3.9073453 -1.8728609 5.7952509 13338717
3.4687738 -1.6387533 5.0708447 13535324
3.1276627 -1.4566697 4.5074177 13207647
2.5952487 -1.1918206 3.687887 12944989
2.8946509 -1.3110027 4.0566759 12878940
3.260587 -1.4566697 4.5074177 12943964
3.7180068 -1.6387533 5.0708447 13141854
3.7678535 -1.6387533 5.0708447 12747609
3.8177001 -1.6387533 5.0708447 13140311
3.8675468 -1.6387533 5.0708447 12681820
3.4821277 -1.4566697 4.5074177 12549977
3.5264359 -1.4566697 4.5074177 12418648
3.5707438 -1.4566697 4.5074177 12287833
3.615052 -1.4566697 4.5074177 11893844
3.6593602 -1.4566697 4.5074177 12222039
4.1666265 -1.6387533 5.0708447 11828051
4.2164731 -1.6387533 5.0708447 11959384
3.7922845 -1.4566697 4.5074177 11958356
3.8365927 -1.4566697 4.5074177 12024406
3.8809006 -1.4566697 4.5074177 11827797
4.4158597 -1.6387533 5.0708447 11828056
4.4657063 -1.6387533 5.0708447 11630421
4.515553 -1.6387533 5.0708447 11958612
4.5653996 -1.6387533 5.0708447 11302743
4.6152463 -1.6387533 5.0708447 11434070
5.3315344 -1.8728609 5.7952509 11368277
5.3885021 -1.8728609 5.7952509 11827029
4.7647862 -1.6387533 5.0708447 11499091
4.8146329 -1.6387533 5.0708447 11367762
4.8644795 -1.6387533 5.0708447 11367509
4.3682899 -1.4566697 4.5074177 11170642
4.4125981 -1.4566697 4.5074177 11170898
4.4569063 -1.4566697 4.5074177 11236433
4.5012145 -1.4566697 4.5074177 10974802
5.1137128 -1.6387533 5.0708447 11039825
4.5898304 -1.4566697 4.5074177 10973778
4.6341386 -1.4566697 4.5074177 10907985
4.6784468 -1.4566697 4.5074177 11169869
4.2504797 -1.3110027 4.0566759 10907725
4.7670631 -1.4566697 4.5074177 10973778
4.8113713 -1.4566697 4.5074177 11170898
4.8556795 -1.4566697 4.5074177 11235667
4.4099889 -1.3110027 4.0566759 11039312
4.0453324 -1.1918206 3.687887 11171158
4.9886036 -1.4566697 4.5074177 11499863
5.0329118 -1.4566697 4.5074177 11565652
5.07722 -1.4566697 4.5074177 11696722
6.5848212 -1.8728609 5.7952509 11893844
6.641789 -1.8728609 5.7952509 11696724
5.861412 -1.6387533 5.0708447 11893592
5.9112587 -1.6387533 5.0708447 11827801
5.9611053 -1.6387533 5.0708447 11696988
5.3430686 -1.4566697 4.5074177 11893851
5.3873768 -1.4566697 4.5074177 11828058
5.431685 -1.4566697 4.5074177 11630677
5.4759932 -1.4566697 4.5074177 11630936
4.9682708 -1.3110027 4.0566759 11762778
5.5646091 -1.4566697 4.5074177 11763035
0 0 0 11499350
0 0 0 11893594
0 0 0 12090201
0 0 0 11499606
0 0 0 11236691
0 0 0 11237721
0 0 0 11894104
0 0 0 12352852
-4.4014053 -1.1555685 3.687887 12288345
-4.3651533 -1.1555685 3.687887 12222037
-3.6629167 -0.97778875 3.1205199 12287060
-3.9349284 -1.0592711 3.380563 12221267
-4.6820374 -1.2711254 4.0566759 12353623
-4.2201452 -1.1555685 3.687887 12287316
-4.1838932 -1.1555685 3.687887 12090195
-3.8020041 -1.0592711 3.380563 11959124
-3.7687731 -1.0592711 3.380563 12090708
-3.7355418 -1.0592711 3.380563 12221520
-3.4175179 -0.97778875 3.1205199 11958865
0 0 0 11893587
0 0 0 11827536
0 0 0 11894101
0 0 0 11762513
-1.4144621 -0.42370844 1.3522252 11828306
-0.80836719 -0.24444719 0.78012997 11564880
-0.80069846 -0.24444719 0.78012997 11761487
-0.79302979 -0.24444719 0.78012997 11761488
-0.8167755 -0.25422508 0.81133515 11630672
-0.82530618 -0.25941333 0.82789302 11564879
-0.81716794 -0.25941333 0.82789302 11564879
-3.3035378 -1.0592711 3.380563 11827279
0 0 0 11498831
0 0 0 11367757
-2.0234809 -0.66901338 2.1350925 11433293
-0.7764768 -0.25941333 0.82789302 11564107
-0.76833856 -0.25941333 0.82789302 11433036
-3.1041512 -1.0592711 3.380563 11302222
0 0 0 11367501
0 0 0 11367248
-3.60535 -1.2711254 4.0566759 11367505
-3.5654726 -1.2711254 4.0566759 11367505
0 0 0 11169867
0 0 0 11104590
0 0 0 11104333
0 0 0 11235660
-2.8050716 -1.0592711 3.380563 11039821
-1.1469685 -0.43831909 1.3988537 11170124
-1.0954437 -0.42370844 1.3522252 11170379
-1.0821513 -0.42370844 1.3522252 11235917
-1.1057161 -0.43831909 1.3988537 11169867
-1.0919653 -0.43831909 1.3988537 11367248
-0.57904112 -0.2353936 0.75123626 11235404
-0.57165647 -0.2353936 0.75123626 11367505
-0.56427175 -0.2353936 0.75123626 11039568
-0.56739438 -0.23983496 0.76541048 11170637
-0.5598703 -0.23983496 0.76541048 11301453
-0.52275634 -0.22698666 0.72440636 11563855
-0.50658917 -0.22300446 0.71169752 11433037
-0.49097946 -0.21915954 0.69942683 11629901
-0.46796724 -0.21185422 0.67611259 11564109
-0.45375842 -0.20838121 0.66502881 11366987
-0.44722116 -0.20838121 0.66502881 11366728
-0.42669392 -0.20176594 0.64391679 10579013
-0.4203642 -0.20176594 0.64391679 9197881
-0.42071244 -0.20502022 0.65430254 8474417
-0.42808995 -0.21185422 0.67611259 7817769
-0.443625 -0.22300446 0.71169752 3346946
-0.46958208 -0.23983496 0.76541048 2100495
-0.49977714 -0.25941333 0.82789302 2362897
0 0 0 1706509
0 0 0 1837838
0 0 0 1575438
0 0 0 1312523
0 0 0 1378317
0 0 0 1378576
-0.65750504 -0.38518947 1.2292956 1180681
-0.64542103 -0.38518947 1.2292956 1246731
-0.6531288 -0.39722669 1.2677112 1443853
-0.70694304 -0.43831909 1.3988537 1312524
-0.74453986 -0.4707872 1.5024725 918536
-0.75783861 -0.48889437 1.5602599 1049352
-0.77220118 -0.50845015 1.6226703 1049609
-0.75625026 -0.50845015 1.6226703 852489
-0.74029934 -0.50845015 1.6226703 984329
-0.72434843 -0.50845015 1.6226703 1115145
-0.76999724 -0.55266321 1.763772 1312267
-0.78687108 -0.57778424 1.8439435 1180681
-0.89012587 -0.66901338 2.1350925 1181708
0 0 0 1115400
0 0 0 1443850
0 0 0 1574666
0 0 0 3018249
0 0 0 8147509
0 0 0 10183748
0 0 0 10118723
-1.5246897 -1.4123616 4.5074177 10315587
-1.4803816 -1.4123616 4.5074177 10250309
-1.4360734 -1.4123616 4.5074177 9986626
-1.3917654 -1.4123616 4.5074177 9658948
-1.3474573 -1.4123616 4.5074177 9920318
-1.4660426 -1.5889068 5.0708447 9460539
-1.4161961 -1.5889068 5.0708447 9460539
-1.3663495 -1.5889068 5.0708447 9329725
-1.3165028 -1.5889068 5.0708447 9460541
-1.013325 -1.2711254 4.0566759 9394748
-0.88495237 -1.1555685 3.687887 9526334
-0.84870028 -1.1555685 3.687887 9329983
-0.8124482 -1.1555685 3.687887 9132861
-0.77619612 -1.1555685 3.687887 9263676
-0.81393844 -1.2711254 4.0566759 9657662
-0.77406114 -1.2711254 4.0566759 9724225
-0.73418385 -1.2711254 4.0566759 9921090
-0.69430655 -1.2711254 4.0566759 10184262
-0.6544292 -1.2711254 4.0566759 10446403
-0.6145519 -1.2711254 4.0566759 10578759
-0.57467461 -1.2711254 4.0566759 10775366
-0.59421921 -1.4123616 4.5074177 11169099
-0.54991114 -1.4123616 4.5074177 11169867
-0.50560302 -1.4123616 4.5074177 11235914
-0.51895672 -1.5889068 5.0708447 11432519
-0.46911007 -1.5889068 5.0708447 11760460
-0.41926345 -1.5889068 5.0708447 12089420
-0.36941683 -1.5889068 5.0708447 12155472
-0.31957018 -1.5889068 5.0708447 12155728
-0.26972356 -1.5889068 5.0708447 12024656
-0.19544616 -1.4123616 4.5074177 12286032
-0.15113805 -1.4123616 4.5074177 12155729
-0.096146934 -1.2711254 4.0566759 12549972
-0.056269631 -1.2711254 4.0566759 12483665
-0.016392324 -1.2711254 4.0566759 12352595
0.026094424 -1.4123616 4.5074177 12155472
0.07040254 -1.4123616 4.5074177 12221523
0.11471066 -1.4123616 4.5074177 12220754
0.15901878 -1.4123616 4.5074177 12155216
0.2033269 -1.4123616 4.5074177 12220752
0.24763502 -1.4123616 4.5074177 12089679
0.29194313 -1.4123616 4.5074177 11826765
0.33625126 -1.4123616 4.5074177 12155472
0.38055938 -1.4123616 4.5074177 12155474
0.42486748 -1.4123616 4.5074177 12220752
0.46917561 -1.4123616 4.5074177 12352337
0.5134837 -1.4123616 4.5074177 12221266
0.55779183 -1.4123616 4.5074177 12484179
0.60209996 -1.4123616 4.5074177 12614737
0.64640808 -1.4123616 4.5074177 12548944
0.62164456 -1.2711254 4.0566759 12549458
0.66152191 -1.2711254 4.0566759 12549718
0.70139921 -1.2711254 4.0566759 12681045
0.7412765 -1.2711254 4.0566759 12681303
0.86794865 -1.4123616 4.5074177 12747350
0.91225678 -1.4123616 4.5074177 12943702
0.9565649 -1.4123616 4.5074177 12812375
0.81889606 -1.1555685 3.687887 12813654
1.0451812 -1.4123616 4.5074177 13207128
1.0894892 -1.4123616 4.5074177 13273432
1.1337974 -1.4123616 4.5074177 13404505
1.1781055 -1.4123616 4.5074177 13404509
1.0001565 -1.1555685 3.687887 13470555
1.0364087 -1.1555685 3.687887 13536092
1.0726607 -1.1555685 3.687887 13732957
1.1089128 -1.1555685 3.687887 14193249
1.145165 -1.1555685 3.687887 14062688
1.0829656 -1.0592711 3.380563 14455651
1.1161966 -1.0592711 3.380563 14586978
1.2539212 -1.1555685 3.687887 14324834
1.5768785 -1.4123616 4.5074177 14587236
1.6211867 -1.4123616 4.5074177 14652513
1.6654948 -1.4123616 4.5074177 14850148
1.7098029 -1.4123616 4.5074177 14915687
1.7541111 -1.4123616 4.5074177 14784868
1.7984191 -1.4123616 4.5074177 15178342
1.8427273 -1.4123616 4.5074177 15178341
1.6983318 -1.2711254 4.0566759 15244136
1.9313436 -1.4123616 4.5074177 15112805
1.9756516 -1.4123616 4.5074177 15310699
2.2724545 -1.5889068 5.0708447 15441256
2.3223011 -1.5889068 5.0708447 15048038
2.3721478 -1.5889068 5.0708447 15046757
2.4219944 -1.5889068 5.0708447 15178600
2.4718411 -1.5889068 5.0708447 15113579
2.5216877 -1.5889068 5.0708447 14915941
2.5715344 -1.5889068 5.0708447 14851432
2.621381 -1.5889068 5.0708447 14785127
2.6712277 -1.5889068 5.0708447 14784613
2.7210743 -1.5889068 5.0708447 14784101
4.4334736 -2.5422509 8.1133518 14718821
4.5132284 -2.5422509 8.1133518 14783843
4.5929828 -2.5422509 8.1133518 14521698
4.6727376 -2.5422509 8.1133518 14521702
2.376246 -1.2711254 4.0566759 14455653
3.020154 -1.5889068 5.0708447 14192735
2.4560006 -1.2711254 4.0566759 13996640
3.1198473 -1.5889068 5.0708447 14061923
3.1696939 -1.5889068 5.0708447 13930336
3.6794748 -1.8158933 5.7952509 13733472
4.3591828 -2.1185422 6.761126 13733470
4.4256449 -2.1185422 6.761126 13732446
4.4921074 -2.1185422 6.761126 13273694
3.9073453 -1.8158933 5.7952509 13339231
3.4687738 -1.5889068 5.0708447 13272924
3.1276627 -1.4123616 4.5074177 13404252
3.1719708 -1.4123616 4.5074177 12944477
3.216279 -1.4123616 4.5074177 13403483
3.260587 -1.4123616 4.5074177 13076059
4.2491508 -1.8158933 5.7952509 12550487
3.7678535 -1.5889068 5.0708447 12617311
4.3630857 -1.8158933 5.7952509 12485468
3.8675468 -1.5889068 5.0708447 12615514
3.4821277 -1.4123616 4.5074177 12485209
3.1737921 -1.2711254 4.0566759 12419161
3.5707438 -1.4123616 4.5074177 12222039
3.615052 -1.4123616 4.5074177 12091223
3.6593602 -1.4123616 4.5074177 12419416
4.1666265 -1.5889068 5.0708447 12090967
4.2164731 -1.5889068 5.0708447 12025176
4.2663198 -1.5889068 5.0708447 12156246
3.8365927 -1.4123616 4.5074177 12090453
3.8809006 -1.4123616 4.5074177 12222042
3.9252088 -1.4123616 4.5074177 11827801
3.969517 -1.4123616 4.5074177 11564887
4.515553 -1.5889068 5.0708447 11826511
5.2175994 -1.8158933 5.7952509 11762262
5.2745671 -1.8158933 5.7952509 11696214
5.3315344 -1.8158933 5.7952509 11434070
5.3885021 -1.8158933 5.7952509 11498836
4.7647862 -1.5889068 5.0708447 11433554
4.2796736 -1.4123616 4.5074177 11301970
4.3239818 -1.4123616 4.5074177 11564117
4.3682899 -1.4123616 4.5074177 11367248
4.4125981 -1.4123616 4.5074177 11039312
4.4569063 -1.4123616 4.5074177 11039825
4.5012145 -1.4123616 4.5074177 11235921
4.5455227 -1.4123616 4.5074177 11039312
4.5898304 -1.4123616 4.5074177 11039568
4.6341386 -1.4123616 4.5074177 10908757
4.6784468 -1.4123616 4.5074177 10973265
4.722755 -1.4123616 4.5074177 10711630
4.7670631 -1.4123616 4.5074177 10645583
4.8113713 -1.4123616 4.5074177 11105364
4.3701115 -1.2711254 4.0566759 11236437
4.4099889 -1.2711254 4.0566759 11105105
4.4498658 -1.2711254 4.0566759 11432789
4.9886036 -1.4123616 4.5074177 11236691
5.0329118 -1.4123616 4.5074177 11171411
5.07722 -1.4123616 4.5074177 11499859
5.7617188 -1.5889068 5.0708447 11434581
5.8115654 -1.5889068 5.0708447 11631960
6.6987562 -1.8158933 5.7952509 11696470
5.9112587 -1.5889068 5.0708447 11696470
5.9611053 -1.5889068 5.0708447 11564885
5.3430686 -1.4123616 4.5074177 11630678
5.3873768 -1.4123616 4.5074177 11565143
5.431685 -1.4123616 4.5074177 11762781
5.4759932 -1.4123616 4.5074177 11762265
5.5203009 -1.4123616 4.5074177 11500376
5.5646091 -1.4123616 4.5074177 11237972
0 0 0 11565399
0 0 0 11499862
0 0 0 11565656
0 0 0 11565656
0 0 0 11761238
0 0 0 11236691
0 0 0 11499865
0 0 0 12222809
-4.8415465 -1.2312481 4.0566759 12352338
-4.8016691 -1.2312481 4.0566759 12221524
-3.9681594 -1.0260401 3.380563 12287315
-3.9349284 -1.0260401 3.380563 12287573
-3.9016974 -1.0260401 3.380563 12287317
-3.8684664 -1.0260401 3.380563 12287317
-4.1838932 -1.1193165 3.687887 12024658
-3.8020041 -1.0260401 3.380563 12090195
-3.7687731 -1.0260401 3.380563 12287060
-3.2018931 -0.8794629 2.8976254 12352594
-1.4331527 -0.3971768 1.3086051 11893840
-1.4202889 -0.3971768 1.3086051 11893840
0 0 0 12024658
-0.815687 -0.23231095 0.76541048 12090451
-0.80816299 -0.23231095 0.76541048 11958867
-0.80063897 -0.23231095 0.76541048 11958866
-0.80836719 -0.23677848 0.78012997 11762256
-0.80069846 -0.23677848 0.78012997 11893072
-0.79302979 -0.23677848 0.78012997 11696465
-0.78536105 -0.23677848 0.78012997 11564879
-0.80880004 -0.24624962 0.81133515 11893329
-0.77002364 -0.23677848 0.78012997 11434320
-0.8090297 -0.25127512 0.82789302 11302732
-0.78487366 -0.24624962 0.81133515 11499086
-0.77689815 -0.24624962 0.81133515 11892304
-0.76892269 -0.24624962 0.81133515 11630929
-0.76094723 -0.24624962 0.81133515 11499342
-0.75297177 -0.24624962 0.81133515 11433292
-0.76020032 -0.25127512 0.82789302 11499086
0 0 0 11367757
0 0 0 11433550
0 0 0 11629648
0 0 0 11236689
0 0 0 11039308
0 0 0 11039566
0 0 0 11367246
0 0 0 11498062
-1.0858341 -0.3971768 1.3086051 11301710
-1.0729705 -0.3971768 1.3086051 11301453
-1.0601069 -0.3971768 1.3086051 11235918
-1.0472432 -0.3971768 1.3086051 11235917
-0.5938105 -0.22800891 0.75123626 11171148
-0.57576352 -0.22386327 0.73757738 11236685
-0.5685131 -0.22386327 0.73757738 11498829
-0.55124015 -0.21986572 0.72440636 11301707
-0.54411918 -0.21986572 0.72440636 11433293
-0.53699821 -0.21986572 0.72440636 11564880
-0.52987731 -0.21986572 0.72440636 11498575
-0.51358521 -0.21600844 0.71169752 11433038
-0.49785486 -0.21228415 0.69942683 11564877
-0.47461346 -0.205208 0.67611259 11695180
-0.46029568 -0.20184395 0.66502881 11629130
-0.45375842 -0.20184395 0.66502881 11366218
-0.42625767 -0.19238251 0.63385558 11169351
-0.42669392 -0.19543621 0.64391679 10380094
-0.42714426 -0.1985884 0.65430254 8934195
-0.42760935 -0.20184395 0.66502881 5713688
-0.44285169 -0.21228415 0.69942683 2953742
-0.443625 -0.21600844 0.71169752 2362897
-0.46958208 -0.23231095 0.76541048 1838095
-0.48978159 -0.24624962 0.81133515 1771790
0 0 0 1969424
0 0 0 1968911
0 0 0 1509902
0 0 0 1443852
0 0 0 1312266
0 0 0 1115144
-0.65750504 -0.37310547 1.2292956 1180681
-0.64542103 -0.37310547 1.2292956 1049867
-0.63333696 -0.37310547 1.2292956 1050122
-0.73219103 -0.43973145 1.4488127 1115146
-0.74453986 -0.45601782 1.5024725 1115145
-0.75783861 -0.47355697 1.5602599 984072
-0.74250114 -0.47355697 1.5602599 1049608
-0.72716373 -0.47355697 1.5602599 984075
-0.74029934 -0.49249923 1.6226703 1115145
-0.72434843 -0.49249923 1.6226703 1180938
-0.73791403 -0.51302004 1.6902815 1312267
-0.78687108 -0.55965823 1.8439435 1050122
-0.89012587 -0.64802527 2.1350925 1180680
0 0 0 1246731
0 0 0 1312266
0 0 0 1443852
0 0 0 2100495
0 0 0 2625295
0 0 0 8015671
-4.7069931 -4.1041603 13.522252 8868402
-2.7444415 -2.4624963 8.1133518 8540985
-1.9033476 -1.7589258 5.7952509 10709831
-1.4360734 -1.3680534 4.5074177 10381124
-1.3917654 -1.3680534 4.5074177 10250052
-1.5158893 -1.5390601 5.0708447 10052930
-1.4660426 -1.5390601 5.0708447 9790274
-1.6185098 -1.7589258 5.7952509 9462594
-1.5615422 -1.7589258 5.7952509 9461057
-1.3165028 -1.5390601 5.0708447 9395262
-1.013325 -1.2312481 4.0566759 8935738
-0.97344768 -1.2312481 4.0566759 8672567
-0.84870028 -1.1193165 3.687887 8870204
-0.89369309 -1.2312481 4.0566759 9264961
-0.85381573 -1.2312481 4.0566759 9855812
-0.81393844 -1.2312481 4.0566759 9921860
-0.7036919 -1.1193165 3.687887 10250055
-0.66743982 -1.1193165 3.687887 10381382
-0.69430655 -1.2312481 4.0566759 10709575
-0.6544292 -1.2312481 4.0566759 10972747
-0.6145519 -1.2312481 4.0566759 11104074
-0.57467461 -1.2312481 4.0566759 11169867
-0.59421921 -1.3680534 4.5074177 11367500
-0.54991114 -1.3680534 4.5074177 11958095
-0.50560302 -1.3680534 4.5074177 12089681
-0.46129489 -1.3680534 4.5074177 11761485
-0.41698676 -1.3680534 4.5074177 12155472
-0.41926345 -1.5390601 5.0708447 12417872
-0.36941683 -1.5390601 5.0708447 12484433
-0.31957018 -1.5390601 5.0708447 12681041
-0.23975429 -1.3680534 4.5074177 12615507
-0.19544616 -1.3680534 4.5074177 12812626
-0.13602424 -1.2312481 4.0566759 12681298
-0.096146934 -1.2312481 4.0566759 12812114
-0.062521815 -1.3680534 4.5074177 12746579
-0.018213693 -1.3680534 4.5074177 12681043
0.026094424 -1.3680534 4.5074177 12616021
0.07040254 -1.3680534 4.5074177 12549458
0.11471066 -1.3680534 4.5074177 12550226
0.15901878 -1.3680534 4.5074177 12352591
0.2033269 -1.3680534 4.5074177 12418128
0.24763502 -1.3680534 4.5074177 12418386
0.29194313 -1.3680534 4.5074177 12286546
0.33625126 -1.3680534 4.5074177 12549457
0.38055938 -1.3680534 4.5074177 12418129
0.42486748 -1.3680534 4.5074177 12221781
0.46917561 -1.3680534 4.5074177 12352338
0.5134837 -1.3680534 4.5074177 12484181
0.55779183 -1.3680534 4.5074177 12418132
0.60209996 -1.3680534 4.5074177 12812119
0.64640808 -1.3680534 4.5074177 12615764
0.62164456 -1.2312481 4.0566759 12615766
0.66152191 -1.2312481 4.0566759 12812885
0.63763559 -1.1193165 3.687887 12616530
0.7412765 -1.2312481 4.0566759 12943959
0.86794865 -1.3680534 4.5074177 13206359
0.91225678 -1.3680534 4.5074177 13075797
0.9565649 -1.3680534 4.5074177 13338710
1.000873 -1.3680534 4.5074177 13273694
1.0451812 -1.3680534 4.5074177 13338715
1.0894892 -1.3680534 4.5074177 13536091
1.1337974 -1.3680534 4.5074177 13733469
1.1781055 -1.3680534 4.5074177 13798749
1.0001565 -1.1193165 3.687887 13799261
1.0364087 -1.1193165 3.687887 13995101
1.0726607 -1.1193165 3.687887 14324320
1.1089128 -1.1193165 3.687887 14455648
1.0497345 -1.0260401 3.380563 14652256
1.0829656 -1.0260401 3.380563 14521183
1.1161966 -1.0260401 3.380563 14521696
1.1494278 -1.0260401 3.380563 14850661
1.5768785 -1.3680534 4.5074177 14849633
1.6211867 -1.3680534 4.5074177 14718817
1.6654948 -1.3680534 4.5074177 15178599
1.7098029 -1.3680534 4.5074177 14850148
1.7541111 -1.3680534 4.5074177 14915939
1.7984191 -1.3680534 4.5074177 15047527
1.8427273 -1.3680534 4.5074177 15244389
1.6983318 -1.2312481 4.0566759 14785384
1.7382091 -1.2312481 4.0566759 15047273
2.2226081 -1.5390601 5.0708447 15179112
2.2724545 -1.5390601 5.0708447 15244392
2.3223011 -1.5390601 5.0708447 15375464
2.3721478 -1.5390601 5.0708447 15309672
2.4219944 -1.5390601 5.0708447 15179112
2.4718411 -1.5390601 5.0708447 15309924
2.5216877 -1.5390601 5.0708447 15047527
2.5715344 -1.5390601 5.0708447 14981219
2.621381 -1.5390601 5.0708447 14850152
2.3744247 -1.3680534 4.5074177 14850407
2.4187329 -1.3680534 4.5074177 14850407
4.4334736 -2.4624963 8.1133518 14391398
4.5132284 -2.4624963 8.1133518 14456419
4.5929828 -2.4624963 8.1133518 14521181
4.6727376 -2.4624963 8.1133518 14390116
3.9604099 -2.0520802 6.761126 14127715
3.020154 -1.5390601 5.0708447 14128226
2.4560006 -1.2312481 4.0566759 13865054
2.7731977 -1.3680534 4.5074177 13799520
3.1696939 -1.5390601 5.0708447 13733470
4.2927208 -2.0520802 6.761126 13470559
4.3591828 -2.0520802 6.761126 13601889
4.4256449 -2.0520802 6.761126 13273440
4.4921074 -2.0520802 6.761126 13601630
3.9073453 -1.7589258 5.7952509 13404508
3.0833545 -1.3680534 4.5074177 13009498
3.1276627 -1.3680534 4.5074177 13272926
3.1719708 -1.3680534 4.5074177 13141342
3.216279 -1.3680534 4.5074177 13010782
3.6681602 -1.5390601 5.0708447 13010780
4.2491508 -1.7589258 5.7952509 12813404
3.7678535 -1.5390601 5.0708447 12551004
3.8177001 -1.5390601 5.0708447 12681820
3.8675468 -1.5390601 5.0708447 12550491
3.4821277 -1.3680534 4.5074177 12747613
3.1737921 -1.2312481 4.0566759 12484441
3.5707438 -1.3680534 4.5074177 12484441
3.615052 -1.3680534 4.5074177 12353625
3.6593602 -1.3680534 4.5074177 12156504
4.1666265 -1.5390601 5.0708447 12222298
4.2164731 -1.5390601 5.0708447 12221269
4.8757939 -1.7589258 5.7952509 11893847
4.9327617 -1.7589258 5.7952509 11828824
3.8809006 -1.3680534 4.5074177 11762258
3.5326879 -1.2312481 4.0566759 11697494
3.5725653 -1.2312481 4.0566759 11696725
4.0138249 -1.3680534 4.5074177 11762263
4.5653996 -1.5390601 5.0708447 11893849
5.2745671 -1.7589258 5.7952509 11695445
5.3315344 -1.7589258 5.7952509 11433555
4.7149396 -1.5390601 5.0708447 11367762
4.2353659 -1.3680534 4.5074177 11367248
4.2796736 -1.3680534 4.5074177 11301460
4.3239818 -1.3680534 4.5074177 11301460
4.3682899 -1.3680534 4.5074177 11367250
4.4125981 -1.3680534 4.5074177 11171412
4.4569063 -1.3680534 4.5074177 11301459
4.5012145 -1.3680534 4.5074177 11236949
4.5455227 -1.3680534 4.5074177 10974550
4.5898304 -1.3680534 4.5074177 10842964
4.1707249 -1.2312481 4.0566759 10973778
4.6784468 -1.3680534 4.5074177 10973523
4.722755 -1.3680534 4.5074177 10842194
3.5752971 -1.0260401 3.380563 11301462
3.6085281 -1.0260401 3.380563 10842962
3.9728284 -1.1193165 3.687887 10973265
4.4099889 -1.2312481 4.0566759 11039573
4.9442954 -1.3680534 4.5074177 11366996
4.9886036 -1.3680534 4.5074177 11433812
5.0329118 -1.3680534 4.5074177 11630677
5.07722 -1.3680534 4.5074177 11762006
5.1215281 -1.3680534 4.5074177 11696470
5.8115654 -1.5390601 5.0708447 11434583
6.6987562 -1.7589258 5.7952509 11302995
5.9112587 -1.5390601 5.0708447 11631447
5.2987604 -1.3680534 4.5074177 11762263
5.3430686 -1.3680534 4.5074177 11696471
5.3873768 -1.3680534 4.5074177 11762264
5.431685 -1.3680534 4.5074177 11630677
5.4759932 -1.3680534 4.5074177 11828312
5.5203009 -1.3680534 4.5074177 11696983
6.2601852 -1.5390601 5.0708447 11630420
0 0 0 11762008
0 0 0 11827801
0 0 0 11630423
0 0 0 11761497
0 0 0 11630166
0 0 0 11433046
0 0 0 10842451
0 0 0 12485209
-4.4014053 -1.0830643 3.687887 12419416
-4.8016691 -1.1913708 4.0566759 12222035
-3.4012797 -0.85097909 2.8976254 12287829
-3.9349284 -0.99280894 3.380563 12550488
-3.601567 -0.91643906 3.1205199 12615510
-3.5708921 -0.91643906 3.1205199 12615254
-3.2873445 -0.85097909 2.8976254 12549204
-3.5095425 -0.91643906 3.1205199 12352340
-3.230377 -0.85097909 2.8976254 12156244
-1.4008282 -0.37230337 1.2677112 12287060
-0.79335231 -0.21274477 0.72440636 12156243
-0.7862314 -0.21274477 0.72440636 12090706
-0.77911043 -0.21274477 0.72440636 11959636
-0.77198946 -0.21274477 0.72440636 11828051
-0.76486856 -0.21274477 0.72440636 12024658
-0.73161834 -0.20540875 0.69942683 11958865
-0.72474295 -0.20540875 0.69942683 12089936
-0.78559089 -0.22478692 0.76541048 11630928
-0.77806687 -0.22478692 0.76541048 11959380
-0.78536105 -0.22910976 0.78012997 11893072
-0.77769232 -0.22910976 0.78012997 11630670
-0.75549483 -0.22478692 0.76541048 11696465
-0.74797082 -0.22478692 0.76541048 11499343
-0.68848568 -0.20901242 0.71169752 11499086
-0.68148965 -0.20901242 0.71169752 11826253
-0.67449361 -0.20901242 0.71169752 11630929
-0.76094723 -0.23827416 0.81133515 11564879
-0.75297177 -0.23827416 0.81133515 11892820
-0.74499631 -0.23827416 0.81133515 11368016
-0.73702085 -0.23827416 0.81133515 11433038
0 0 0 11564367
-0.69333649 -0.22910976 0.78012997 11564109
-0.68566781 -0.22910976 0.78012997 11367503
0 0 0 11367503
0 0 0 11564365
0 0 0 11433294
0 0 0 11236684
-0.60108674 -0.21274477 0.72440636 11302734
-1.1879317 -0.42548954 1.4488127 11433039
-0.60857987 -0.22062422 0.75123626 11433039
-0.59026432 -0.21661286 0.73757738 11498575
-0.58301395 -0.21661286 0.73757738 11564624
-0.57576352 -0.21661286 0.73757738 11367503
-0.54856527 -0.20901242 0.71169752 11760716
-0.54156929 -0.20901242 0.71169752 11564879
-0.53457326 -0.20901242 0.71169752 11629900
-0.52757722 -0.20901242 0.71169752 11630414
-0.51160568 -0.20540875 0.69942683 11629901
-0.50473028 -0.20540875 0.69942683 11694923
-0.48941666 -0.20192726 0.68757218 11696463
-0.47461346 -0.19856179 0.67611259 11761229
-0.46029568 -0.19530669 0.66502881 11628874
-0.45375842 -0.19530669 0.66502881 11103046
-0.43302366 -0.18910646 0.64391679 10380351
-0.43357608 -0.19215657 0.65430254 9526332
-0.44138238 -0.19856179 0.67611259 8277297
-0.44972709 -0.20540875 0.69942683 5253657
-0.45062104 -0.20901242 0.71169752 2363150
-0.45975679 -0.21661286 0.73757738 1641230
0 0 0 1444109
0 0 0 1838610
0 0 0 1903632
0 0 0 1443853
0 0 0 1378316
0 0 0 1246474
0 0 0 1312267
0 0 0 1115145
-0.65750504 -0.36102143 1.2292956 1049097
-0.5756458 -0.3219921 1.0963988 1049352
-0.58055896 -0.33093634 1.1268544 917766
-0.62125295 -0.36102143 1.2292956 852488
-0.74453986 -0.44124845 1.5024725 1114888
-0.72977048 -0.44124845 1.5024725 1115145
-0.71500111 -0.44124845 1.5024725 984073
-0.67522341 -0.42548954 1.4488127 852743
-0.71182632 -0.45821953 1.5602599 1115145
-0.72434843 -0.47654831 1.6226703 983559
-0.73791403 -0.49640447 1.6902815 918536
-0.75265932 -0.51798725 1.763772 1181194
-0.89012587 -0.62703723 2.1350925 1049352
0 0 0 1049352
0 0 0 1049352
0 0 0 1312266
0 0 0 1312266
0 0 0 1904144
-4.8399177 -3.9712358 13.522252 2888213
-3.5302451 -2.9784269 10.141689 2953998
-3.4305518 -2.9784269 10.141689 6700844
0 0 0 10644296
0 0 0 10709575
0 0 0 10577989
-1.7324449 -1.7019582 5.7952509 10249794
-1.6754773 -1.7019582 5.7952509 10183749
-1.8882613 -1.9856179 6.761126 10052676
-1.8217992 -1.9856179 6.761126 9658688
-1.755337 -1.9856179 6.761126 9658432
-1.2666562 -1.4892135 5.0708447 9526331
-0.97344768 -1.1913708 4.0566759 9263675
-0.93357038 -1.1913708 4.0566759 9461569
-0.89369309 -1.1913708 4.0566759 9723971
-0.77619612 -1.0830643 3.687887 10381382
-0.73994398 -1.0830643 3.687887 10315587
-0.64505088 -0.99280894 3.380563 10577989
-0.6118198 -0.99280894 3.380563 10972490
-0.69430655 -1.1913708 4.0566759 10906952
-0.6544292 -1.1913708 4.0566759 11170378
-0.68283546 -1.3237454 4.5074177 11367500
-0.57467461 -1.1913708 4.0566759 11957584
-0.59421921 -1.3237454 4.5074177 11761486
-0.54991114 -1.3237454 4.5074177 12418131
-0.50560302 -1.3237454 4.5074177 12155470
-0.46129489 -1.3237454 4.5074177 12746832
-0.41698676 -1.3237454 4.5074177 12812626
-0.41926345 -1.4892135 5.0708447 12812628
-0.36941683 -1.4892135 5.0708447 12944470
-0.31957018 -1.4892135 5.0708447 12944469
-0.23975429 -1.3237454 4.5074177 12944981
-0.19544616 -1.3237454 4.5074177 13207127
-0.15113805 -1.3237454 4.5074177 13272407
-0.096146934 -1.1913708 4.0566759 12878420
-0.062521815 -1.3237454 4.5074177 12943954
-0.018213693 -1.3237454 4.5074177 12878164
0.026094424 -1.3237454 4.5074177 12943958
0.07040254 -1.3237454 4.5074177 12943703
0.11471066 -1.3237454 4.5074177 12549457
0.15901878 -1.3237454 4.5074177 12614738
0.2033269 -1.3237454 4.5074177 12681045
0.24763502 -1.3237454 4.5074177 12549970
0.29194313 -1.3237454 4.5074177 12680533
0.33625126 -1.3237454 4.5074177 12681045
0.38055938 -1.3237454 4.5074177 12353106
0.42486748 -1.3237454 4.5074177 12681558
0.46917561 -1.3237454 4.5074177 12615508
0.5134837 -1.3237454 4.5074177 12418387
0.55779183 -1.3237454 4.5074177 12484691
0.60209996 -1.3237454 4.5074177 12747604
0.58176726 -1.1913708 4.0566759 12813143
0.62164456 -1.1913708 4.0566759 12943959
0.66152191 -1.1913708 4.0566759 12943957
0.63763559 -1.0830643 3.687887 13009749
0.67388767 -1.0830643 3.687887 13010262
