# .PCD v0.7 - Point Cloud Data file format
VERSION 0.7
FIELDS x y z rgb
SIZE 4 4 4 4
TYPE F F F U
COUNT 1 1 1 1
WIDTH 1275
HEIGHT 1
VIEWPOINT 0 0 0 1 0 0 0
POINTS 1275
DATA ascii
-2.1450033 0.9359687 4.5074177 2629928
-2.1006951 0.9359687 4.5074177 2695463
-1.4236526 0.64797831 3.1205199 7618355
-0.64673966 0.30084705 1.4488127 7617835
-0.52088052 0.24775641 1.1931399 7355181
-0.44387603 0.21599276 1.0401733 7288619
-0.34515086 0.17191261 0.82789302 6237477
-0.33027238 0.16847436 0.81133515 5449761
-0.32229689 0.16847436 0.81133515 4464155
-0.31432143 0.16847436 0.81133515 3873818
-0.30033919 0.16517094 0.79542661 2625298
-0.29252011 0.16517094 0.79542661 1245960
-0.28470105 0.16517094 0.79542661 851975
-0.2715573 0.16199458 0.78012997 655882
-0.2638886 0.16199458 0.78012997 917512
-0.25138554 0.15893807 0.76541048 851975
-0.24386151 0.15893807 0.76541048 852489
-0.2363375 0.15893807 0.76541048 786696
-0.22881347 0.15893807 0.76541048 655624
-0.22128946 0.15893807 0.76541048 655625
-0.21376544 0.15893807 0.76541048 852490
-0.20624141 0.15893807 0.76541048 852489
-0.19149131 0.1531585 0.73757738 721159
-0.18424089 0.1531585 0.73757738 786697
-0.17699048 0.1531585 0.73757738 786696
-0.16974005 0.1531585 0.73757738 590089
-0.16248964 0.1531585 0.73757738 1049098
-0.15523921 0.1531585 0.73757738 787467
-0.1479888 0.1531585 0.73757738 1246734
-0.14073838 0.1531585 0.73757738 1443598
-0.13110425 0.15042353 0.72440636 2233368
-0.12180816 0.14778453 0.71169752 3807771
-0.11481214 0.14778453 0.71169752 7155753
-0.1097414 0.15042353 0.72440636 10238250
-0.10642122 0.15599477 0.75123626 11548449
-0.099036537 0.15599477 0.75123626 11942435
-0.091651849 0.15599477 0.75123626 12401187
-0.084267162 0.15599477 0.75123626 12598308
-0.076882474 0.15599477 0.75123626 12664357
-0.070809066 0.15893807 0.76541048 12336934
-0.064502068 0.16199458 0.78012997 12402470
-0.060312953 0.17191261 0.82789302 12534312
0 0 0 12533286
0 0 0 12730919
0 0 0 12796454
0 0 0 12795942
0 0 0 12927526
0 0 0 12730662
0 0 0 12796455
0 0 0 12402213
0 0 0 12075046
0 0 0 12206117
0 0 0 11943717
0 0 0 11877927
0 0 0 11877927
0 0 0 12009767
0 0 0 12337703
0.4892906 1.2033882 5.7952509 12403237
0.3186506 0.70197648 3.380563 12928041
0.26391128 0.52648234 2.5354223 12993319
0.28883457 0.52648234 2.5354223 12863018
0.27889591 0.46798435 2.2537088 12797225
0.19353212 0.30084705 1.4488127 13059112
0.20060939 0.29047301 1.3988537 12863018
0.19426392 0.26324117 1.2677112 13255977
0.20672558 0.26324117 1.2677112 13126188
0.24186178 0.29047301 1.3988537 13190696
0.2647416 0.30084705 1.4488127 12928809
0.3124615 0.33694872 1.6226703 13125416
0.32841244 0.33694872 1.6226703 13126188
0.34436336 0.33694872 1.6226703 12993830
0.36031428 0.33694872 1.6226703 12928809
0.3762652 0.33694872 1.6226703 13191211
0.36316308 0.31198955 1.5024725 13321768
0.36443484 0.30084705 1.4488127 13387819
0.37867674 0.30084705 1.4488127 13190953
0.39291865 0.30084705 1.4488127 13453355
0.3931205 0.29047301 1.3988537 13322282
0.40687129 0.29047301 1.3988537 13060909
0.42062211 0.29047301 1.3988537 13059367
0.4343729 0.29047301 1.3988537 13125675
0.43318623 0.28079057 1.3522252 12798508
0.44647866 0.28079057 1.3522252 12928809
0.4597711 0.28079057 1.3522252 13124907
0.48937607 0.29047301 1.3988537 13125420
0.52109569 0.30084705 1.4488127 13322799
0.53533757 0.30084705 1.4488127 12863787
0.59185487 0.32398915 1.5602599 12863016
0.60719228 0.32398915 1.5602599 12863531
0.62252969 0.32398915 1.5602599 12863017
0.63786709 0.32398915 1.5602599 12600616
0.67933273 0.33694872 1.6226703 12731690
0.82771862 0.40112939 1.9317503 12601391
0.84670776 0.40112939 1.9317503 12600362
0.72718549 0.33694872 1.6226703 12732461
0.74313641 0.33694872 1.6226703 12403754
0.75908732 0.33694872 1.6226703 12600362
0.77503824 0.33694872 1.6226703 12469805
0.79098916 0.33694872 1.6226703 12404010
0.80694008 0.33694872 1.6226703 12403755
0.85717809 0.35098824 1.6902815 12469291
0.87379366 0.35098824 1.6902815 12338475
0.89040917 0.35098824 1.6902815 12207146
1.0365998 0.40112939 1.9317503 12142123
1.0555888 0.40112939 1.9317503 11879721
1.074578 0.40112939 1.9317503 11813674
1.0935673 0.40112939 1.9317503 12271657
1.1125565 0.40112939 1.9317503 11944490
1.188123 0.42118591 2.028338 11812391
1.1505349 0.40112939 1.9317503 11813162
1.1695241 0.40112939 1.9317503 11682090
1.1344899 0.38289624 1.8439435 11616040
1.2075025 0.40112939 1.9317503 11157545
1.2264916 0.40112939 1.9317503 11551015
1.2454808 0.40112939 1.9317503 11354410
1.26447 0.40112939 1.9317503 11419688
1.2834592 0.40112939 1.9317503 10698277
1.3024484 0.40112939 1.9317503 10829608
1.3214376 0.40112939 1.9317503 10960681
1.3404268 0.40112939 1.9317503 10960166
1.359416 0.40112939 1.9317503 11025702
1.3784052 0.40112939 1.9317503 11091238
1.3973943 0.40112939 1.9317503 10960679
1.4163835 0.40112939 1.9317503 10894632
1.4353727 0.40112939 1.9317503 11026218
1.4543619 0.40112939 1.9317503 10895144
1.4733511 0.40112939 1.9317503 10829352
1.4923403 0.40112939 1.9317503 10960937
1.5868961 0.42118591 2.028338 11421230
1.6914049 0.44335356 2.1350925 10897457
1.7123929 0.44335356 2.1350925 10700337
1.6467121 0.42118591 2.028338 10766130
1.6666507 0.42118591 2.028338 10569008
1.533263 0.38289624 1.8439435 10437937
1.6252646 0.40112939 1.9317503 10371885
1.6442538 0.40112939 1.9317503 10436651
1.6632431 0.40112939 1.9317503 10568491
1.6822323 0.40112939 1.9317503 10700079
1.7012215 0.40112939 1.9317503 10634027
1.7202107 0.40112939 1.9317503 10831406
1.7391998 0.40112939 1.9317503 10963509
1.9432616 0.44335356 2.1350925 10964022
2.1953378 0.49551281 2.3862798 10832437
2.2187951 0.49551281 2.3862798 10568495
2.1176829 0.46798435 2.2537088 10436652
2.1398368 0.46798435 2.2537088 10634029
2.2891667 0.49551281 2.3862798 10437164
2.312624 0.49551281 2.3862798 10240299
2.3360813 0.49551281 2.3862798 10240554
2.8651538 0.60169411 2.8976254 10634286
2.3829956 0.49551281 2.3862798 10635314
3.4091415 0.70197648 3.380563 10766130
4.1308475 0.84237182 4.0566759 10569267
4.1707249 0.84237182 4.0566759 10569267
2.4768248 0.49551281 2.3862798 9849137
2.5002818 0.49551281 2.3862798 9587507
2.6814728 0.52648234 2.5354223 9853764
2.7063961 0.52648234 2.5354223 9850682
2.5706537 0.49551281 2.3862798 9456181
2.594111 0.49551281 2.3862798 8274994
3.4229739 0.64797831 3.1205199 8735283
3.2069592 0.60169411 2.8976254 9979694
2.8310127 0.52648234 2.5354223 10111023
2.4049988 0.44335356 2.1350925 10111023
2.3046875 0.42118591 2.028338 10439218
2.446975 0.44335356 2.1350925 10570034
2.3445649 0.42118591 2.028338 10570034
2.3645036 0.42118591 2.028338 10307376
2.2708972 0.40112939 1.9317503 10110514
2.0907657 0.36624858 1.763772 10111026
2.5519152 0.44335356 2.1350925 9978667
3.7603972 0.64797831 3.1205199 9979183
0 0 0 9979440
0 0 0 10110769
0 0 0 10176562
0 0 0 10242612
0 0 0 10177078
0 0 0 10045493
0 0 0 9914166
0 0 0 9651507
0 0 0 9322798
0 0 0 4925465
0 0 0 1640709
-4.0346217 0.73520756 3.380563 984075
-4.0013905 0.73520756 3.380563 1115145
-3.6629167 0.67865318 3.1205199 2363412
-3.9349284 0.73520756 3.380563 2954518
-3.9016974 0.73520756 3.380563 3086101
-4.2201452 0.80204457 3.687887 3348245
-4.6022825 0.88224912 4.0566759 3414038
-4.1476407 0.80204457 3.687887 3217429
-4.1113887 0.80204457 3.687887 3283222
-4.0751367 0.80204457 3.687887 3282452
-4.0388846 0.80204457 3.687887 3151636
-3.6690798 0.73520756 3.380563 3282709
-3.6358488 0.73520756 3.380563 3151123
-4.8034906 0.98027682 4.5074177 2954258
-4.7591825 0.98027682 4.5074177 2954516
-4.7148743 0.98027682 4.5074177 2823443
-4.2035093 0.88224912 4.0566759 2494735
-4.6262579 0.98027682 4.5074177 2232078
-4.5819497 0.98027682 4.5074177 2166289
-4.0838776 0.88224912 4.0566759 1049610
-4.0440001 0.88224912 4.0566759 655368
-4.0041227 0.88224912 4.0566759 1509133
-3.9642456 0.88224912 4.0566759 1181453
-3.9243684 0.88224912 4.0566759 1115661
-3.884491 0.88224912 4.0566759 1049868
-3.4951031 0.80204457 3.687887 1246477
-3.4588511 0.80204457 3.687887 1378060
-3.4225991 0.80204457 3.687887 1247244
-3.3863468 0.80204457 3.687887 1247245
-3.3500948 0.80204457 3.687887 984076
-3.3138428 0.80204457 3.687887 984075
-3.2775905 0.80204457 3.687887 1115148
-3.5654726 0.88224912 4.0566759 1049352
-3.5255952 0.88224912 4.0566759 1510673
-3.485718 0.88224912 4.0566759 2431004
-3.8287117 0.98027682 4.5074177 1312523
-3.7844038 0.98027682 4.5074177 1378061
-3.7400956 0.98027682 4.5074177 1312524
-3.6957874 0.98027682 4.5074177 1246730
-3.6514795 0.98027682 4.5074177 1444110
-3.6071713 0.98027682 4.5074177 1707281
-3.5628631 0.98027682 4.5074177 1707024
-3.5185549 0.98027682 4.5074177 1707282
-3.474247 0.98027682 4.5074177 2494996
-3.4299388 0.98027682 4.5074177 2758166
-3.8088343 1.1028113 5.0708447 2758165
-3.3413227 0.98027682 4.5074177 2890265
-3.709141 1.1028113 5.0708447 2955288
-3.2527063 0.98027682 4.5074177 2363925
-3.2083981 0.98027682 4.5074177 3219230
-3.5596011 1.1028113 5.0708447 3415837
-3.5097547 1.1028113 5.0708447 3744544
-3.459908 1.1028113 5.0708447 4532772
-3.4100614 1.1028113 5.0708447 5189927
-3.3602147 1.1028113 5.0708447 4860702
-3.3103681 1.1028113 5.0708447 4795421
-3.2605214 1.1028113 5.0708447 4794912
-3.2106748 1.1028113 5.0708447 4533543
-3.1608281 1.1028113 5.0708447 6307119
-3.1109815 1.1028113 5.0708447 6767409
-3.0611348 1.1028113 5.0708447 7161393
-3.0112882 1.1028113 5.0708447 6832427
-2.9614415 1.1028113 5.0708447 5257004
-2.9115949 1.1028113 5.0708447 4204321
-2.8617485 1.1028113 5.0708447 3613218
-2.8119018 1.1028113 5.0708447 2365982
-2.7620552 1.1028113 5.0708447 1906978
-2.7122085 1.1028113 5.0708447 1972772
-2.6623619 1.1028113 5.0708447 1906723
-2.9857316 1.2603558 5.7952509 2235168
-2.5626686 1.1028113 5.0708447 2824730
-2.5128219 1.1028113 5.0708447 4468528
-2.1893115 0.98027682 4.5074177 6111802
-1.6087524 0.73520756 3.380563 7885375
-1.260417 0.588166 2.7044504 8014131
-0.80467319 0.38358656 1.763772 7880492
-0.62443829 0.30422381 1.3988537 7354667
-0.50599819 0.25207117 1.1590502 7026218
-0.39343554 0.20051114 0.92197174 6500644
-0.35234147 0.18380189 0.84514076 5515298
-0.33027238 0.17644982 0.81133515 5055261
-0.32229689 0.17644982 0.81133515 4332824
-0.31432143 0.17644982 0.81133515 3544854
-0.30033919 0.17299001 0.79542661 2821904
-0.29252011 0.17299001 0.79542661 2230799
-0.28470105 0.17299001 0.79542661 1312523
-0.2715573 0.1696633 0.78012997 852489
-0.2638886 0.1696633 0.78012997 852489
-0.25621989 0.1696633 0.78012997 786698
-0.24855117 0.1696633 0.78012997 524809
-0.2363375 0.16646208 0.76541048 524553
-0.22881347 0.16646208 0.76541048 786441
-0.22128946 0.16646208 0.76541048 852491
-0.21376544 0.16646208 0.76541048 852489
-0.20624141 0.16646208 0.76541048 655881
-0.19149131 0.16040891 0.73757738 786955
-0.18424089 0.16040891 0.73757738 655369
-0.18720147 0.1696633 0.78012997 786439
-0.17953277 0.1696633 0.78012997 1311238
-0.16549872 0.16337946 0.75123626 4001290
-0.15811403 0.16337946 0.75123626 7809053
-0.15072934 0.16337946 0.75123626 10369322
-0.14073838 0.16040891 0.73757738 11156003
-0.13110425 0.15754448 0.72440636 12074533
-0.12180816 0.15478055 0.71169752 12139812
-0.11481214 0.15478055 0.71169752 12140326
-0.11173671 0.16040891 0.73757738 12271141
-0.10642122 0.16337946 0.75123626 12205347
-0.099036537 0.16337946 0.75123626 12533029
-0.091651849 0.16337946 0.75123626 12402215
-0.084267162 0.16337946 0.75123626 12270884
-0.076882474 0.16337946 0.75123626 12205604
-0.069497794 0.16337946 0.75123626 12533284
-0.064502068 0.1696633 0.78012997 12795941
-0.060312953 0.18005084 0.82789302 12598819
-0.054394923 0.18771257 0.86312246 12730660
0 0 0 13058857
0 0 0 13058598
0 0 0 12862248
0 0 0 12993832
0 0 0 12862248
0 0 0 12533796
0 0 0 12140838
0 0 0 11681318
0 0 0 11812134
0 0 0 11614755
0 0 0 11746341
0 0 0 11812134
0 0 0 12009254
0 0 0 12271912
0.28541949 0.73520756 3.380563 12862248
0.3186506 0.73520756 3.380563 12797225
0.32481387 0.67865318 3.1205199 12928809
0.28883457 0.55140567 2.5354223 13059112
0.25100634 0.44112456 2.028338 13125420
0.20069999 0.32675892 1.5024725 12928041
0.20777401 0.31508896 1.4488127 12797223
0.21436018 0.30422381 1.3988537 13124905
0.22811098 0.30422381 1.3988537 13124907
0.2504997 0.31508896 1.4488127 12993832
0.2647416 0.31508896 1.4488127 13059625
0.3124615 0.35289964 1.6226703 13257004
0.32841244 0.35289964 1.6226703 13125416
0.34436336 0.35289964 1.6226703 12993832
0.36031428 0.35289964 1.6226703 13059369
0.3762652 0.35289964 1.6226703 13257004
0.36316308 0.32675892 1.5024725 13256491
0.37793246 0.32675892 1.5024725 13256232
0.39270183 0.32675892 1.5024725 13387819
0.42314318 0.33932659 1.5602599 12994602
0.40716052 0.31508896 1.4488127 13059625
0.40687129 0.30422381 1.3988537 13256492
0.42062211 0.30422381 1.3988537 13519405
0.4198938 0.294083 1.3522252 13191211
0.43318623 0.294083 1.3522252 13256489
0.44647866 0.294083 1.3522252 13125418
0.4597711 0.294083 1.3522252 12796455
0.48937607 0.30422381 1.3988537 13322284
0.52109569 0.31508896 1.4488127 12862759
0.55516493 0.32675892 1.5024725 12929067
0.615529 0.35289964 1.6226703 12731945
0.60719228 0.33932659 1.5602599 12797225
0.62252969 0.33932659 1.5602599 12665896
0.63786709 0.33932659 1.5602599 12665896
0.67933273 0.35289964 1.6226703 12731434
0.82771862 0.4201186 1.9317503 12534823
0.84670776 0.4201186 1.9317503 12535082
0.75748485 0.36760378 1.6902815 12863534
0.74313641 0.35289964 1.6226703 12600618
0.75908732 0.35289964 1.6226703 12600362
0.8073315 0.36760378 1.6902815 12206374
0.82394701 0.36760378 1.6902815 12141097
0.91697735 0.40102229 1.8439435 12272172
0.93510342 0.40102229 1.8439435 12141098
0.99862134 0.4201186 1.9317503 12075304
1.0176105 0.4201186 1.9317503 12075560
1.0365998 0.4201186 1.9317503 12271910
1.1083684 0.44112456 2.028338 12402983
1.1283071 0.44112456 2.028338 12271910
1.1482457 0.44112456 2.028338 12272425
1.1681844 0.44112456 2.028338 12272169
1.188123 0.44112456 2.028338 12141098
1.2080617 0.44112456 2.028338 11944488
1.1695241 0.4201186 1.9317503 12140840
1.1885133 0.4201186 1.9317503 11616297
1.2075025 0.4201186 1.9317503 11485224
1.2264916 0.4201186 1.9317503 11420201
1.2454808 0.4201186 1.9317503 11288617
1.26447 0.4201186 1.9317503 11288360
1.2834592 0.4201186 1.9317503 11222825
1.3024484 0.4201186 1.9317503 11156519
1.3214376 0.4201186 1.9317503 11222054
1.3404268 0.4201186 1.9317503 11353640
1.359416 0.4201186 1.9317503 11353384
1.3784052 0.4201186 1.9317503 11419179
1.3973943 0.4201186 1.9317503 11222570
1.4163835 0.4201186 1.9317503 11223081
1.3701285 0.40102229 1.8439435 10828582
1.3882545 0.40102229 1.8439435 11025960
1.4063807 0.40102229 1.8439435 10894116
1.4923403 0.4201186 1.9317503 11155748
1.5868961 0.44112456 2.028338 11092011
1.6068348 0.44112456 2.028338 11027758
1.6267734 0.44112456 2.028338 10765613
1.6467121 0.44112456 2.028338 10897199
1.515137 0.40102229 1.8439435 11094323
1.533263 0.40102229 1.8439435 10897459
1.551389 0.40102229 1.8439435 10831923
1.5695151 0.40102229 1.8439435 11028787
1.6632431 0.4201186 1.9317503 10962994
1.6822323 0.4201186 1.9317503 10830894
1.7012215 0.4201186 1.9317503 11160373
1.7202107 0.4201186 1.9317503 10634801
1.82616 0.44112456 2.028338 10371630
1.9432616 0.46434161 2.1350925 10174764
2.1953378 0.51897001 2.3862798 9912620
2.2187951 0.51897001 2.3862798 10043436
2.2422523 0.51897001 2.3862798 10043436
2.2657096 0.51897001 2.3862798 10174766
2.2891667 0.51897001 2.3862798 10306095
2.4571631 0.55140567 2.5354223 10438194
2.8366699 0.63017792 2.8976254 10569264
2.8651538 0.63017792 2.8976254 10700337
2.5319331 0.55140567 2.5354223 10437165
2.5568564 0.55140567 2.5354223 10634542
2.7538981 0.588166 2.7044504 10437935
3.2082498 0.67865318 3.1205199 10700337
3.2389247 0.67865318 3.1205199 9979438
2.6565495 0.55140567 2.5354223 9718066
2.5237391 0.51897001 2.3862798 9127729
2.5471964 0.51897001 2.3862798 9455665
2.5706537 0.51897001 2.3862798 9259315
2.9399922 0.588166 2.7044504 7683626
3.4229739 0.67865318 3.1205199 7552812
3.2069592 0.63017792 2.8976254 8209455
2.5164559 0.49013841 2.2537088 9915703
2.4049988 0.46434161 2.1350925 10439476
2.4259868 0.46434161 2.1350925 10702135
2.5829182 0.49013841 2.2537088 10570292
2.467963 0.46434161 2.1350925 10570034
2.3645036 0.44112456 2.028338 10373941
2.3844423 0.44112456 2.028338 10438964
2.5309272 0.46434161 2.1350925 10307632
3.0303993 0.55140567 2.5354223 10438964
0 0 0 10439223
0 0 0 10307380
0 0 0 10176051
6.2601852 1.1028113 5.0708447 9978928
0 0 0 9847599
0 0 0 9978415
0 0 0 9913392
0 0 0 9847601
0 0 0 9650737
0 0 0 9651249
0 0 0 5254170
0 0 0 2165510
-4.0346217 0.76843864 3.380563 984329
-4.0013905 0.76843864 3.380563 1181454
-3.9681594 0.76843864 3.380563 2165776
-3.9349284 0.76843864 3.380563 3151896
-3.601567 0.709328 3.1205199 3348502
-4.2201452 0.83829671 3.687887 3348245
-4.1838932 0.83829671 3.687887 3217429
-4.1476407 0.83829671 3.687887 3151636
-4.5225282 0.92212641 4.0566759 3151638
-4.4826508 0.92212641 4.0566759 3086102
-4.0388846 0.83829671 3.687887 3151893
-4.0026326 0.83829671 3.687887 3216661
-4.3630185 0.92212641 4.0566759 3216661
-4.8034906 1.0245849 4.5074177 2757137
-4.7591825 1.0245849 4.5074177 2888721
-4.2433867 0.92212641 4.0566759 2625552
-4.2035093 0.92212641 4.0566759 2297357
-4.6262579 1.0245849 4.5074177 2297360
-4.5819497 1.0245849 4.5074177 1904660
-4.0838776 0.92212641 4.0566759 786696
-4.0440001 0.92212641 4.0566759 852489
-4.0041227 0.92212641 4.0566759 1969424
-3.9642456 0.92212641 4.0566759 1115145
-3.9243684 0.92212641 4.0566759 984075
-3.884491 0.92212641 4.0566759 1115404
-3.4951031 0.83829671 3.687887 1443599
-3.4588511 0.83829671 3.687887 1312013
-3.4225991 0.83829671 3.687887 984329
-3.3863468 0.83829671 3.687887 853259
-3.3500948 0.83829671 3.687887 918282
-3.3138428 0.83829671 3.687887 1115661
-3.2775905 0.83829671 3.687887 1312525
-3.2413385 0.83829671 3.687887 1378061
-3.5255952 0.92212641 4.0566759 2561563
-3.485718 0.92212641 4.0566759 3740175
-3.4458406 0.92212641 4.0566759 1904656
-3.4059634 0.92212641 4.0566759 1970451
-3.7400956 1.0245849 4.5074177 2166801
-3.6957874 1.0245849 4.5074177 2496023
-3.6514795 1.0245849 4.5074177 2890009
-3.6071713 1.0245849 4.5074177 3217945
-3.5628631 1.0245849 4.5074177 3151894
-3.5185549 1.0245849 4.5074177 3086872
-3.474247 1.0245849 4.5074177 3481630
-3.4299388 1.0245849 4.5074177 3546908
-3.3856306 1.0245849 4.5074177 3613215
-3.3413227 1.0245849 4.5074177 4401187
-3.2970145 1.0245849 4.5074177 4992293
-3.2527063 1.0245849 4.5074177 5583910
-3.2083981 1.0245849 4.5074177 6372911
-3.1640902 1.0245849 4.5074177 6504494
-3.5097547 1.152658 5.0708447 6701616
-3.459908 1.152658 5.0708447 7030066
-3.4100614 1.152658 5.0708447 7095089
-3.3602147 1.152658 5.0708447 7030065
-3.3103681 1.152658 5.0708447 7161394
-3.2605214 1.152658 5.0708447 7424309
-3.2106748 1.152658 5.0708447 7358513
-3.1608281 1.152658 5.0708447 7424306
-3.1109815 1.152658 5.0708447 7556405
-3.0611348 1.152658 5.0708447 8147257
-3.0112882 1.152658 5.0708447 8146998
-2.9614415 1.152658 5.0708447 8213048
-2.9115949 1.152658 5.0708447 8213304
-2.8617485 1.152658 5.0708447 8410685
-2.8119018 1.152658 5.0708447 8541757
-2.7620552 1.152658 5.0708447 8213820
-2.7122085 1.152658 5.0708447 8672829
-2.6623619 1.152658 5.0708447 8607295
-2.6125152 1.152658 5.0708447 8871234
-2.5626686 1.152658 5.0708447 8017209
-2.5128219 1.152658 5.0708447 9330498
-2.1893115 1.0245849 4.5074177 9396033
-1.2870018 0.61475092 2.7044504 9658175
-0.90029788 0.43910778 1.9317503 7618087
-0.80467319 0.4009245 1.763772 7289386
-0.62443829 0.3179746 1.3988537 6894888
-0.44274846 0.2305316 1.014169 6434597
-0.39343554 0.20957418 0.92197174 5712416
-0.3598381 0.19619709 0.86312246 5055004
-0.33701262 0.18818906 0.82789302 4529434
-0.32229689 0.18442528 0.81133515 3806996
-0.30815828 0.1808091 0.79542661 3150867
-0.30033919 0.1808091 0.79542661 2559760
-0.29252011 0.1808091 0.79542661 1902604
-0.28470105 0.1808091 0.79542661 1311754
-0.2715573 0.177332 0.78012997 786696
-0.2638886 0.177332 0.78012997 589835
-0.25621989 0.177332 0.78012997 786698
-0.24855117 0.177332 0.78012997 720903
-0.2363375 0.17398611 0.76541048 852489
-0.22881347 0.17398611 0.76541048 655625
-0.22128946 0.17398611 0.76541048 786954
0 0 0 984077
0 0 0 1903376
-0.22408557 0.19619709 0.86312246 4201501
-0.21560104 0.19619709 0.86312246 7811884
-0.20711651 0.19619709 0.86312246 10566957
-0.19052456 0.18818906 0.82789302 11944232
-0.16549872 0.17076415 0.75123626 12074534
-0.15811403 0.17076415 0.75123626 12139813
-0.15072934 0.17076415 0.75123626 12401954
-0.1382252 0.16466542 0.72440636 12598821
-0.13110425 0.16466542 0.72440636 12533283
-0.1239833 0.16466542 0.72440636 12401443
-0.11898712 0.16765934 0.73757738 12336420
-0.11173671 0.16765934 0.73757738 12139553
-0.10642122 0.17076415 0.75123626 12271141
-0.099036537 0.17076415 0.75123626 12532515
-0.091651849 0.17076415 0.75123626 12401700
-0.084267162 0.17076415 0.75123626 12664357
-0.076882474 0.17076415 0.75123626 12664099
-0.070809066 0.17398611 0.76541048 12730407
-0.067082152 0.18442528 0.81133515 12729893
-0.062879458 0.19619709 0.86312246 12664354
0 0 0 12599846
0 0 0 12598820
0 0 0 12402213
0 0 0 12664356
0 0 0 12927011
0 0 0 12928039
0 0 0 12469030
0 0 0 12206117
0 0 0 12140583
0 0 0 11943717
0 0 0 11877927
0 0 0 12075306
0 0 0 12009254
0 0 0 11943974
0.23278932 0.709328 3.1205199 12009513
0.26346418 0.709328 3.1205199 12403750
0.3186506 0.76843864 3.380563 12599846
0.35188168 0.76843864 3.380563 12993321
0.38511276 0.76843864 3.380563 12927526
0.27889591 0.51229244 2.2537088 12928041
0.21675597 0.36885056 1.6226703 12863018
0.20777401 0.32933083 1.4488127 13058598
0.21436018 0.3179746 1.3988537 13059112
0.22811098 0.3179746 1.3988537 13124905
0.2504997 0.32933083 1.4488127 12863016
0.2647416 0.32933083 1.4488127 12797225
0.30044377 0.354664 1.5602599 13256491
0.32841244 0.36885056 1.6226703 12928039
0.34436336 0.36885056 1.6226703 13059625
0.37532735 0.38421932 1.6902815 13124905
0.3762652 0.36885056 1.6226703 13125162
0.36316308 0.3415283 1.5024725 12928554
0.36443484 0.32933083 1.4488127 12928039
0.39270183 0.3415283 1.5024725 13125418
0.44006887 0.36885056 1.6226703 13190955
0.45601982 0.36885056 1.6226703 12994347
0.42140242 0.32933083 1.4488127 13059626
0.42062211 0.3179746 1.3988537 12797995
0.4198938 0.30737546 1.3522252 12928807
0.43318623 0.30737546 1.3522252 12798506
0.44647866 0.30737546 1.3522252 13060395
0.44493979 0.29746011 1.3086051 13124907
0.45780343 0.29746011 1.3086051 12731432
0.50312686 0.3179746 1.3988537 12731690
0.5765174 0.354664 1.5602599 12929323
0.615529 0.36885056 1.6226703 12731948
0.63147992 0.36885056 1.6226703 12731948
0.59947306 0.3415283 1.5024725 12732204
0.63786709 0.354664 1.5602599 12928299
0.67933273 0.36885056 1.6226703 12928557
0.82771862 0.43910778 1.9317503 12600362
0.80822104 0.41914836 1.8439435 12338730
0.82634711 0.41914836 1.8439435 12272937
0.66351461 0.32933083 1.4488127 12272937
0.70285863 0.3415283 1.5024725 12404012
0.77503824 0.36885056 1.6226703 12272166
0.79098916 0.36885056 1.6226703 12141352
0.80694008 0.36885056 1.6226703 12140840
0.93510342 0.41914836 1.8439435 12403496
0.99862134 0.43910778 1.9317503 12338219
1.0176105 0.43910778 1.9317503 12403498
1.0365998 0.43910778 1.9317503 12534569
1.0555888 0.43910778 1.9317503 12338217
1.1283071 0.46106321 2.028338 12075304
1.1482457 0.46106321 2.028338 12009769
1.1681844 0.46106321 2.028338 12205863
1.188123 0.46106321 2.028338 11944233
1.2716439 0.48532969 2.1350925 11812136
1.4447062 0.5424273 2.3862798 11747113
1.31362 0.48532969 2.1350925 12009513
1.2075025 0.43910778 1.9317503 11943720
1.2264916 0.43910778 1.9317503 11747113
1.2454808 0.43910778 1.9317503 11812135
1.26447 0.43910778 1.9317503 11681320
1.2834592 0.43910778 1.9317503 11550249
1.3024484 0.43910778 1.9317503 11550506
1.3214376 0.43910778 1.9317503 11222567
1.3404268 0.43910778 1.9317503 11550506
1.359416 0.43910778 1.9317503 11484711
1.3784052 0.43910778 1.9317503 11353127
1.3973943 0.43910778 1.9317503 11156261
1.4163835 0.43910778 1.9317503 11025445
1.3701285 0.41914836 1.8439435 11156259
1.2725667 0.38421932 1.6902815 11287332
1.2891822 0.38421932 1.6902815 10894375
1.3057978 0.38421932 1.6902815 11025959
1.5113295 0.43910778 1.9317503 11356718
1.6068348 0.46106321 2.028338 11422514
1.6267734 0.46106321 2.028338 11225650
1.6467121 0.46106321 2.028338 11356466
1.6666507 0.46106321 2.028338 10896687
1.533263 0.41914836 1.8439435 11158832
1.551389 0.41914836 1.8439435 10830637
1.5695151 0.41914836 1.8439435 10502445
1.6632431 0.43910778 1.9317503 10567983
1.6822323 0.43910778 1.9317503 10568238
1.7012215 0.43910778 1.9317503 10371371
1.7202107 0.43910778 1.9317503 10305321
1.82616 0.46106321 2.028338 10437424
2.1718805 0.5424273 2.3862798 10635314
2.1953378 0.5424273 2.3862798 10700335
2.2187951 0.5424273 2.3862798 10831408
2.2422523 0.5424273 2.3862798 10569521
2.2657096 0.5424273 2.3862798 10437935
2.2891667 0.5424273 2.3862798 10437680
2.312624 0.5424273 2.3862798 10436655
2.3360813 0.5424273 2.3862798 10436653
2.6741436 0.61475092 2.7044504 10371374
2.3829956 0.5424273 2.3862798 10568495
2.5568564 0.57632899 2.5354223 10568751
2.5817795 0.57632899 2.5354223 10634544
2.6067028 0.57632899 2.5354223 10307377
2.4768248 0.5424273 2.3862798 9913390
2.5002818 0.5424273 2.3862798 9979437
2.5237391 0.5424273 2.3862798 8996140
2.5471964 0.5424273 2.3862798 8867380
2.5706537 0.5424273 2.3862798 9722946
2.594111 0.5424273 2.3862798 8935232
2.617568 0.5424273 2.3862798 8277306
2.4943018 0.51229244 2.2537088 7619379
2.3840108 0.48532969 2.1350925 7881776
2.4049988 0.48532969 2.1350925 9325622
2.5607641 0.51229244 2.2537088 10373938
3.0995014 0.61475092 2.7044504 10833204
3.3493781 0.65866166 2.8976254 10833206
3.377862 0.65866166 2.8976254 10700594
2.6493802 0.51229244 2.2537088 10504241
2.4043808 0.46106321 2.028338 10241841
2.6936884 0.51229244 2.2537088 9650993
0 0 0 9388077
0 0 0 9191469
0 0 0 9125677
0 0 0 9190955
0 0 0 9453871
0 0 0 9650735
0 0 0 9387308
0 0 0 9584430
0 0 0 9715759
0 0 0 9715759
0 0 0 5057049
0 0 0 2427395
-4.0346217 0.80166972 3.380563 1049352
-4.0013905 0.80166972 3.380563 984075
-3.9681594 0.80166972 3.380563 1837838
-3.9349284 0.80166972 3.380563 2823186
-3.9016974 0.80166972 3.380563 3216916
-4.2201452 0.87454879 3.687887 3019537
-4.1838932 0.87454879 3.687887 2954259
-4.5624051 0.96200371 4.0566759 2888466
-4.5225282 0.96200371 4.0566759 2954259
-4.4826508 0.96200371 4.0566759 2822930
-4.4427733 0.96200371 4.0566759 2822930
-4.4028959 0.96200371 4.0566759 2887954
-4.3630185 0.96200371 4.0566759 2625812
-4.8034906 1.0688931 4.5074177 2166289
-4.7591825 1.0688931 4.5074177 1772045
-4.7148743 1.0688931 4.5074177 1312266
-4.6705661 1.0688931 4.5074177 1115145
-4.1636324 0.96200371 4.0566759 1049351
-4.123755 0.96200371 4.0566759 852489
-4.0838776 0.96200371 4.0566759 786696
-4.0440001 0.96200371 4.0566759 721675
-4.0041227 0.96200371 4.0566759 1969426
-3.9642456 0.96200371 4.0566759 1378059
-3.9243684 0.96200371 4.0566759 1050122
-3.884491 0.96200371 4.0566759 1114891
-3.8446138 0.96200371 4.0566759 918025
-3.4588511 0.87454879 3.687887 1181453
-3.4225991 0.87454879 3.687887 1312781
-3.3863468 0.87454879 3.687887 1312524
-3.3500948 0.87454879 3.687887 1181451
-3.3138428 0.87454879 3.687887 1246477
-3.2775905 0.87454879 3.687887 1181454
-3.2413385 0.87454879 3.687887 2166805
-3.2050865 0.87454879 3.687887 1969939
-3.485718 0.96200371 4.0566759 1705998
-3.4458406 0.96200371 4.0566759 3219746
-3.4059634 0.96200371 4.0566759 4007712
-3.7400956 1.0688931 4.5074177 4270369
-3.3262088 0.96200371 4.0566759 5190955
-3.2863314 0.96200371 4.0566759 6046264
-3.2464542 0.96200371 4.0566759 5979440
-3.5628631 1.0688931 4.5074177 5386793
-3.5185549 1.0688931 4.5074177 4992804
-3.474247 1.0688931 4.5074177 5058084
-3.4299388 1.0688931 4.5074177 5386533
-3.3856306 1.0688931 4.5074177 5911846
-3.3413227 1.0688931 4.5074177 6175018
-3.2970145 1.0688931 4.5074177 6701872
-3.2527063 1.0688931 4.5074177 7227185
-3.2083981 1.0688931 4.5074177 7160879
-3.1640902 1.0688931 4.5074177 7095087
-3.119782 1.0688931 4.5074177 7227443
-3.0754738 1.0688931 4.5074177 7489845
-3.0311658 1.0688931 4.5074177 7884857
-2.9868577 1.0688931 4.5074177 7884085
-2.9425495 1.0688931 4.5074177 7949878
-2.8982413 1.0688931 4.5074177 8147514
-3.2106748 1.2025046 5.0708447 8146996
-3.1608281 1.2025046 5.0708447 8344118
-3.1109815 1.2025046 5.0708447 8475192
-3.0611348 1.2025046 5.0708447 8738108
-3.0112882 1.2025046 5.0708447 8935485
-2.9614415 1.2025046 5.0708447 9132864
-2.9115949 1.2025046 5.0708447 9395519
-2.5437765 1.0688931 4.5074177 9527104
-2.4994683 1.0688931 4.5074177 9592896
-2.4551601 1.0688931 4.5074177 9592382
-2.4108522 1.0688931 4.5074177 9856067
-2.6623619 1.2025046 5.0708447 9855299
-2.6125152 1.2025046 5.0708447 10249542
-2.5626686 1.2025046 5.0708447 10577991
-2.2336197 1.0688931 4.5074177 10446151
-1.6419835 0.80166972 3.380563 10184001
-0.91928709 0.45809698 1.9317503 8407341
-0.90029788 0.45809698 1.9317503 7157800
-0.74029934 0.38480148 1.6226703 6632488
-0.45271778 0.24050093 1.014169 6237990
-0.4319497 0.23463504 0.98943311 5712160
-0.38469252 0.21377859 0.90148348 4990494
-0.3598381 0.20468163 0.86312246 4595484
-0.33701262 0.19632728 0.82789302 3741973
-0.32229689 0.19240074 0.81133515 3413266
-0.30815828 0.18862817 0.79542661 3084561
-0.30033919 0.18862817 0.79542661 2165518
-0.29252011 0.18862817 0.79542661 1705997
-0.27395758 0.18151012 0.76541048 1048840
-0.26643357 0.18151012 0.76541048 786439
-0.25890955 0.18151012 0.76541048 917512
-0.25621989 0.18500072 0.78012997 984075
-0.24855117 0.18500072 0.78012997 1181708
-0.2363375 0.18151012 0.76541048 2299161
-0.22881347 0.18151012 0.76541048 4137765
-0.22128946 0.18151012 0.76541048 6764852
0 0 0 9585464
0 0 0 11682093
-0.23404494 0.21377859 0.90148348 12271398
-0.22518331 0.21377859 0.90148348 12468776
-0.21632169 0.21377859 0.90148348 12336935
-0.17614534 0.18151012 0.76541048 12402726
-0.16549872 0.17814884 0.75123626 12467493
-0.15523921 0.17490976 0.73757738 12401443
-0.14534613 0.17178637 0.72440636 12336674
-0.1382252 0.17178637 0.72440636 12139041
-0.13348795 0.17490976 0.73757738 12467236
-0.12623754 0.17490976 0.73757738 12467488
-0.11898712 0.17490976 0.73757738 12402467
-0.11173671 0.17490976 0.73757738 12927271
-0.10642122 0.17814884 0.75123626 12795685
-0.099036537 0.17814884 0.75123626 12467749
-0.091651849 0.17814884 0.75123626 12533028
-0.085857108 0.18151012 0.76541048 12533028
-0.078333087 0.18151012 0.76541048 12336420
-0.073585898 0.18862817 0.79542661 12664355
-0.068451174 0.19632728 0.82789302 12336417
-0.065674096 0.21377859 0.90148348 12598307
0 0 0 12468004
0 0 0 12992805
0 0 0 12730662
0 0 0 13124393
0 0 0 13058085
0 0 0 12861735
0 0 0 12468260
0 0 0 12140838
0 0 0 12008740
0 0 0 11615525
0 0 0 11877668
0 0 0 12009254
0 0 0 11943461
0 0 0 12271397
0.23278932 0.74000287 3.1205199 12206117
0.17125171 0.48100185 2.028338 12469291
0.29413903 0.74000287 3.1205199 12861735
0.35188168 0.80166972 3.380563 12927526
0.38511276 0.80166972 3.380563 12993319
0.22818756 0.4372744 1.8439435 12993321
0.20069999 0.35629767 1.5024725 12927526
0.20777401 0.34357274 1.4488127 12928041
0.21436018 0.33172539 1.3988537 12993321
0.22811098 0.33172539 1.3988537 12928039
0.24186178 0.33172539 1.3988537 13124905
0.25561255 0.33172539 1.3988537 13321770
0.27898347 0.34357274 1.4488127 13059625
0.31578118 0.37000144 1.5602599 13059368
0.33111861 0.37000144 1.5602599 12993319
0.34645605 0.37000144 1.5602599 13255719
0.33595106 0.34357274 1.4488127 13190697
0.35019296 0.34357274 1.4488127 12994090
0.36443484 0.34357274 1.4488127 13256491
0.36561891 0.33172539 1.3988537 13125162
0.44006887 0.38480148 1.6226703 13059624
0.40716052 0.34357274 1.4488127 13191211
0.40687129 0.33172539 1.3988537 13256748
0.40660137 0.32066789 1.3522252 13256491
0.40634885 0.31032377 1.3086051 13190698
0.41921249 0.31032377 1.3086051 13125418
0.41857377 0.30062616 1.2677112 12928811
0.44493979 0.31032377 1.3086051 12666409
0.45780343 0.31032377 1.3086051 12994348
0.50312686 0.33172539 1.3988537 12928299
0.53533757 0.34357274 1.4488127 12797225
0.59185487 0.37000144 1.5602599 12535082
0.56382138 0.34357274 1.4488127 12666409
0.57806325 0.34357274 1.4488127 12665640
0.59230512 0.34357274 1.4488127 13058856
0.65320456 0.37000144 1.5602599 13059627
0.69528365 0.38480148 1.6226703 13059627
0.71123457 0.38480148 1.6226703 12666409
0.67331988 0.35629767 1.5024725 12665897
0.64063483 0.33172539 1.3988537 12666408
0.67775649 0.34357274 1.4488127 12600361
0.66813642 0.33172539 1.3988537 12403753
0.79098916 0.38480148 1.6226703 12403498
0.80694008 0.38480148 1.6226703 12207146
0.89444673 0.41826245 1.763772 12272428
0.99862134 0.45809698 1.9317503 12469291
1.0176105 0.45809698 1.9317503 12207146
1.0365998 0.45809698 1.9317503 11813674
1.0555888 0.45809698 1.9317503 12206890
1.074578 0.45809698 1.9317503 12402985
1.1482457 0.48100185 2.028338 12206889
1.1681844 0.48100185 2.028338 12140072
1.188123 0.48100185 2.028338 11878698
1.2716439 0.50631773 2.1350925 12009767
1.4447062 0.56588453 2.3862798 12009257
1.4681635 0.56588453 2.3862798 11812906
1.2075025 0.45809698 1.9317503 11812648
1.2264916 0.45809698 1.9317503 11550247
1.2454808 0.45809698 1.9317503 11419175
1.26447 0.45809698 1.9317503 11287847
1.2834592 0.45809698 1.9317503 11681579
1.3024484 0.45809698 1.9317503 11353640
1.3214376 0.45809698 1.9317503 11484969
1.2238679 0.41826245 1.763772 11485224
1.2976243 0.4372744 1.8439435 11550760
1.3784052 0.45809698 1.9317503 11550248
1.3973943 0.45809698 1.9317503 11615527
1.4163835 0.45809698 1.9317503 11484711
1.3701285 0.4372744 1.8439435 11287591
1.2216641 0.38480148 1.6226703 11353640
1.237615 0.38480148 1.6226703 11419435
1.2535659 0.38480148 1.6226703 11091750
1.3224133 0.40083486 1.6902815 11158826
1.3390288 0.40083486 1.6902815 11094061
1.3556443 0.40083486 1.6902815 10699563
1.4319234 0.41826245 1.763772 10961708
1.515137 0.4372744 1.8439435 11290160
1.533263 0.4372744 1.8439435 11356720
1.551389 0.4372744 1.8439435 11224878
1.5695151 0.4372744 1.8439435 11158831
1.6632431 0.45809698 1.9317503 10896173
1.6822323 0.45809698 1.9317503 10896689
1.7862827 0.48100185 2.028338 11028275
1.8062212 0.48100185 2.028338 10896944
1.82616 0.48100185 2.028338 10502958
2.0512207 0.53444654 2.2537088 10306608
2.1953378 0.56588453 2.3862798 10175276
2.0955288 0.53444654 2.2537088 10174763
2.2422523 0.56588453 2.3862798 10174761
2.2657096 0.56588453 2.3862798 10765101
2.2891667 0.56588453 2.3862798 10306347
2.312624 0.56588453 2.3862798 10436908
2.3360813 0.56588453 2.3862798 10634288
2.3595386 0.56588453 2.3862798 10240814
2.3829956 0.56588453 2.3862798 10438193
2.4064529 0.56588453 2.3862798 10438447
2.4299102 0.56588453 2.3862798 10700848
2.6067028 0.60125232 2.5354223 10635312
2.4768248 0.56588453 2.3862798 10504241
2.5002818 0.56588453 2.3862798 10503728
2.5237391 0.56588453 2.3862798 10176046
2.5471964 0.56588453 2.3862798 9587506
2.5706537 0.56588453 2.3862798 9393212
2.594111 0.56588453 2.3862798 9460802
2.617568 0.56588453 2.3862798 8870207
2.3630228 0.50631773 2.1350925 7949882
2.2648103 0.48100185 2.028338 6502700
2.284749 0.48100185 2.028338 7488825
2.4259868 0.50631773 2.1350925 8997429
3.0995014 0.64133579 2.7044504 10046517
3.3493781 0.68714547 2.8976254 10242612
3.377862 0.68714547 2.8976254 10897716
2.3844423 0.48100185 2.028338 10897716
2.0036507 0.40083486 1.6902815 10439218
2.3088756 0.45809698 1.9317503 10635316
3.4917972 0.68714547 2.8976254 10438963
3.7910719 0.74000287 3.1205199 10242098
0 0 0 10110771
0 0 0 10241587
0 0 0 10307380
0 0 0 10242357
0 0 0 10110771
0 0 0 10176564
0 0 0 9979443
0 0 0 9913650
0 0 0 5254943
0 0 0 3479310
-4.0346217 0.8349008 3.380563 1246216
-4.0013905 0.8349008 3.380563 984076
-3.9681594 0.8349008 3.380563 1575696
-4.2926493 0.91080087 3.687887 2626839
-4.2563972 0.91080087 3.687887 2691344
-4.2201452 0.91080087 3.687887 2625552
-4.6022825 1.001881 4.0566759 2165516
-4.5624051 1.001881 4.0566759 1771787
-4.5225282 1.001881 4.0566759 1312008
-4.4826508 1.001881 4.0566759 983816
-4.4427733 1.001881 4.0566759 852489
-4.4028959 1.001881 4.0566759 786698
-4.3630185 1.001881 4.0566759 852491
-4.8034906 1.1132011 4.5074177 918282
-4.7591825 1.1132011 4.5074177 852489
-4.7148743 1.1132011 4.5074177 786698
-4.2035093 1.001881 4.0566759 721418
-4.1636324 1.001881 4.0566759 655882
-4.123755 1.001881 4.0566759 852489
-3.7126157 0.91080087 3.687887 852489
-3.6763637 0.91080087 3.687887 984847
-4.0041227 1.001881 4.0566759 1707024
-3.9642456 1.001881 4.0566759 1509643
-3.9243684 1.001881 4.0566759 1641488
-3.884491 1.001881 4.0566759 1772815
-3.8446138 1.001881 4.0566759 2035215
-3.8047364 1.001881 4.0566759 2495768
-3.7648592 1.001881 4.0566759 2693146
-3.7249818 1.001881 4.0566759 2429973
-3.3500948 0.91080087 3.687887 1246731
-3.0376892 0.8349008 3.380563 1574921
-2.7733459 0.77067769 3.1205199 3217684
-2.7426713 0.77067769 3.1205199 4598305
-2.7119963 0.77067769 3.1205199 6307383
-3.1688342 0.91080087 3.687887 7226426
-3.1325822 0.91080087 3.687887 7685942
-3.0963302 0.91080087 3.687887 7948339
-2.8050716 0.8349008 3.380563 8276530
-2.7718403 0.8349008 3.380563 8144429
-2.5279472 0.77067769 3.1205199 7948335
-2.7053783 0.8349008 3.380563 7685422
-2.9150696 0.91080087 3.687887 7225644
-3.5185549 1.1132011 4.5074177 6569262
-3.474247 1.1132011 4.5074177 6503982
-3.4299388 1.1132011 4.5074177 7029809
-3.0470676 1.001881 4.0566759 7161139
-3.3413227 1.1132011 4.5074177 6964016
-3.2970145 1.1132011 4.5074177 7554868
-3.2527063 1.1132011 4.5074177 8147259
-3.2083981 1.1132011 4.5074177 7621171
-3.1640902 1.1132011 4.5074177 7884086
-3.119782 1.1132011 4.5074177 8080951
-3.0754738 1.1132011 4.5074177 8278074
-3.0311658 1.1132011 4.5074177 8540988
-2.9868577 1.1132011 4.5074177 8475963
-2.9425495 1.1132011 4.5074177 8344890
-2.8982413 1.1132011 4.5074177 8672828
-2.8539333 1.1132011 4.5074177 8803385
-3.1608281 1.2523513 5.0708447 8738362
-3.1109815 1.2523513 5.0708447 9067069
-3.0611348 1.2523513 5.0708447 9198909
-2.6767008 1.1132011 4.5074177 9460286
-2.6323926 1.1132011 4.5074177 9789504
-2.5880845 1.1132011 4.5074177 9921859
-2.5437765 1.1132011 4.5074177 10053446
-2.4994683 1.1132011 4.5074177 10512453
-2.4551601 1.1132011 4.5074177 10315331
-2.4108522 1.1132011 4.5074177 10381380
-2.366544 1.1132011 4.5074177 10447172
-2.3222358 1.1132011 4.5074177 10577989
-2.5626686 1.2523513 5.0708447 10841159
-2.2336197 1.1132011 4.5074177 10906437
-0.70370722 0.35781464 1.4488127 10446401
-0.66569066 0.34547618 1.3988537 7222822
-0.59082049 0.31308782 1.2677112 6763302
-0.45140204 0.24436122 0.98943311 6106401
-0.43115976 0.23854309 0.96587515 5777444
-0.39355415 0.22264022 0.90148348 4989214
-0.37632966 0.21780021 0.88188601 4661277
-0.35234147 0.2087252 0.84514076 4134933
-0.33701262 0.20446551 0.82789302 3413524
-0.32887441 0.20446551 0.82789302 3149841
-0.30815828 0.19644725 0.79542661 2559503
-0.30033919 0.19644725 0.79542661 2296334
-0.29252011 0.19644725 0.79542661 1902603
-0.27395758 0.18903413 0.76541048 2033673
-0.26643357 0.18903413 0.76541048 4331284
-0.25890955 0.18903413 0.76541048 8401704
-0.25138554 0.18903413 0.76541048 12011055
-0.24855117 0.19266942 0.78012997 12403496
-0.24088246 0.19266942 0.78012997 12534571
-0.23321375 0.19266942 0.78012997 12861994
-0.23935391 0.20446551 0.82789302 12534056
-0.23603266 0.2087252 0.84514076 12337703
-0.22772489 0.2087252 0.84514076 12468520
-0.22408557 0.21316616 0.86312246 12336420
-0.21560104 0.21316616 0.86312246 12467493
-0.18720147 0.19266942 0.78012997 12533287
-0.17288339 0.18553352 0.75123626 12468006
-0.16248964 0.18216017 0.73757738 12730407
-0.15246709 0.17890732 0.72440636 12795683
-0.14534613 0.17890732 0.72440636 12729890
-0.1382252 0.17890732 0.72440636 12467236
-0.13348795 0.18216017 0.73757738 12074531
-0.12623754 0.18216017 0.73757738 12729635
-0.11898712 0.18216017 0.73757738 12336164
-0.11173671 0.18216017 0.73757738 12401954
-0.10642122 0.18553352 0.75123626 12730148
-0.099036537 0.18553352 0.75123626 12468006
-0.091651849 0.18553352 0.75123626 12336163
-0.085857108 0.18903413 0.76541048 12664869
-0.078333087 0.18903413 0.76541048 12927013
-0.073585898 0.19644725 0.79542661 12532516
-0.067082152 0.2003762 0.81133515 12927015
-0.064246401 0.21780021 0.88188601 12795942
-0.06087051 0.23854309 0.96587515 12927269
0 0 0 12796197
0 0 0 12796453
0 0 0 13320485
0 0 0 13058598
-0.017051402 0.30360028 1.2292956 12927012
-0.0049673705 0.30360028 1.2292956 12862248
0.0073390566 0.31308782 1.2677112 12271910
0.020439448 0.32318741 1.3086051 12075047
0 0 0 12008738
0 0 0 12008740
0 0 0 11877927
0 0 0 11943974
0 0 0 12271397
0.13755733 0.45540044 1.8439435 12468006
0.12685312 0.37106705 1.5024725 12205604
0.1416225 0.37106705 1.5024725 12271910
0.35188168 0.8349008 3.380563 12862246
0.38511276 0.8349008 3.380563 12992805
0.20080505 0.4007524 1.6226703 13124391
0.19353212 0.35781464 1.4488127 12993319
0.20777401 0.35781464 1.4488127 12928039
0.19426392 0.31308782 1.2677112 12862248
0.20672558 0.31308782 1.2677112 13124391
0.22625779 0.32318741 1.3086051 13125418
0.24709214 0.33396032 1.3522252 13125416
0.26936337 0.34547618 1.3988537 13059112
0.29322538 0.35781464 1.4488127 12731943
0.30746728 0.35781464 1.4488127 12993575
0.32170916 0.35781464 1.4488127 13190440
0.33595106 0.35781464 1.4488127 13387563
0.35019296 0.35781464 1.4488127 12994087
0.35186812 0.34547618 1.3988537 12928038
0.35343161 0.33396032 1.3522252 13059368
0.37936971 0.34547618 1.3988537 12928810
0.3931205 0.34547618 1.3988537 13453354
0.39330891 0.33396032 1.3522252 13453354
0.39348519 0.32318741 1.3086051 13256493
0.40634885 0.32318741 1.3086051 13125420
0.4061121 0.31308782 1.2677112 12797993
0.41857377 0.31308782 1.2677112 12732202
0.44493979 0.32318741 1.3086051 12797482
0.48937607 0.34547618 1.3988537 12928811
0.50312686 0.34547618 1.3988537 12928041
0.51687765 0.34547618 1.3988537 12862505
0.53062844 0.34547618 1.3988537 12862249
0.54437923 0.34547618 1.3988537 12601129
0.53952569 0.33396032 1.3522252 12731944
0.57188082 0.34547618 1.3988537 12928294
0.60654706 0.35781464 1.4488127 12666409
0.64378113 0.37106705 1.5024725 12600875
0.63503081 0.35781464 1.4488127 12469546
0.64927274 0.35781464 1.4488127 12534825
0.61928028 0.33396032 1.3522252 12402984
0.63257271 0.33396032 1.3522252 12666409
0.6458652 0.33396032 1.3522252 12534568
0.68188721 0.34547618 1.3988537 12862248
0.695638 0.34547618 1.3988537 12468776
0.7347241 0.35781464 1.4488127 12403496
0.91178471 0.43560043 1.763772 12272172
0.9713555 0.45540044 1.8439435 12206376
1.0365998 0.47708619 1.9317503 12074793
1.0555888 0.47708619 1.9317503 12075049
1.074578 0.47708619 1.9317503 12074790
1.0935673 0.47708619 1.9317503 11877927
1.1681844 0.5009405 2.028338 11877929
1.188123 0.5009405 2.028338 11877927
1.2080617 0.5009405 2.028338 12009254
1.3644449 0.55660057 2.2537088 11681833
1.1885133 0.47708619 1.9317503 11943722
1.2075025 0.47708619 1.9317503 11681575
1.2264916 0.47708619 1.9317503 11681318
1.2454808 0.47708619 1.9317503 11747112
1.26447 0.47708619 1.9317503 11877927
1.2251202 0.45540044 1.8439435 11746598
1.2432462 0.45540044 1.8439435 11615527
1.2613722 0.45540044 1.8439435 11156518
1.2238679 0.43560043 1.763772 11221796
1.2976243 0.45540044 1.8439435 11680548
1.2585438 0.43560043 1.763772 11353126
1.3338765 0.45540044 1.8439435 11222054
1.2393357 0.4174504 1.6902815 11287847
1.0765295 0.35781464 1.4488127 10959911
1.0907714 0.35781464 1.4488127 10959655
1.0669094 0.34547618 1.3988537 11090984
1.0806602 0.34547618 1.3988537 10959910
1.1754786 0.37106705 1.5024725 11094318
1.2854677 0.4007524 1.6226703 11290927
1.3556443 0.4174504 1.6902815 11356207
1.37226 0.4174504 1.6902815 11356467
1.515137 0.45540044 1.8439435 11093551
1.533263 0.45540044 1.8439435 11093551
1.6252646 0.47708619 1.9317503 10896944
1.5012753 0.43560043 1.763772 10765359
1.5186132 0.43560043 1.763772 10370861
1.5359511 0.43560043 1.763772 10502958
1.7012215 0.47708619 1.9317503 10568236
1.8062212 0.5009405 2.028338 11027247
1.82616 0.5009405 2.028338 10502443
2.0512207 0.55660057 2.2537088 10568493
2.0733747 0.55660057 2.2537088 10634029
2.0955288 0.55660057 2.2537088 10634031
2.2422523 0.58934176 2.3862798 10699824
2.1398368 0.55660057 2.2537088 10700080
2.2891667 0.58934176 2.3862798 10372143
2.184145 0.55660057 2.2537088 10371632
2.3360813 0.58934176 2.3862798 10371372
2.5070097 0.62617564 2.5354223 10634031
2.5319331 0.62617564 2.5354223 10371629
2.5568564 0.62617564 2.5354223 10503217
2.4299102 0.58934176 2.3862798 10634544
2.4533675 0.58934176 2.3862798 10569777
2.3392234 0.55660057 2.2537088 10569776
2.5002818 0.58934176 2.3862798 10569778
2.5237391 0.58934176 2.3862798 10372914
2.5471964 0.58934176 2.3862798 10044463
2.5706537 0.58934176 2.3862798 9586737
2.594111 0.58934176 2.3862798 8736823
2.2249329 0.5009405 2.028338 9132864
2.1379728 0.47708619 1.9317503 8935743
2.1569622 0.47708619 1.9317503 8080953
2.0770445 0.45540044 1.8439435 5845803
2.4259868 0.52730578 2.1350925 6898228
3.8743768 0.8349008 3.380563 8931637
0 0 0 10308659
0 0 0 10701105
1.9075537 0.4007524 1.6226703 10636082
1.9235046 0.4007524 1.6226703 10635315
1.9394555 0.4007524 1.6226703 10635059
2.2220528 0.45540044 1.8439435 10570035
3.7910719 0.77067769 3.1205199 10308148
0 0 0 10438448
0 0 0 10438195
0 0 0 10108716
0 0 0 9912619
0 0 0 9978927
0 0 0 9913392
0 0 0 9846827
0 0 0 9847345
0 0 0 6043943
0 0 0 3940373
-4.0346217 0.86813188 3.380563 1377281
-4.3651533 0.94705296 3.687887 918282
-4.3289013 0.94705296 3.687887 918284
-4.2926493 0.94705296 3.687887 984074
-4.2563972 0.94705296 3.687887 852745
-4.2201452 0.94705296 3.687887 852489
-4.6022825 1.0417583 4.0566759 918282
-4.5624051 1.0417583 4.0566759 721416
-4.5225282 1.0417583 4.0566759 721674
-4.4826508 1.0417583 4.0566759 590089
-4.9364147 1.1575093 4.5074177 655880
-4.4028959 1.0417583 4.0566759 786696
-4.3630185 1.0417583 4.0566759 786696
-4.3231416 1.0417583 4.0566759 918282
-4.2832642 1.0417583 4.0566759 984329
-4.2433867 1.0417583 4.0566759 1115915
-4.2035093 1.0417583 4.0566759 1510673
-4.1636324 1.0417583 4.0566759 1839123
-3.7488678 0.94705296 3.687887 2167573
-3.7126157 0.94705296 3.687887 2693144
-3.6763637 0.94705296 3.687887 2955286
-3.6401114 0.94705296 3.687887 3217688
-3.9642456 1.0417583 4.0566759 3415837
-3.9243684 1.0417583 4.0566759 3547423
-3.5313554 0.94705296 3.687887 3875617
-3.4951031 0.94705296 3.687887 5189673
-3.4588511 0.94705296 3.687887 6305834
-3.7648592 1.0417583 4.0566759 7225133
-3.3863468 0.94705296 3.687887 7356465
-3.0709202 0.86813188 3.380563 7159085
-2.8040209 0.80135256 3.1205199 7093804
-2.7733459 0.80135256 3.1205199 7160110
-2.7426713 0.80135256 3.1205199 7225644
-2.7119963 0.80135256 3.1205199 7488816
-2.6813214 0.80135256 3.1205199 7225646
-2.6506467 0.80135256 3.1205199 7554093
-2.8383026 0.86813188 3.380563 7882799
-2.5892968 0.80135256 3.1205199 8013613
-2.3758633 0.74411303 2.8976254 7619631
-2.5279472 0.80135256 3.1205199 7225906
-2.4972725 0.80135256 3.1205199 6372405
-2.4665976 0.80135256 3.1205199 6306354
-3.1666996 1.0417583 4.0566759 6830894
-3.474247 1.1575093 4.5074177 6963757
-3.4299388 1.1575093 4.5074177 6831915
-3.0470676 1.0417583 4.0566759 6766379
-2.7338092 0.94705296 3.687887 6898223
-2.6975572 0.94705296 3.687887 6964786
-2.2518735 0.80135256 3.1205199 7753271
-3.2083981 1.1575093 4.5074177 8081206
-3.1640902 1.1575093 4.5074177 8278843
-3.119782 1.1575093 4.5074177 8475709
-3.0754738 1.1575093 4.5074177 8344121
-3.0311658 1.1575093 4.5074177 8607549
-2.9868577 1.1575093 4.5074177 8672569
-2.9425495 1.1575093 4.5074177 8541754
-2.8982413 1.1575093 4.5074177 8803897
-2.8539333 1.1575093 4.5074177 8935998
-2.8096251 1.1575093 4.5074177 8804412
-2.765317 1.1575093 4.5074177 9330238
-2.721009 1.1575093 4.5074177 9658176
-2.6767008 1.1575093 4.5074177 10117956
-2.6323926 1.1575093 4.5074177 10446405
-2.5880845 1.1575093 4.5074177 10184001
-2.5437765 1.1575093 4.5074177 10512966
-2.4994683 1.1575093 4.5074177 10841161
-2.4551601 1.1575093 4.5074177 10841160
-2.4108522 1.1575093 4.5074177 10579271
