# .PCD v0.7 - Point Cloud Data file format
VERSION 0.7
FIELDS x y z rgb
SIZE 4 4 4 4
TYPE F F F U
COUNT 1 1 1 1
WIDTH 1252
HEIGHT 1
VIEWPOINT 0 0 0 1 0 0 0
POINTS 1252
DATA ascii
0.057355329 0.88891149 2.2537088 12205090
0.079509392 0.88891149 2.2537088 11876897
0.10166345 0.88891149 2.2537088 11942177
0.12381751 0.88891149 2.2537088 11746338
0.14597157 0.88891149 2.2537088 12074018
0.16812563 0.88891149 2.2537088 11876901
0.18026496 0.84212661 2.1350925 12008742
0.19119038 0.80002034 2.028338 11877157
0.21112902 0.80002034 2.028338 12008999
0.23106767 0.80002034 2.028338 12074275
0.23905364 0.76192403 1.9317503 12140323
0.25804281 0.76192403 1.9317503 12008738
0.29088363 0.80002034 2.028338 12139811
0.31082228 0.80002034 2.028338 12139813
0.36751217 0.88891149 2.2537088 12204836
0.41258773 0.94120032 2.3862798 12139813
0.43604496 0.94120032 2.3862798 12336420
0.43397433 0.88891149 2.2537088 12337192
0.48295945 0.94120032 2.3862798 12402213
0.50641668 0.94120032 2.3862798 12664612
0.52987391 0.94120032 2.3862798 12664869
0.55333114 0.94120032 2.3862798 12730662
0.57678843 0.94120032 2.3862798 12533798
0.60024565 0.94120032 2.3862798 12665896
0.62370288 0.94120032 2.3862798 12665385
0.64716011 0.94120032 2.3862798 12403237
0.67061734 0.94120032 2.3862798 12468776
0.43700993 0.59260762 1.5024725 12271397
0.45177931 0.59260762 1.5024725 12140838
0.4343729 0.55173808 1.3988537 12271141
0.43318623 0.53334683 1.3522252 12468264
0.41857377 0.5000127 1.2677112 12402215
0.4597711 0.53334683 1.3522252 12139811
0.5913294 0.66668355 1.6902815 12336420
0.60794497 0.66668355 1.6902815 12402983
0.65171534 0.69566977 1.763772 12336677
0.66905326 0.69566977 1.763772 12402467
0.71759081 0.72729117 1.8439435 12140326
0.73571688 0.72729117 1.8439435 11943206
0.7897402 0.76192403 1.9317503 12009254
0.80872941 0.76192403 1.9317503 12140326
0.82771862 0.76192403 1.9317503 12009000
0.88904321 0.80002034 2.028338 11811875
0.90898186 0.80002034 2.028338 11942947
0.77410042 0.66668355 1.6902815 11942692
0.75908732 0.6400162 1.6226703 11745569
0.74522913 0.61540025 1.5602599 11811878
0.76056653 0.61540025 1.5602599 11877414
0.77590394 0.61540025 1.5602599 12205352
0.822891 0.6400162 1.6226703 12205863
1.1650583 0.88891149 2.2537088 11942948
1.1872123 0.88891149 2.2537088 11613987
1.3605372 1.0000254 2.5354223 11548964
1.3854605 1.0000254 2.5354223 11614757
1.4103838 1.0000254 2.5354223 11286562
1.4353071 1.0000254 2.5354223 11548964
1.3743345 0.94120032 2.3862798 11418405
1.3977917 0.94120032 2.3862798 11286562
1.4212489 0.94120032 2.3862798 10696739
1.4447062 0.94120032 2.3862798 10762273
1.31362 0.84212661 2.1350925 10893346
1.334608 0.84212661 2.1350925 10827809
1.3555961 0.84212661 2.1350925 11220769
1.3765841 0.84212661 2.1350925 11090466
1.3276936 0.80002034 2.028338 11221796
1.2834592 0.76192403 1.9317503 11221281
1.3024484 0.76192403 1.9317503 11220769
1.3214376 0.76192403 1.9317503 11286564
1.3404268 0.76192403 1.9317503 11221541
1.2412059 0.69566977 1.763772 11221541
1.3157504 0.72729117 1.8439435 11089953
1.3973943 0.76192403 1.9317503 11024675
1.4163835 0.76192403 1.9317503 11024162
1.3105577 0.69566977 1.763772 11286564
1.3882545 0.72729117 1.8439435 11089955
1.4063807 0.72729117 1.8439435 10958884
1.5669575 0.80002034 2.028338 10696740
1.6704168 0.84212661 2.1350925 10434083
1.7853719 0.88891149 2.2537088 10106659
1.5493079 0.76192403 1.9317503 9910053
1.3173696 0.6400162 1.6226703 10041380
1.3333205 0.6400162 1.6226703 10565669
1.3492714 0.6400162 1.6226703 10632232
1.3652223 0.6400162 1.6226703 10697770
1.3811733 0.6400162 1.6226703 10435368
1.3971242 0.6400162 1.6226703 10304550
1.4719532 0.66668355 1.6902815 10435368
1.4885688 0.66668355 1.6902815 10697256
1.5051843 0.66668355 1.6902815 10500904
1.5217998 0.66668355 1.6902815 10500647
2.1718805 0.94120032 2.3862798 10172966
2.1953378 0.94120032 2.3862798 10434853
3.7719517 1.6000407 4.0566759 10172966
3.8118291 1.6000407 4.0566759 10172452
2.962851 1.2308005 3.1205199 10106151
1.5566334 0.6400162 1.6226703 10106150
1.2285815 0.5000127 1.2677112 10041381
1.2410432 0.5000127 1.2677112 9910053
1.2535049 0.5000127 1.2677112 9778723
1.3969285 0.55173808 1.3988537 10107173
1.4610606 0.57144302 1.4488127 9713188
1.4753026 0.57144302 1.4488127 10107173
1.6041249 0.61540025 1.5602599 10041639
1.2759399 0.48486075 1.2292956 10041897
1.2880239 0.48486075 1.2292956 10304552
1.300108 0.48486075 1.2292956 10239273
1.312192 0.48486075 1.2292956 10239273
1.3242761 0.48486075 1.2292956 10108200
1.3363601 0.48486075 1.2292956 10173478
1.2713902 0.45715445 1.1590502 10304812
1.2471509 0.44445574 1.1268544 10436650
1.2582279 0.44445574 1.1268544 10699051
1.1423745 0.40001017 1.014169 10502444
1.0719477 0.37210247 0.94341296 10370602
1.192116 0.41026682 1.0401733 10370859
0 0 0 10436139
0 0 0 10436138
0 0 0 10174250
0 0 0 10173993
0 0 0 9518637
0 0 0 8011053
0 0 0 6041125
0 0 0 6303524
0 0 0 6238758
0 0 0 6041636
0 0 0 5975330
0 0 0 5252896
0 0 0 4925472
0 0 0 5056285
0 0 0 5384994
0 0 0 1904661
0 0 0 2299931
-0.79369611 0.268839 0.66502881 2366494
-0.78715885 0.268839 0.66502881 1971994
-0.79363191 0.27331963 0.67611259 1971480
-0.8003245 0.27795219 0.68757218 1839636
-0.80724776 0.28274444 0.69942683 2890523
-0.8003723 0.28274444 0.69942683 3940898
-0.80741799 0.28770489 0.71169752 4795432
-0.80042195 0.28770489 0.71169752 4860971
-0.79342592 0.28770489 0.71169752 4795432
-0.80047327 0.29284248 0.72440636 4335650
-0.79335231 0.29284248 0.72440636 3876127
-0.7862314 0.29284248 0.72440636 4006175
-0.79327607 0.29816687 0.73757738 3940382
-0.80058169 0.3036885 0.75123626 4335654
-0.80816299 0.30941844 0.76541048 4597281
-0.75774759 0.29284248 0.72440636 5646880
-0.73745781 0.28770489 0.71169752 6172192
-0.73046178 0.28770489 0.71169752 7288616
-0.71099216 0.28274444 0.69942683 7943463
-0.71646976 0.28770489 0.71169752 9058087
-0.70947373 0.28770489 0.71169752 9910308
-0.70247769 0.28770489 0.71169752 9976101
-0.72077191 0.29816687 0.73757738 10040606
-0.74044681 0.30941844 0.76541048 10238244
-0.79275328 0.33467713 0.82789302 10500644
-0.75384581 0.32155252 0.79542661 10369060
-0.74602669 0.32155252 0.79542661 10434598
-0.72401136 0.31536883 0.78012997 10565154
-0.71634263 0.31536883 0.78012997 10565411
-0.70867395 0.31536883 0.78012997 10762534
-0.70100522 0.31536883 0.78012997 10828580
-0.69333649 0.31536883 0.78012997 10828580
-0.69911224 0.32155252 0.79542661 10696740
-0.69129318 0.32155252 0.79542661 10696740
-0.68347406 0.32155252 0.79542661 11025446
-0.67565501 0.32155252 0.79542661 10828326
-0.70957565 0.34164953 0.84514076 11418148
-0.73175776 0.35650387 0.88188601 11156259
-0.75595647 0.37270859 0.92197174 11418150
-0.7824598 0.39045662 0.96587515 11287332
-0.79181802 0.39997998 0.98943311 11090980
-0.84383595 0.43155733 1.0675462 11352351
0 0 0 11287331
0 0 0 11090981
0 0 0 11287845
-1.6037197 0.86311466 2.1350925 11222052
-1.7689353 0.96465755 2.3862798 11353124
-1.8545705 1.0249487 2.5354223 11681061
-1.8296472 1.0249487 2.5354223 11287845
-1.9250387 1.0932785 2.7044504 11485224
-1.8984538 1.0932785 2.7044504 11549989
-1.871869 1.0932785 2.7044504 11418918
-2.1291742 1.2614753 3.1205199 11484709
-2.0984993 1.2614753 3.1205199 11222822
-2.2401431 1.3665981 3.380563 11550504
-2.206912 1.3665981 3.380563 11681318
-2.1736808 1.3665981 3.380563 11483939
-2.1404498 1.3665981 3.380563 11681320
-2.1072187 1.3665981 3.380563 11746343
-2.0739877 1.3665981 3.380563 11418916
-2.0407565 1.3665981 3.380563 11549990
-1.8531005 1.2614753 3.1205199 11418660
-1.9742943 1.3665981 3.380563 11812388
-1.9410633 1.3665981 3.380563 11943720
-1.9078321 1.3665981 3.380563 11877668
-1.7304012 1.2614753 3.1205199 12075048
-0.92068499 0.68329906 1.6902815 11746853
-0.8345257 0.63073766 1.5602599 11681318
-0.73444462 0.56548887 1.3988537 11484709
-0.46444714 0.3644262 0.90148348 11811875
-0.44568148 0.35650387 0.88188601 12008486
-0.42771435 0.34891868 0.86312246 12008743
-0.40211841 0.33467713 0.82789302 12008997
-0.39398021 0.33467713 0.82789302 11747365
-0.38584197 0.33467713 0.82789302 11943461
-0.37770376 0.33467713 0.82789302 11745825
-0.36956552 0.33467713 0.82789302 11680289
-0.36142731 0.33467713 0.82789302 11877411
-0.35328907 0.33467713 0.82789302 11746341
-0.35234147 0.34164953 0.84514076 11614755
-0.34403369 0.34164953 0.84514076 11680035
-0.34286904 0.34891868 0.86312246 11876898
-0.3343845 0.34891868 0.86312246 11548706
-0.31911039 0.34164953 0.84514076 11548962
-0.30445972 0.33467713 0.82789302 11746085
-0.29632148 0.33467713 0.82789302 11811619
-0.28818327 0.33467713 0.82789302 11680035
-0.28004503 0.33467713 0.82789302 11877154
-0.27190682 0.33467713 0.82789302 11680035
-0.26376858 0.33467713 0.82789302 11548449
-0.26095599 0.34164953 0.84514076 11811361
-0.2526482 0.34164953 0.84514076 11810851
-0.24434045 0.34164953 0.84514076 11679775
-0.22659136 0.32798356 0.81133515 11614242
-0.22307746 0.33467713 0.82789302 11614242
-0.20253889 0.31536883 0.78012997 11417376
-0.18765277 0.3036885 0.75123626 11548964
-0.17699048 0.29816687 0.73757738 11614500
-0.16670898 0.29284248 0.72440636 11482658
-0.15958804 0.29284248 0.72440636 11680032
-0.15246709 0.29284248 0.72440636 11548961
-0.14534613 0.29284248 0.72440636 11680033
-0.1382252 0.29284248 0.72440636 11745569
0 0 0 11877152
0 0 0 12008738
0 0 0 12270628
0 0 0 11811105
0 0 0 11745312
0 0 0 11811361
-0.17066206 0.56548887 1.3988537 11942946
-0.15691127 0.56548887 1.3988537 11942946
-0.14827335 0.58568496 1.4488127 12008481
-0.16316871 0.71300775 1.763772 12139041
0 0 0 11614242
-0.1738432 0.96465755 2.3862798 12008227
-0.15978509 1.0249487 2.5354223 11680548
-0.16598374 1.2614753 3.1205199 11745568
-0.13530888 1.2614753 3.1205199 11745312
-0.090682819 1.0932785 2.7044504 11680547
-0.064097956 1.0932785 2.7044504 11812131
-0.035168517 1.0249487 2.5354223 12074020
-0.010245202 1.0249487 2.5354223 12139555
0.014678113 1.0249487 2.5354223 12008227
0.037271932 0.96465755 2.3862798 12074020
0.060729168 0.96465755 2.3862798 12139041
0.089448057 1.0249487 2.5354223 12205348
0.11437137 1.0249487 2.5354223 12073250
0.13929468 1.0249487 2.5354223 12205605
0.15455812 0.96465755 2.3862798 12204578
0.17801537 0.96465755 2.3862798 12074018
0.18026496 0.86311466 2.1350925 11811877
0.19119038 0.81995898 2.028338 11942176
0.20107524 0.78091323 1.9317503 12074019
0.22006443 0.78091323 1.9317503 11942692
0.23905364 0.78091323 1.9317503 11943204
0.25804281 0.78091323 1.9317503 11745826
0.27703202 0.78091323 1.9317503 12008483
0.31082228 0.81995898 2.028338 12008738
0.36751217 0.91106552 2.2537088 12140326
0.41258773 0.96465755 2.3862798 12139811
0.41182026 0.91106552 2.2537088 12468005
0.43397433 0.91106552 2.2537088 12402213
0.45612839 0.91106552 2.2537088 12467492
0.47828245 0.91106552 2.2537088 12402469
0.52987391 0.96465755 2.3862798 12336676
0.55333114 0.96465755 2.3862798 12533286
0.57678843 0.96465755 2.3862798 12533029
0.60024565 0.96465755 2.3862798 12599076
0.62370288 0.96465755 2.3862798 12533029
0.64716011 0.96465755 2.3862798 12731432
0.67061734 0.96465755 2.3862798 12533801
0.69407457 0.96465755 2.3862798 12535334
0.43564433 0.58568496 1.4488127 12469544
0.37049454 0.48232877 1.1931399 12140581
0.38222316 0.48232877 1.1931399 12271399
0.39395177 0.48232877 1.1931399 12271399
0.43103543 0.51247436 1.2677112 12008738
0.44349706 0.51247436 1.2677112 12206119
0.60794497 0.68329906 1.6902815 12402728
0.71378344 0.78091323 1.9317503 12533030
0.73277265 0.78091323 1.9317503 12336676
0.75176179 0.78091323 1.9317503 12139813
0.770751 0.78091323 1.9317503 12205093
0.7897402 0.78091323 1.9317503 12206118
0.80872941 0.78091323 1.9317503 12140324
0.82771862 0.78091323 1.9317503 12205604
0.84670776 0.78091323 1.9317503 12074277
0.86569697 0.78091323 1.9317503 11877924
0.77410042 0.68329906 1.6902815 11746595
0.75908732 0.65596712 1.6226703 11745828
0.77503824 0.65596712 1.6226703 11812134
0.79098916 0.65596712 1.6226703 11483941
0.80694008 0.65596712 1.6226703 11746343
0.85717809 0.68329906 1.6902815 11615527
1.1650583 0.91106552 2.2537088 11614755
1.1872123 0.91106552 2.2537088 11746341
1.2805055 0.96465755 2.3862798 11352353
1.3854605 1.0249487 2.5354223 11286562
1.4103838 1.0249487 2.5354223 11352096
1.4353071 1.0249487 2.5354223 11417380
1.3743345 0.96465755 2.3862798 11548964
1.3977917 0.96465755 2.3862798 11483171
1.4212489 0.96465755 2.3862798 11417378
1.4447062 0.96465755 2.3862798 11417634
1.31362 0.86311466 2.1350925 11090468
1.334608 0.86311466 2.1350925 11155748
1.3555961 0.86311466 2.1350925 11352614
1.307755 0.81995898 2.028338 10434082
1.26447 0.78091323 1.9317503 10434595
1.2834592 0.78091323 1.9317503 10499874
1.1891921 0.71300775 1.763772 10631460
1.1562579 0.68329906 1.6902815 10827812
1.2238679 0.71300775 1.763772 10958882
1.2412059 0.71300775 1.763772 10892833
1.3157504 0.74541718 1.8439435 10828069
1.3338765 0.74541718 1.8439435 11221541
1.2932198 0.71300775 1.763772 11090468
1.2559512 0.68329906 1.6902815 11352356
1.2725667 0.68329906 1.6902815 11090468
1.4063807 0.74541718 1.8439435 10893090
1.4923403 0.78091323 1.9317503 10958628
1.5868961 0.81995898 2.028338 10630947
1.6068348 0.81995898 2.028338 10696742
1.4145855 0.71300775 1.763772 10434855
1.3173696 0.65596712 1.6226703 10762021
1.3888755 0.68329906 1.6902815 10303267
1.405491 0.68329906 1.6902815 10500901
1.4221066 0.68329906 1.6902815 10368803
1.4387221 0.68329906 1.6902815 10500391
1.3971242 0.65596712 1.6226703 10697253
1.4719532 0.68329906 1.6902815 10632232
1.4885688 0.68329906 1.6902815 10565928
1.5051843 0.68329906 1.6902815 10500648
1.6601453 0.74541718 1.8439435 10566182
1.6782713 0.74541718 1.8439435 10435367
1.6963974 0.74541718 1.8439435 10303780
1.7145234 0.74541718 1.8439435 10303780
2.7227349 1.1713699 2.8976254 10303528
2.7512186 1.1713699 2.8976254 9976101
1.6214931 0.68329906 1.6902815 9975589
1.2285815 0.51247436 1.2677112 10238761
1.5885353 0.65596712 1.6226703 9910052
1.6044862 0.65596712 1.6226703 10041126
1.6204371 0.65596712 1.6226703 9975333
1.5734501 0.63073766 1.5602599 9844518
1.652339 0.65596712 1.6226703 9778726
1.6682899 0.65596712 1.6226703 10040868
1.6194624 0.63073766 1.5602599 9976357
1.3711224 0.52900577 1.3086051 10172967
1.3407364 0.51247436 1.2677112 9910310
1.312192 0.49694479 1.2292956 10042153
1.3242761 0.49694479 1.2292956 9910821
1.3363601 0.49694479 1.2292956 10370601
1.2713902 0.46854797 1.1590502 10305066
1.2827837 0.46854797 1.1590502 10436653
1.6776372 0.60737699 1.5024725 10567979
1.6924065 0.60737699 1.5024725 10699566
1.4868952 0.52900577 1.3086051 10568751
1.0331671 0.3644262 0.90148348 10569264
0 0 0 10568751
0 0 0 10371372
0 0 0 10306349
0 0 0 10174763
0 0 0 9977130
0 0 0 8865074
0 0 0 7289131
0 0 0 6369317
0 0 0 6369318
0 0 0 6763562
0 0 0 5975073
0 0 0 5253668
0 0 0 4662045
0 0 0 5057315
0 0 0 5188643
0 0 0 2167061
0 0 0 3349796
-0.79369611 0.27537626 0.66502881 4205355
-0.78715885 0.27537626 0.66502881 5124656
-0.78062159 0.27537626 0.66502881 5058858
-0.77408433 0.27537626 0.66502881 5321256
-0.79356563 0.28471106 0.68757218 5123877
-0.78680676 0.28471106 0.68757218 5058597
-0.80741799 0.29470092 0.71169752 4927268
-0.80042195 0.29470092 0.71169752 5058597
-0.79342592 0.29470092 0.71169752 4663069
-0.78642994 0.29470092 0.71169752 4073247
-0.77943391 0.29470092 0.71169752 4467496
-0.77243787 0.29470092 0.71169752 5123111
-0.79327607 0.3054173 0.73757738 6500135
-0.815687 0.31694248 0.76541048 8270627
-0.80816299 0.31694248 0.76541048 8794916
-0.75774759 0.29996341 0.72440636 9253668
-0.72474295 0.28961986 0.69942683 9516580
-0.73046178 0.29470092 0.71169752 9450273
-0.71099216 0.28961986 0.69942683 9778468
-0.71646976 0.29470092 0.71169752 9909540
-0.69724137 0.28961986 0.69942683 10106401
-0.70247769 0.29470092 0.71169752 10303779
-0.69548166 0.29470092 0.71169752 10237987
-0.70078003 0.29996341 0.72440636 10237474
-0.73292279 0.31694248 0.76541048 10171936
-0.72539878 0.31694248 0.76541048 10434853
-0.74602669 0.3293716 0.79542661 10434082
-0.73820764 0.3293716 0.79542661 10631460
-0.71634263 0.32303753 0.78012997 10565669
-0.69530267 0.31694248 0.76541048 10828326
-0.68777865 0.31694248 0.76541048 11024932
-0.69333649 0.32303753 0.78012997 10763300
-0.68566781 0.32303753 0.78012997 10763300
-0.67799908 0.32303753 0.78012997 10828324
-0.67033035 0.32303753 0.78012997 10762787
-0.66266167 0.32303753 0.78012997 10959650
-0.69509453 0.34281534 0.82789302 11156261
-0.73175776 0.36517286 0.88188601 11156261
-0.81127042 0.40970615 0.98943311 11025189
-0.80154425 0.40970615 0.98943311 11352868
0 0 0 11287332
0 0 0 11156259
0 0 0 10893859
0 0 0 11025444
0 0 0 11090979
-1.4509845 0.79990244 1.9317503 11025443
-1.5827317 0.8841027 2.1350925 11287847
-1.6485072 0.93321955 2.2537088 11222052
-1.8296472 1.0498719 2.5354223 11615525
-1.9250387 1.1198634 2.7044504 11615783
-1.8984538 1.1198634 2.7044504 11550502
-1.871869 1.1198634 2.7044504 11615525
-1.9770902 1.1998537 2.8976254 11484196
-2.0984993 1.2921501 3.1205199 11484198
-2.2401431 1.3998293 3.380563 11548962
-2.206912 1.3998293 3.380563 11353123
-2.1736808 1.3998293 3.380563 11221539
-2.1404498 1.3998293 3.380563 11352870
-2.1072187 1.3998293 3.380563 11353125
-2.0739877 1.3998293 3.380563 11942950
-2.0407565 1.3998293 3.380563 11746595
-2.0075254 1.3998293 3.380563 11812645
-2.1537757 1.5270865 3.687887 11550244
-2.1175237 1.5270865 3.687887 11549477
-2.0812714 1.5270865 3.687887 11877927
-1.6068009 1.1998537 2.8976254 11812647
-0.84986311 0.64607507 1.5602599 11878181
-0.74819541 0.57923973 1.3988537 11878182
-0.62643808 0.49405739 1.1931399 11811877
-0.46444714 0.3732878 0.90148348 11943461
-0.44568148 0.36517286 0.88188601 11746599
-0.42771435 0.35740322 0.86312246 11942695
-0.40211841 0.34281534 0.82789302 11615012
-0.39398021 0.34281534 0.82789302 11877926
-0.38584197 0.34281534 0.82789302 11680289
-0.37770376 0.34281534 0.82789302 11877157
-0.36217421 0.33595905 0.81133515 11942947
-0.36142731 0.34281534 0.82789302 11746082
-0.35328907 0.34281534 0.82789302 11943205
-0.34515086 0.34281534 0.82789302 11877155
-0.34403369 0.34995732 0.84514076 12008484
-0.34286904 0.35740322 0.86312246 11680289
-0.3343845 0.35740322 0.86312246 11418148
-0.32589996 0.35740322 0.86312246 11615525
-0.30445972 0.34281534 0.82789302 11548964
-0.29632148 0.34281534 0.82789302 11417376
-0.28241959 0.33595905 0.81133515 11614499
-0.28004503 0.34281534 0.82789302 11548962
-0.26646867 0.33595905 0.81133515 11548449
-0.26376858 0.34281534 0.82789302 11483169
-0.25051776 0.33595905 0.81133515 11679776
-0.2425423 0.33595905 0.81133515 11680032
-0.22554503 0.32303753 0.78012997 11811621
-0.21787633 0.32303753 0.78012997 11745311
-0.21020761 0.32303753 0.78012997 11811360
-0.20253889 0.32303753 0.78012997 11745314
-0.18765277 0.31107318 0.75123626 11548964
-0.17699048 0.3054173 0.73757738 11745828
-0.16670898 0.29996341 0.72440636 11417377
-0.15958804 0.29996341 0.72440636 11548449
-0.15246709 0.29996341 0.72440636 11482656
-0.14534613 0.29996341 0.72440636 11417631
0 0 0 11483424
0 0 0 11548449
0 0 0 11548447
0 0 0 11679779
0 0 0 11614240
0 0 0 11811106
0 0 0 12008230
-0.17066206 0.57923973 1.3988537 12139813
-0.15691127 0.57923973 1.3988537 11876641
-0.14827335 0.59992683 1.4488127 11942177
-0.15011522 0.67191809 1.6226703 12138786
0 0 0 11942947
0 0 0 11810848
0 0 0 11942434
-0.16598374 1.2921501 3.1205199 11811361
-0.11726769 1.1198634 2.7044504 11942947
-0.090682819 1.1198634 2.7044504 11549216
-0.064097956 1.1198634 2.7044504 11811361
-0.037513085 1.1198634 2.7044504 12074020
-0.010245202 1.0498719 2.5354223 12074020
0.014678113 1.0498719 2.5354223 12008738
0.042241521 1.1198634 2.7044504 12074020
0.079415068 1.2921501 3.1205199 11680035
0.089448057 1.0498719 2.5354223 12335650
0.11437137 1.0498719 2.5354223 12139813
0.13110088 0.98811477 2.3862798 12139043
0.15455812 0.98811477 2.3862798 12467236
0.1592769 0.8841027 2.1350925 12074019
0.17125171 0.83989763 2.028338 11942947
0.18208605 0.79990244 1.9317503 12204834
0.20107524 0.79990244 1.9317503 12008226
0.22006443 0.79990244 1.9317503 12008485
0.23905364 0.79990244 1.9317503 11942948
0.25804281 0.79990244 1.9317503 11877412
0.27703202 0.79990244 1.9317503 11483939
0.29602119 0.79990244 1.9317503 11746595
0.3150104 0.79990244 1.9317503 11746854
0.38966623 0.93321955 2.2537088 11943461
0.35298878 0.79990244 1.9317503 11942948
0.37197798 0.79990244 1.9317503 12074018
0.4321216 0.8841027 2.1350925 12270884
0.47828245 0.93321955 2.2537088 12271397
0.50043648 0.93321955 2.2537088 12401956
0.55333114 0.98811477 2.3862798 12205348
0.57678843 0.98811477 2.3862798 12271140
0.60024565 0.98811477 2.3862798 12533029
0.62370288 0.98811477 2.3862798 12205606
0.64716011 0.98811477 2.3862798 12598822
0.67061734 0.98811477 2.3862798 12533542
0.47197074 0.67191809 1.6226703 12600359
0.40660137 0.5599317 1.3522252 12533796
0.37049454 0.49405739 1.1931399 12402725
0.38222316 0.49405739 1.1931399 12403498
0.39395177 0.49405739 1.1931399 12337192
0.41797373 0.50902879 1.2292956 12139813
0.43005773 0.50902879 1.2292956 12336931
0.45595872 0.52493596 1.2677112 12205861
0.62456053 0.69991463 1.6902815 12270884
0.64117604 0.69991463 1.6902815 12271397
0.68639123 0.73034573 1.763772 12336420
0.73571688 0.76354325 1.8439435 11942945
0.75384295 0.76354325 1.8439435 12008738
0.77196896 0.76354325 1.8439435 12008227
0.82771862 0.79990244 1.9317503 12074276
0.84670776 0.79990244 1.9317503 12008226
0.86569697 0.79990244 1.9317503 11811875
0.77410042 0.69991463 1.6902815 12074020
0.79071593 0.69991463 1.6902815 11811619
0.77503824 0.67191809 1.6226703 11812132
0.79098916 0.67191809 1.6226703 11483428
0.80694008 0.67191809 1.6226703 11483684
0.822891 0.67191809 1.6226703 11680037
0.87379366 0.69991463 1.6902815 11548704
1.0176105 0.79990244 1.9317503 11221539
1.0365998 0.79990244 1.9317503 11090469
1.3039628 0.98811477 2.3862798 11024418
1.4103838 1.0498719 2.5354223 11417376
1.4353071 1.0498719 2.5354223 11548705
1.3743345 0.98811477 2.3862798 11417378
1.3977917 0.98811477 2.3862798 11352613
1.4212489 0.98811477 2.3862798 11418148
1.4447062 0.98811477 2.3862798 11352356
1.31362 0.8841027 2.1350925 11286562
1.2075025 0.79990244 1.9317503 11746345
1.2878163 0.83989763 2.028338 11483427
1.2454808 0.79990244 1.9317503 11024162
1.26447 0.79990244 1.9317503 11089955
1.1230268 0.69991463 1.6902815 11024678
1.1396424 0.69991463 1.6902815 10630947
1.1562579 0.69991463 1.6902815 10827812
1.1728734 0.69991463 1.6902815 10500644
1.189489 0.69991463 1.6902815 10434081
1.3157504 0.76354325 1.8439435 10762275
1.3338765 0.76354325 1.8439435 10893859
1.2393357 0.69991463 1.6902815 10827810
1.2559512 0.69991463 1.6902815 10696737
1.2725667 0.69991463 1.6902815 10828066
1.2891822 0.69991463 1.6902815 10630176
1.3057978 0.69991463 1.6902815 10696226
1.3799095 0.73034573 1.763772 10762019
1.3972476 0.73034573 1.763772 10565156
1.4145855 0.73034573 1.763772 10959652
1.3173696 0.67191809 1.6226703 10631460
1.3888755 0.69991463 1.6902815 10368292
1.405491 0.69991463 1.6902815 10237989
1.4221066 0.69991463 1.6902815 10631462
1.4387221 0.69991463 1.6902815 10500133
1.3971242 0.67191809 1.6226703 10303009
1.4719532 0.69991463 1.6902815 10172194
1.4885688 0.69991463 1.6902815 10172196
1.5051843 0.69991463 1.6902815 10434083
1.587965 0.73034573 1.763772 9976101
1.605303 0.73034573 1.763772 10040868
1.622641 0.73034573 1.763772 10238760
1.7145234 0.76354325 1.8439435 10501159
1.7326494 0.76354325 1.8439435 10303267
2.7512186 1.1998537 2.8976254 10041380
1.6919928 0.73034573 1.763772 10238757
1.5725844 0.67191809 1.6226703 10107173
1.5885353 0.67191809 1.6226703 10500648
1.6044862 0.67191809 1.6226703 9975846
1.6204371 0.67191809 1.6226703 9844515
1.6363881 0.67191809 1.6226703 9975590
1.652339 0.67191809 1.6226703 10041125
1.6682899 0.67191809 1.6226703 10041381
1.3582587 0.5418694 1.3086051 9910565
1.2880239 0.50902879 1.2292956 9844773
1.300108 0.50902879 1.2292956 10042153
1.3531981 0.52493596 1.2677112 10107432
1.3242761 0.50902879 1.2292956 10107175
1.3363601 0.50902879 1.2292956 9975845
1.2713902 0.47994149 1.1590502 10107433
1.3605281 0.50902879 1.2292956 10435884
1.561938 0.57923973 1.3988537 10107690
1.6924065 0.62214637 1.5024725 9845288
1.5894396 0.57923973 1.3988537 10305064
1.4997588 0.5418694 1.3086051 10306862
0 0 0 10766128
0 0 0 10635315
0 0 0 10504241
0 0 0 10438194
0 0 0 10109999
0 0 0 9912877
0 0 0 8797739
0 0 0 7090982
0 0 0 6369319
0 0 0 6762792
0 0 0 6237733
0 0 0 6041124
0 0 0 5187101
0 0 0 4925214
0 0 0 5188900
0 0 0 2298647
0 0 0 3481118
-0.78089452 0.27736652 0.65430254 5321518
-0.7744627 0.27736652 0.65430254 5452839
-0.78062159 0.28191352 0.66502881 5386277
-0.77408433 0.28191352 0.66502881 5188900
-0.79356563 0.29146993 0.68757218 5517350
-0.78680676 0.29146993 0.68757218 5649191
-0.76704705 0.28661206 0.67611259 5845284
-0.76040083 0.28661206 0.67611259 6107942
-0.76653016 0.29146993 0.68757218 6239016
-0.77287072 0.29649526 0.69942683 7091496
-0.77943391 0.30169693 0.71169752 8336420
-0.77243787 0.30169693 0.71169752 9188899
-0.76544189 0.30169693 0.71169752 9320485
-0.75844586 0.30169693 0.71169752 9319459
-0.75144982 0.30169693 0.71169752 9450531
-0.74445379 0.30169693 0.71169752 9384995
-0.73745781 0.30169693 0.71169752 9712675
-0.73046178 0.30169693 0.71169752 9778468
-0.72346574 0.30169693 0.71169752 9778467
-0.70411676 0.29649526 0.69942683 9909793
-0.69724137 0.29649526 0.69942683 10041378
-0.69036597 0.29649526 0.69942683 10040865
-0.69548166 0.30169693 0.71169752 10040866
-0.70078003 0.30708435 0.72440636 10040866
-0.73292279 0.3244665 0.76541048 10303267
-0.72539878 0.3244665 0.76541048 10434083
-0.71787477 0.3244665 0.76541048 10434081
-0.73820764 0.33719069 0.79542661 10566437
-0.70282668 0.3244665 0.76541048 10828324
-0.68242675 0.31845787 0.75123626 10828066
-0.67504203 0.31845787 0.75123626 11090468
-0.66765738 0.31845787 0.75123626 10828066
-0.68566781 0.33070627 0.78012997 10499873
-0.67799908 0.33070627 0.78012997 10499873
-0.67033035 0.33070627 0.78012997 10696740
-0.67565501 0.33719069 0.79542661 10894373
-0.68119264 0.34393451 0.81133515 10828065
-0.73175776 0.37384182 0.88188601 11090724
-0.75595647 0.39083466 0.92197174 11287332
0 0 0 10960166
0 0 0 11156261
0 0 0 11352611
0 0 0 11287075
0 0 0 11156259
-1.286227 0.7165302 1.6902815 11090466
-1.4509845 0.81889164 1.9317503 11024931
-1.4319953 0.81889164 1.9317503 11025446
-1.6485072 0.95537364 2.2537088 10960166
-1.8296472 1.0747952 2.5354223 11354153
-1.9250387 1.1464483 2.7044504 11287843
-2.1905239 1.3228251 3.1205199 11221796
-2.1598489 1.3228251 3.1205199 11156773
-1.9770902 1.2283374 2.8976254 11616297
-1.9486064 1.2283374 2.8976254 11353125
-1.9201226 1.2283374 2.8976254 11681319
-2.206912 1.4330604 3.380563 11287332
-2.1736808 1.4330604 3.380563 11221798
-2.1404498 1.4330604 3.380563 11484711
-2.1072187 1.4330604 3.380563 11418661
-2.0739877 1.4330604 3.380563 11614756
-2.22628 1.5633386 3.687887 11484456
-2.1900277 1.5633386 3.687887 11614755
-2.1537757 1.5633386 3.687887 11614755
-2.1175237 1.5633386 3.687887 11681061
-1.761076 1.3228251 3.1205199 11484453
-1.6068009 1.2283374 2.8976254 11616295
-0.7619462 0.59299052 1.3988537 11418916
-0.72325557 0.57322413 1.3522252 11221539
-0.62643808 0.505786 1.1931399 11418661
-0.46444714 0.38214943 0.90148348 11680547
-0.43619889 0.36588776 0.86312246 11811875
-0.41025665 0.35095358 0.82789302 11877668
-0.40211841 0.35095358 0.82789302 11548962
-0.39398021 0.35095358 0.82789302 11745828
-0.38584197 0.35095358 0.82789302 11549474
-0.37014967 0.34393451 0.81133515 11549220
-0.36217421 0.34393451 0.81133515 11811621
-0.33414975 0.3244665 0.76541048 11746082
-0.35328907 0.35095358 0.82789302 11680550
-0.34515086 0.35095358 0.82789302 11811364
-0.33701262 0.35095358 0.82789302 11877413
-0.33572593 0.3582651 0.84514076 11483169
-0.3343845 0.36588776 0.86312246 11877414
-0.32589996 0.36588776 0.86312246 11746338
-0.30445972 0.35095358 0.82789302 11548962
-0.29632148 0.35095358 0.82789302 11483169
-0.28818327 0.35095358 0.82789302 11548963
-0.2638886 0.33070627 0.78012997 11483426
-0.26646867 0.34393451 0.81133515 11351841
-0.25849321 0.34393451 0.81133515 11548449
-0.25051776 0.34393451 0.81133515 11679521
-0.2425423 0.34393451 0.81133515 11483424
-0.21324256 0.3126677 0.73757738 11614240
-0.20599215 0.3126677 0.73757738 11548449
-0.20242214 0.31845787 0.75123626 11745055
-0.19503745 0.31845787 0.75123626 11614496
-0.18765277 0.31845787 0.75123626 11548449
-0.17699048 0.3126677 0.73757738 12007971
-0.16670898 0.30708435 0.72440636 11680032
-0.15678826 0.30169693 0.71169752 11482912
-0.1472096 0.29649526 0.69942683 11548703
-0.1403342 0.29649526 0.69942683 11548703
-0.1358002 0.30169693 0.71169752 11286560
0 0 0 11417378
0 0 0 11352355
0 0 0 11679777
0 0 0 11614498
0 0 0 11548447
-0.15279922 0.491335 1.1590502 11811361
-0.14997575 0.52111286 1.2292956 11942948
-0.15691127 0.59299052 1.3988537 11942690
-0.14827335 0.6141687 1.4488127 11810848
-0.15011522 0.68786901 1.6226703 11942947
0 0 0 12139041
-0.1738432 1.011572 2.3862798 11942947
-0.15978509 1.0747952 2.5354223 11811361
-0.14385256 1.1464483 2.7044504 11746082
-0.11726769 1.1464483 2.7044504 11745314
-0.090682819 1.1464483 2.7044504 11877152
-0.064097956 1.1464483 2.7044504 11877154
-0.037513085 1.1464483 2.7044504 12139041
-0.010245202 1.0747952 2.5354223 12008225
0.014678113 1.0747952 2.5354223 12008740
0.039601427 1.0747952 2.5354223 11811361
0.068826392 1.1464483 2.7044504 11680289
0.089448057 1.0747952 2.5354223 11614496
0.11437137 1.0747952 2.5354223 12008227
0.13929468 1.0747952 2.5354223 11942947
0.15455812 1.011572 2.3862798 11876643
0.15131307 0.85983628 2.028338 12139813
0.16309686 0.81889164 1.9317503 11942432
0.18208605 0.81889164 1.9317503 12007972
0.20107524 0.81889164 1.9317503 12074018
0.22006443 0.81889164 1.9317503 12073766
0.23905364 0.81889164 1.9317503 12008740
0.25804281 0.81889164 1.9317503 11943206
0.27703202 0.81889164 1.9317503 12008996
0.28256571 0.78166932 1.8439435 12008483
0.30069175 0.78166932 1.8439435 11746854
0.31881779 0.78166932 1.8439435 11877926
0.33694384 0.78166932 1.8439435 11877414
0.35506988 0.78166932 1.8439435 12073766
0.35697001 0.74768364 1.763772 12205604
0.37430799 0.74768364 1.763772 12074275
0.39164594 0.74768364 1.763772 12074018
0.55333114 1.011572 2.3862798 12074018
0.57678843 1.011572 2.3862798 11942945
0.60024565 1.011572 2.3862798 11811875
0.62370288 1.011572 2.3862798 12074275
0.64716011 1.011572 2.3862798 12205091
0.47502062 0.7165302 1.6902815 12140324
0.47197074 0.68786901 1.6226703 12074533
0.40660137 0.57322413 1.3522252 12205605
0.37049454 0.505786 1.1931399 12140324
0.38222316 0.505786 1.1931399 12468776
0.39395177 0.505786 1.1931399 12271655
0.40568039 0.505786 1.1931399 12402727
0.43005773 0.52111286 1.2292956 12271397
0.45595872 0.53739762 1.2677112 12139811
0.5765174 0.66141254 1.5602599 12205606
0.615529 0.68786901 1.6226703 11943459
0.63147992 0.68786901 1.6226703 12008740
0.67440712 0.7165302 1.6902815 12008997
0.69102269 0.7165302 1.6902815 12008740
0.7076382 0.7165302 1.6902815 11811363
0.72425377 0.7165302 1.6902815 12008483
0.80822104 0.78166932 1.8439435 11745568
0.82634711 0.78166932 1.8439435 11615009
0.74313641 0.68786901 1.6226703 11877668
0.79071593 0.7165302 1.6902815 11549474
0.8073315 0.7165302 1.6902815 11548703
0.79098916 0.68786901 1.6226703 11680036
0.77590394 0.66141254 1.5602599 11811621
0.79124135 0.66141254 1.5602599 11745316
0.83884192 0.68786901 1.6226703 11417634
0.89040917 0.7165302 1.6902815 11418146
0.98948157 0.78166932 1.8439435 11090468
1.0555888 0.81889164 1.9317503 10368290
1.074578 0.81889164 1.9317503 10171683
1.1482457 0.85983628 2.028338 11090982
1.1125565 0.81889164 1.9317503 11024419
1.1315457 0.81889164 1.9317503 11090211
1.4212489 1.011572 2.3862798 11221541
1.1695241 0.81889164 1.9317503 11417637
1.247939 0.85983628 2.028338 11352099
1.2075025 0.81889164 1.9317503 11352356
1.2264916 0.81889164 1.9317503 11548449
1.2454808 0.81889164 1.9317503 11351842
1.1064112 0.7165302 1.6902815 11286820
1.0781058 0.68786901 1.6226703 11089955
1.0940567 0.68786901 1.6226703 11089955
1.1562579 0.7165302 1.6902815 10893859
1.2238679 0.74768364 1.763772 10892831
1.189489 0.7165302 1.6902815 10893346
1.2061045 0.7165302 1.6902815 10892835
1.22272 0.7165302 1.6902815 10761507
1.2393357 0.7165302 1.6902815 10696226
1.2559512 0.7165302 1.6902815 10827812
1.2725667 0.7165302 1.6902815 10565154
1.237615 0.68786901 1.6226703 10499363
1.2535659 0.68786901 1.6226703 10631462
1.2695168 0.68786901 1.6226703 10697254
1.3390288 0.7165302 1.6902815 10500389
1.4145855 0.74768364 1.763772 10435364
1.3173696 0.68786901 1.6226703 10303780
1.3333205 0.68786901 1.6226703 10500389
1.3492714 0.68786901 1.6226703 10435110
1.3652223 0.68786901 1.6226703 10237989
1.3811733 0.68786901 1.6226703 10369060
1.3971242 0.68786901 1.6226703 10303782
1.4130751 0.68786901 1.6226703 10500133
1.429026 0.68786901 1.6226703 10238245
1.4449769 0.68786901 1.6226703 9844515
1.4609278 0.68786901 1.6226703 10041640
1.5384154 0.7165302 1.6902815 10106919
1.5550309 0.7165302 1.6902815 10106918
1.6399789 0.74768364 1.763772 10041123
1.6573169 0.74768364 1.763772 10369573
1.7507756 0.78166932 1.8439435 10237474
1.6214931 0.7165302 1.6902815 10237987
1.5725844 0.68786901 1.6226703 10040866
1.5885353 0.68786901 1.6226703 10106403
1.6044862 0.68786901 1.6226703 9910056
1.6204371 0.68786901 1.6226703 9845028
1.6363881 0.68786901 1.6226703 9910308
1.652339 0.68786901 1.6226703 9910054
1.6682899 0.68786901 1.6226703 10107173
1.6842408 0.68786901 1.6226703 10041894
1.3711224 0.55473304 1.3086051 10304809
1.3407364 0.53739762 1.2677112 10304552
1.3531981 0.53739762 1.2677112 10041640
1.3242761 0.52111286 1.2292956 10041640
1.3363601 0.52111286 1.2292956 10173483
1.2360739 0.47768682 1.1268544 9911334
1.2471509 0.47768682 1.1268544 9977130
1.3726121 0.52111286 1.2292956 10107687
1.5756888 0.59299052 1.3988537 10435366
1.4868952 0.55473304 1.3086051 10436908
1.0566483 0.39083466 0.92197174 10108713
1.1436901 0.41943231 0.98943311 10371370
0 0 0 10108970
0 0 0 10634288
0 0 0 10502958
0 0 0 10240300
0 0 0 10175022
0 0 0 9977384
0 0 0 8731175
0 0 0 6434595
0 0 0 6368804
0 0 0 6435110
0 0 0 6237477
0 0 0 5908771
0 0 0 5449503
0 0 0 5122594
0 0 0 2364183
0 0 0 2955803
-0.79369611 0.28845078 0.66502881 4795945
-0.78715885 0.28845078 0.66502881 4794398
-0.78062159 0.28845078 0.66502881 4204319
-0.77408433 0.28845078 0.66502881 5582630
-0.78033948 0.29325828 0.67611259 7812649
-0.77369326 0.29325828 0.67611259 8467752
-0.76704705 0.29325828 0.67611259 8729895
-0.76040083 0.29325828 0.67611259 9057830
-0.76653016 0.2982288 0.68757218 9122594
-0.77287072 0.30337065 0.69942683 9253920
-0.76599532 0.30337065 0.69942683 9319457
-0.77243787 0.30869296 0.71169752 9384993
-0.76544189 0.30869296 0.71169752 9515810
-0.74536914 0.30337065 0.69942683 9450018
-0.73849374 0.30337065 0.69942683 9515553
-0.73161834 0.30337065 0.69942683 9581089
-0.73745781 0.30869296 0.71169752 9581345
-0.73046178 0.30869296 0.71169752 9647138
-0.72346574 0.30869296 0.71169752 9777952
-0.71646976 0.30869296 0.71169752 9778465
-0.69724137 0.30337065 0.69942683 9844258
-0.69036597 0.30337065 0.69942683 9975331
-0.70790094 0.31420532 0.72440636 9909792
-0.74044681 0.33199051 0.76541048 10302497
-0.7470175 0.33837497 0.78012997 10106403
-0.73934877 0.33837497 0.78012997 10369316
-0.7316801 0.33837497 0.78012997 10499874
-0.72401136 0.33837497 0.78012997 10565667
-0.70282668 0.33199051 0.76541048 10828066
-0.68242675 0.32584256 0.75123626 10893604
-0.67504203 0.32584256 0.75123626 10893859
-0.66765738 0.32584256 0.75123626 10762530
-0.67273062 0.33199051 0.76541048 10762533
-0.67799908 0.33837497 0.78012997 10762533
-0.69714355 0.35190997 0.81133515 10565666
-0.6891681 0.35190997 0.81133515 10631460
-0.68119264 0.35190997 0.81133515 10827812
-0.7012679 0.36657286 0.84514076 11156261
-0.7230888 0.38251081 0.88188601 11222054
-0.7824598 0.41894042 0.96587515 11156004
-0.87742001 0.47555399 1.0963988 10893859
0 0 0 11090724
0 0 0 11221539
0 0 0 11090468
-1.4699737 0.83788085 1.9317503 11222054
-1.4509845 0.83788085 1.9317503 11156261
-1.4319953 0.83788085 1.9317503 11287334
-1.4130061 0.83788085 1.9317503 11287590
-1.7220209 1.0350293 2.3862798 11419174
-2.0625415 1.2568213 2.8976254 11483941
-2.1905239 1.3534999 3.1205199 11353125
-2.1598489 1.3534999 3.1205199 11484964
-2.1291742 1.3534999 3.1205199 11353123
-1.9486064 1.2568213 2.8976254 11419175
-1.6801074 1.0997186 2.5354223 11549734
-1.655184 1.0997186 2.5354223 11221539
-2.0064747 1.3534999 3.1205199 11681319
-2.1404498 1.4662914 3.380563 11746598
-2.1072187 1.4662914 3.380563 11615268
-2.0739877 1.4662914 3.380563 11418148
-2.22628 1.5995907 3.687887 11352869
-2.4090307 1.7595499 4.0566759 11680548
-2.3691535 1.7595499 4.0566759 11549990
-1.7917508 1.3534999 3.1205199 11615525
-1.6352848 1.2568213 2.8976254 11287332
-0.77569699 0.60674131 1.3988537 11353126
-0.7127884 0.56759667 1.3086051 11287332
-0.67805213 0.54985929 1.2677112 11549734
-0.62643808 0.51751465 1.1931399 11615270
-0.44468343 0.37437227 0.86312246 11353125
-0.41839486 0.35909179 0.82789302 11746083
-0.41025665 0.35909179 0.82789302 11615011
-0.41049588 0.36657286 0.84514076 11745828
-0.40218809 0.36657286 0.84514076 11614755
-0.39388034 0.36657286 0.84514076 11548962
-0.33049077 0.31420532 0.72440636 11614755
-0.32336983 0.31420532 0.72440636 11614755
-0.33414975 0.33199051 0.76541048 11614755
-0.32662573 0.33199051 0.76541048 11614244
-0.33824784 0.35190997 0.81133515 11877157
-0.33701262 0.35909179 0.82789302 11615009
-0.32887441 0.35909179 0.82789302 11745825
-0.32741815 0.36657286 0.84514076 11680035
-0.31911039 0.36657286 0.84514076 11745828
-0.31080261 0.36657286 0.84514076 11482656
-0.30249485 0.36657286 0.84514076 11549732
-0.28818327 0.35909179 0.82789302 11548703
-0.25411496 0.32584256 0.75123626 11221281
-0.24673025 0.32584256 0.75123626 11155748
-0.23934558 0.32584256 0.75123626 11154975
-0.23196089 0.32584256 0.75123626 11548450
-0.22049299 0.31991813 0.73757738 11154976
-0.21324256 0.31991813 0.73757738 11613985
-0.20599215 0.31991813 0.73757738 11548451
-0.20242214 0.32584256 0.75123626 11482658
-0.19503745 0.32584256 0.75123626 11548451
-0.18765277 0.32584256 0.75123626 11679265
-0.17382993 0.31420532 0.72440636 11745315
-0.16670898 0.31420532 0.72440636 11679520
-0.15678826 0.30869296 0.71169752 11613986
-0.1472096 0.30337065 0.69942683 11482913
-0.1403342 0.30337065 0.69942683 11417378
-0.1358002 0.30869296 0.71169752 11286562
-0.13852525 0.33199051 0.76541048 11286560
0 0 0 11417376
0 0 0 11613728
0 0 0 11417376
0 0 0 11548962
0 0 0 11746082
-0.17066206 0.60674131 1.3988537 11876641
-0.15691127 0.60674131 1.3988537 11745058
-0.14827335 0.62841064 1.4488127 11942946
-0.13403144 0.62841064 1.4488127 11942689
0 0 0 12007971
-0.1738432 1.0350293 2.3862798 12074533
0 0 0 12073248
-0.14385256 1.1730331 2.7044504 12007714
-0.11726769 1.1730331 2.7044504 11811621
-0.090682819 1.1730331 2.7044504 11745568
-0.064097956 1.1730331 2.7044504 11942434
-0.037513085 1.1730331 2.7044504 11811361
-0.0065569296 0.70381993 1.6226703 11942693
0.0093939919 0.70381993 1.6226703 11680289
0.030172516 0.83788085 1.9317503 11482910
0 0 0 11614499
0.084186405 1.0350293 2.3862798 12008227
0.10764365 1.0350293 2.3862798 11483682
0.13110088 1.0350293 2.3862798 12008482
0.1313744 0.87977493 2.028338 11877411
0.14410767 0.83788085 1.9317503 11942949
0.16309686 0.83788085 1.9317503 12008484
0.18208605 0.83788085 1.9317503 11877156
0.20107524 0.83788085 1.9317503 12008739
0.22006443 0.83788085 1.9317503 12074018
0.23905364 0.83788085 1.9317503 12008740
0.2463136 0.79979533 1.8439435 11811621
0.2327069 0.70381993 1.6226703 12074533
0.25901857 0.73314571 1.6902815 11942947
0.27563411 0.73314571 1.6902815 12139811
0.30495614 0.76502162 1.763772 12139813
0.33694384 0.79979533 1.8439435 11746341
0.35506988 0.79979533 1.8439435 12140326
0.34209627 0.73314571 1.6902815 12140071
0.35871181 0.73314571 1.6902815 12074276
0.39164594 0.76502162 1.763772 12008742
0.52259058 0.97752768 2.2537088 12074020
0.57678843 1.0350293 2.3862798 12008482
0.60024565 1.0350293 2.3862798 12009254
0.62370288 1.0350293 2.3862798 12074018
0.61120683 0.97752768 2.2537088 11942434
0.47502062 0.73314571 1.6902815 11942945
0.47197074 0.70381993 1.6226703 12271397
0.40660137 0.58651656 1.3522252 12271399
0.38172162 0.53319687 1.2292956 12205604
0.38222316 0.51751465 1.1931399 12270884
0.40588969 0.53319687 1.2292956 12336163
0.41797373 0.53319687 1.2292956 12008483
0.43005773 0.53319687 1.2292956 11943204
0.45595872 0.54985929 1.2677112 12337190
0.48353073 0.56759667 1.3086051 12205604
0.615529 0.70381993 1.6226703 12271655
0.63147992 0.70381993 1.6226703 12140327
0.64743084 0.70381993 1.6226703 11942693
0.66338181 0.70381993 1.6226703 11877154
0.67933273 0.70381993 1.6226703 11483426
0.69528365 0.70381993 1.6226703 11680803
0.71123457 0.70381993 1.6226703 11089698
0.72718549 0.70381993 1.6226703 11549474
0.74313641 0.70381993 1.6226703 11548705
0.75908732 0.70381993 1.6226703 11548964
0.77503824 0.70381993 1.6226703 11614755
0.79098916 0.70381993 1.6226703 11483170
0.77590394 0.67674994 1.5602599 11483685
0.822891 0.70381993 1.6226703 11745570
0.83884192 0.70381993 1.6226703 11352355
0.89040917 0.73314571 1.6902815 11483171
0.9464606 0.76502162 1.763772 11352611
1.0555888 0.83788085 1.9317503 11221284
1.074578 0.83788085 1.9317503 11024677
1.1482457 0.87977493 2.028338 11155748
1.0619857 0.79979533 1.8439435 10369058
1.1315457 0.83788085 1.9317503 10368288
1.1505349 0.83788085 1.9317503 11090468
1.1695241 0.83788085 1.9317503 11155746
1.1885133 0.83788085 1.9317503 11220769
1.2075025 0.83788085 1.9317503 11352355
1.2264916 0.83788085 1.9317503 11352355
1.2454808 0.83788085 1.9317503 11090211
1.0621549 0.70381993 1.6226703 11024163
1.0781058 0.70381993 1.6226703 10893605
1.0940567 0.70381993 1.6226703 11024162
1.1100076 0.70381993 1.6226703 11025189
1.2238679 0.76502162 1.763772 11090723
1.2412059 0.76502162 1.763772 10892575
1.2061045 0.73314571 1.6902815 11023908
1.22272 0.73314571 1.6902815 10958885
1.2393357 0.73314571 1.6902815 10893089
1.2559512 0.73314571 1.6902815 10695710
1.2216641 0.70381993 1.6226703 10695968
1.237615 0.70381993 1.6226703 10630947
1.2535659 0.70381993 1.6226703 10499359
1.2695168 0.70381993 1.6226703 10762789
1.2854677 0.70381993 1.6226703 10368546
1.3014187 0.70381993 1.6226703 10500646
1.2667016 0.67674994 1.5602599 10500646
1.2820389 0.67674994 1.5602599 10565925
1.2973764 0.67674994 1.5602599 10566439
1.3652223 0.70381993 1.6226703 10566441
1.3811733 0.70381993 1.6226703 10435110
1.3971242 0.70381993 1.6226703 10304039
1.4130751 0.70381993 1.6226703 10500646
1.429026 0.70381993 1.6226703 10500646
1.4449769 0.70381993 1.6226703 10172709
1.4609278 0.70381993 1.6226703 10172966
1.4768788 0.70381993 1.6226703 10237735
1.5550309 0.73314571 1.6902815 10042155
1.5716465 0.73314571 1.6902815 9975847
1.5247315 0.70381993 1.6226703 10041383
1.5406824 0.70381993 1.6226703 10041381
1.4413272 0.65168512 1.5024725 10041121
1.3556761 0.60674131 1.3988537 10041379
1.3694268 0.60674131 1.3988537 9975332
1.6044862 0.70381993 1.6226703 10040356
1.6204371 0.70381993 1.6226703 9779235
1.6363881 0.70381993 1.6226703 9712675
1.652339 0.70381993 1.6226703 10041126
1.6682899 0.70381993 1.6226703 10040613
1.6842408 0.70381993 1.6226703 10041380
1.3282747 0.54985929 1.2677112 10107687
1.2618695 0.51751465 1.1931399 10107687
1.2735982 0.51751465 1.1931399 10239016
1.2853268 0.51751465 1.1931399 10107433
1.2970555 0.51751465 1.1931399 10173480
1.2713902 0.50272852 1.1590502 10173993
1.2471509 0.48876384 1.1268544 10239271
1.2941773 0.50272852 1.1590502 10239529
1.3846962 0.53319687 1.2292956 10172964
1.3967803 0.53319687 1.2292956 10632745
1.0566483 0.39989766 0.92197174 10304809
1.0657113 0.39989766 0.92197174 10239272
1.2781099 0.47555399 1.0963988 10239785
0 0 0 10108458
0 0 0 10240045
0 0 0 10501931
0 0 0 10173993
0 0 0 9714471
0 0 0 9517864
0 0 0 7682088
0 0 0 6303007
0 0 0 5975072
0 0 0 6041123
0 0 0 5909282
0 0 0 5711649
0 0 0 5121823
0 0 0 5253153
0 0 0 6697769
-0.91349924 0.33951452 0.76541048 7091241
-0.90597522 0.33951452 0.76541048 7943206
-0.89845121 0.33951452 0.76541048 8795429
-0.8909272 0.33951452 0.76541048 9122595
-0.75516725 0.29023018 0.65430254 9319715
-0.76100981 0.29498804 0.66502881 9319715
-0.75447249 0.29498804 0.66502881 9451043
-0.77328902 0.30498764 0.68757218 9450016
-0.77974612 0.31024605 0.69942683 9581089
-0.77287072 0.31024605 0.69942683 9319202
-0.76599532 0.31024605 0.69942683 9646882
-0.77243787 0.31568897 0.71169752 9450018
-0.75224453 0.31024605 0.69942683 9646882
-0.74536914 0.31024605 0.69942683 9450016
-0.73849374 0.31024605 0.69942683 9384738
-0.73161834 0.31024605 0.69942683 9647138
-0.72474295 0.31024605 0.69942683 9384223
-0.73046178 0.31568897 0.71169752 9712675
-0.72346574 0.31568897 0.71169752 10040608
-0.71646976 0.31568897 0.71169752 9778465
-0.70947373 0.31568897 0.71169752 10040608
-0.71502191 0.32132626 0.72440636 10106401
-0.76235491 0.34604368 0.78012997 10302497
-0.75468624 0.34604368 0.78012997 10368290
-0.79275328 0.36723003 0.82789302 10368289
-0.73934877 0.34604368 0.78012997 10630949
-0.7316801 0.34604368 0.78012997 10696740
-0.71035069 0.33951452 0.76541048 10828327
-0.70282668 0.33951452 0.76541048 10696740
-0.68242675 0.33322725 0.75123626 10697253
-0.67504203 0.33322725 0.75123626 10893859
-0.66765738 0.33322725 0.75123626 10762787
-0.66027266 0.33322725 0.75123626 10893859
-0.66520661 0.33951452 0.76541048 10893859
-0.68347406 0.35282883 0.79542661 10565923
-0.70323277 0.36723003 0.82789302 10434594
-0.69509453 0.36723003 0.82789302 10499618
-0.73175776 0.3911798 0.88188601 10630433
-0.75595647 0.4089607 0.92197174 10630433
-0.76426309 0.41847143 0.94341296 10893602
-0.79181802 0.43888465 0.98943311 11025189
-0.86664236 0.48633164 1.0963988 11156003
-0.93138218 0.52924323 1.1931399 11221541
0 0 0 11090468
0 0 0 11221541
-1.4509845 0.85687 1.9317503 11221539
-1.4319953 0.85687 1.9317503 11352355
-1.4130061 0.85687 1.9317503 11353124
-1.4637178 0.89971358 2.028338 11353125
-1.9250387 1.199618 2.7044504 11222052
-2.0340579 1.285305 2.8976254 11352611
-2.1598489 1.3841747 3.1205199 11614757
-2.1291742 1.3841747 3.1205199 11353125
-2.2733741 1.4995226 3.380563 11353381
-1.9201226 1.285305 2.8976254 11484198
-2.0371497 1.3841747 3.1205199 11287589
-2.0064747 1.3841747 3.1205199 11353125
-1.9757999 1.3841747 3.1205199 11352867
-2.1072187 1.4995226 3.380563 11483684
-2.262532 1.6358428 3.687887 11482656
-2.22628 1.6358428 3.687887 11548962
-2.4090307 1.7994272 4.0566759 11483939
-2.1537757 1.6358428 3.687887 11417889
-1.7917508 1.3841747 3.1205199 11549219
-1.1446993 0.89971358 2.028338 11680549
-0.72565204 0.58046037 1.3086051 11615525
-0.69051379 0.56232095 1.2677112 11615525
-0.63816667 0.52924323 1.1931399 11484709
-0.48406577 0.4089607 0.92197174 11549221
-0.46444714 0.39987269 0.90148348 11484198
-0.41002697 0.35988542 0.81133515 11877668
-0.41025665 0.36723003 0.82789302 11812388
-0.41049588 0.37488064 0.84514076 11418402
-0.40218809 0.37488064 0.84514076 11812134
-0.39388034 0.37488064 0.84514076 11680545
-0.33049077 0.32132626 0.72440636 11680035
-0.31769669 0.31568897 0.71169752 11548962
-0.31624886 0.32132626 0.72440636 11614756
-0.32662573 0.33951452 0.76541048 11615014
-0.31910172 0.33951452 0.76541048 11483173
-0.33027238 0.35988542 0.81133515 11548705
-0.32887441 0.36723003 0.82789302 11483171
-0.32741815 0.37488064 0.84514076 11548962
-0.31911039 0.37488064 0.84514076 11548449
-0.31080261 0.37488064 0.84514076 11483170
-0.29632148 0.36723003 0.82789302 11483169
-0.26643357 0.33951452 0.76541048 11811361
-0.25411496 0.33322725 0.75123626 11286560
-0.24673025 0.33322725 0.75123626 11549474
-0.23934558 0.33322725 0.75123626 11351585
-0.23196089 0.33322725 0.75123626 11286562
-0.22457621 0.33322725 0.75123626 11220769
-0.21719152 0.33322725 0.75123626 11483169
-0.20980683 0.33322725 0.75123626 11286305
-0.19874173 0.32716855 0.73757738 11220769
-0.18807182 0.32132626 0.72440636 11220769
