# .PCD v0.7 - Point Cloud Data file format
VERSION 0.7
FIELDS x y z rgb
SIZE 4 4 4 4
TYPE F F F U
COUNT 1 1 1 1
WIDTH 1206
HEIGHT 1
VIEWPOINT 0 0 0 1 0 0 0
POINTS 1206
DATA ascii
0.86910456 -0.53586942 2.028338 15441512
0.88904321 -0.53586942 2.028338 15309670
0.90898186 -0.53586942 2.028338 15113833
0.92892057 -0.53586942 2.028338 15178087
0.94885921 -0.53586942 2.028338 15638889
1.2109972 -0.66983676 2.5354223 14981480
1.5211331 -0.82441455 3.1205199 15047273
1.4409643 -0.76552773 2.8976254 15244393
1.4694482 -0.76552773 2.8976254 15112808
1.6131576 -0.82441455 3.1205199 14981992
1.6438324 -0.82441455 3.1205199 14981995
1.6745073 -0.82441455 3.1205199 14588007
1.7051822 -0.82441455 3.1205199 14456421
1.735857 -0.82441455 3.1205199 14653798
1.7665318 -0.82441455 3.1205199 14586978
1.7972068 -0.82441455 3.1205199 14455651
1.8278816 -0.82441455 3.1205199 14324323
1.8585564 -0.82441455 3.1205199 14325607
1.8892312 -0.82441455 3.1205199 14192481
1.9199061 -0.82441455 3.1205199 13995872
1.950581 -0.82441455 3.1205199 13733468
1.9812558 -0.82441455 3.1205199 13667421
1.2454808 -0.51035184 1.9317503 13667424
1.26447 -0.51035184 1.9317503 13667683
1.4185603 -0.56407309 2.1350925 13469794
1.4395483 -0.56407309 2.1350925 13338460
1.4605364 -0.56407309 2.1350925 13272667
1.4074482 -0.53586942 2.028338 13142621
1.4273869 -0.53586942 2.028338 13141854
1.3784052 -0.51035184 1.9317503 12944734
1.6302935 -0.59541053 2.2537088 13141086
1.4872029 -0.53586942 2.028338 12944989
1.5864646 -0.56407309 2.1350925 12747100
1.5270802 -0.53586942 2.028338 12681818
1.5470188 -0.53586942 2.028338 12682074
1.5669575 -0.53586942 2.028338 12418906
1.4426327 -0.48715401 1.8439435 12418649
1.4607588 -0.48715401 1.8439435 12419675
1.5493079 -0.51035184 1.9317503 12223066
0 0 0 12419418
0 0 0 11959640
0 0 0 12024920
2.6254277 -0.82441455 3.1205199 12353372
2.6561024 -0.82441455 3.1205199 11893590
2.6867774 -0.82441455 3.1205199 11763033
2.7174523 -0.82441455 3.1205199 11763289
2.5518322 -0.76552773 2.8976254 11958871
2.4082949 -0.71449256 2.7044504 11630418
2.6087997 -0.76552773 2.8976254 11695698
2.8401515 -0.82441455 3.1205199 11696211
2.8708265 -0.82441455 3.1205199 12024406
2.9015014 -0.82441455 3.1205199 11499093
2.9321761 -0.82441455 3.1205199 11433300
2.7512186 -0.76552773 2.8976254 11367507
2.2891667 -0.63043463 2.3862798 11367763
2.312624 -0.63043463 2.3862798 11236690
2.3360813 -0.63043463 2.3862798 11105875
2.3595386 -0.63043463 2.3862798 10974802
2.3829956 -0.63043463 2.3862798 11039573
2.4064529 -0.63043463 2.3862798 10973526
2.2949152 -0.59541053 2.2537088 11039571
2.3170693 -0.59541053 2.2537088 10908242
2.2161064 -0.56407309 2.1350925 11104339
2.2370944 -0.56407309 2.1350925 10907730
2.2580824 -0.56407309 2.1350925 10907987
2.4056857 -0.59541053 2.2537088 10973267
2.5706537 -0.63043463 2.3862798 11300687
3.3922989 -0.82441455 3.1205199 11104338
3.7082214 -0.8931157 3.380563 11235922
4.9886036 -1.1908211 4.5074177 11301714
5.6620255 -1.3396735 5.0708447 11302997
5.7118721 -1.3396735 5.0708447 11236947
5.7617188 -1.3396735 5.0708447 11498321
5.1658363 -1.1908211 4.5074177 11498578
5.861412 -1.3396735 5.0708447 11630678
9.4580145 -2.1434777 8.1133518 11630680
9.5377693 -2.1434777 8.1133518 11696217
9.6175232 -2.1434777 8.1133518 11630679
4.848639 -1.0717388 4.0566759 11827031
4.0737634 -0.8931157 3.380563 11368277
5.4759932 -1.1908211 4.5074177 11433046
0 0 0 11105879
0 0 0 11433817
0 0 0 11630168
0 0 0 11958617
0 0 0 11564886
0 0 0 11236950
0 0 0 11106134
0 0 0 10974291
0 0 0 9790274
0 0 0 9527361
-4.0346217 -0.85988462 3.380563 9857101
-4.0013905 -0.85988462 3.380563 11630422
-5.2908797 -1.1465129 4.5074177 12484439
-3.3727958 -0.73704392 2.8976254 12156244
-3.1213579 -0.6879077 2.7044504 12221266
-2.7306821 -0.6069774 2.3862798 12352593
-2.8764265 -0.64491343 2.5354223 12484435
-3.0416033 -0.6879077 2.7044504 12419156
-3.230377 -0.73704392 2.8976254 12287315
-3.4481928 -0.79373968 3.1205199 12484181
-3.4175179 -0.79373968 3.1205199 12287829
-3.386843 -0.79373968 3.1205199 12353621
-2.7268865 -0.64491343 2.5354223 12089938
-2.8820939 -0.6879077 2.7044504 12155474
-2.855509 -0.6879077 2.7044504 12025683
-3.0309904 -0.73704392 2.8976254 11894099
-2.8023393 -0.6879077 2.7044504 12484439
-2.6022699 -0.64491343 2.5354223 12352855
-2.4257381 -0.6069774 2.3862798 12352595
-2.4022808 -0.6069774 2.3862798 12221781
-2.3788235 -0.6069774 2.3862798 12089679
-2.3553662 -0.6069774 2.3862798 11893842
-2.3319092 -0.6069774 2.3862798 11828308
-2.3084519 -0.6069774 2.3862798 12025171
-2.4278069 -0.64491343 2.5354223 12024914
-2.7461524 -0.73704392 2.8976254 11959635
-2.23808 -0.6069774 2.3862798 12025428
-2.214623 -0.6069774 2.3862798 12024145
-2.1911657 -0.6069774 2.3862798 12352338
-2.1677084 -0.6069774 2.3862798 11696465
-2.1442511 -0.6069774 2.3862798 11893842
-2.1207941 -0.6069774 2.3862798 12221012
-1.9808182 -0.57325643 2.2537088 11958867
-1.8555764 -0.54308504 2.1350925 11958865
-1.742859 -0.51593077 2.028338 11761745
-1.7229203 -0.51593077 2.028338 11564879
-1.7029817 -0.51593077 2.028338 11762004
-1.683043 -0.51593077 2.028338 12155475
-1.6631044 -0.51593077 2.028338 11958865
-1.7296481 -0.54308504 2.1350925 12024402
-1.70866 -0.54308504 2.1350925 11893070
-1.7814316 -0.57325643 2.2537088 11893840
-1.8627644 -0.6069774 2.3862798 12090964
-3.474247 -1.1465129 4.5074177 12090450
-3.4299388 -1.1465129 4.5074177 12484694
-3.8088343 -1.2898269 5.0708447 12287059
-3.7589877 -1.2898269 5.0708447 12025172
-1.8545705 -0.64491343 2.5354223 12024658
-1.8296472 -0.64491343 2.5354223 12418898
-1.8047239 -0.64491343 2.5354223 12157014
-1.6751064 -0.6069774 2.3862798 12419157
-1.6516492 -0.6069774 2.3862798 12550742
-1.729954 -0.64491343 2.5354223 12680790
-1.7050307 -0.64491343 2.5354223 12943957
-1.6801074 -0.64491343 2.5354223 13075541
-1.655184 -0.64491343 2.5354223 13075286
-1.6302607 -0.64491343 2.5354223 12944213
-1.5109057 -0.6069774 2.3862798 12878677
-1.5804141 -0.64491343 2.5354223 13141591
-1.5554907 -0.64491343 2.5354223 13010004
-1.6326052 -0.6879077 2.7044504 13404508
-1.6060203 -0.6879077 2.7044504 13666135
-1.4807208 -0.64491343 2.5354223 13797721
-1.3701624 -0.6069774 2.3862798 13536091
-1.2718883 -0.57325643 2.2537088 13929564
-1.2497342 -0.57325643 2.2537088 13930079
-1.2275801 -0.57325643 2.2537088 13996125
-1.2054261 -0.57325643 2.2537088 14257757
-1.2528762 -0.6069774 2.3862798 13995613
-1.2294189 -0.6069774 2.3862798 14127199
-1.2059617 -0.6069774 2.3862798 14192477
-1.1168098 -0.57325643 2.2537088 14259039
-0.89562738 -0.46902797 1.8439435 14324319
-0.77220118 -0.41274461 1.6226703 14389599
-0.75625026 -0.41274461 1.6226703 14324320
-0.5608328 -0.31268531 1.2292956 14323034
-0.54874879 -0.31268531 1.2292956 14324317
-0.63249773 -0.36852196 1.4488127 14061404
-0.61825585 -0.36852196 1.4488127 13798744
0 0 0 13864284
0 0 0 13666390
0 0 0 13799258
-0.32741815 -0.21497115 0.84514076 13404249
-0.30033919 -0.20232579 0.79542661 13141333
-0.29252011 -0.20232579 0.79542661 12943184
-0.28470105 -0.20232579 0.79542661 10841421
-0.2715573 -0.19843492 0.78012997 7290159
-0.25890955 -0.19469085 0.76541048 6238761
-0.25138554 -0.19469085 0.76541048 5713706
-0.24386151 -0.19469085 0.76541048 5318946
-0.23196089 -0.19108547 0.75123626 3479831
-0.22457621 -0.19108547 0.75123626 1574410
-0.21719152 -0.19108547 0.75123626 1968912
-0.20599215 -0.18761118 0.73757738 2692634
-0.19874173 -0.18761118 0.73757738 3282714
-0.19503745 -0.19108547 0.75123626 3216148
-0.18765277 -0.19108547 0.75123626 3347734
-0.18026808 -0.19108547 0.75123626 3675927
-0.17288339 -0.19108547 0.75123626 4135447
-0.16862132 -0.19469085 0.76541048 4463639
-0.16419533 -0.19843492 0.78012997 4464152
-0.15959577 -0.20232579 0.79542661 2165772
-0.15797167 -0.21058398 0.82789302 1574666
-0.14983343 -0.21058398 0.82789302 983559
-0.1416952 -0.21058398 0.82789302 1049351
-0.13088584 -0.20637231 0.81133515 1705997
-0.12291038 -0.20637231 0.81133515 2952720
-0.11493492 -0.20637231 0.81133515 3543571
-0.1114161 -0.21497115 0.84514076 3937045
-0.10310832 -0.21497115 0.84514076 1443595
-0.094800554 -0.21497115 0.84514076 10975064
-0.088333055 -0.21954501 0.86312246 13600857
-0.081584357 -0.22431771 0.88188601 13995611
-0.072915383 -0.22431771 0.88188601 14389341
-0.064246401 -0.22431771 0.88188601 14324062
-0.055577423 -0.22431771 0.88188601 14257498
-0.047950853 -0.22930256 0.90148348 14389084
-0.042902816 -0.25167355 0.98943311 14389084
0 0 0 14324063
0 0 0 14258012
0 0 0 14192477
-0.0058544013 -0.36852196 1.4488127 14126680
0.008387493 -0.36852196 1.4488127 13798491
0.022629388 -0.36852196 1.4488127 13930075
0.036871281 -0.36852196 1.4488127 13995100
0.0681509 -0.49136263 1.9317503 13666137
0.091497101 -0.51593077 2.028338 13536089
0.11143576 -0.51593077 2.028338 13403733
0.1313744 -0.51593077 2.028338 13009750
0.10808075 -0.36852196 1.4488127 13207383
0.12232265 -0.36852196 1.4488127 13076567
0.1593253 -0.42994231 1.6902815 13207131
0.17594084 -0.42994231 1.6902815 13272919
0.19255638 -0.42994231 1.6902815 13207129
0.22818756 -0.46902797 1.8439435 13009747
0.45157495 -0.85988462 3.380563 13009750
0.48480603 -0.85988462 3.380563 13075540
0.29602119 -0.49136263 1.9317503 13404509
0.26460874 -0.41274461 1.6226703 13338201
0.28055966 -0.41274461 1.6226703 13470040
0.29651058 -0.41274461 1.6226703 13601372
0.32548073 -0.42994231 1.6902815 13667419
0.34209627 -0.42994231 1.6902815 13995358
0.35871181 -0.42994231 1.6902815 13864544
0.32170916 -0.36852196 1.4488127 13864798
0.36179346 -0.39686984 1.5602599 14192990
0.39221612 -0.41274461 1.6226703 14258017
0.40816703 -0.41274461 1.6226703 14586208
0.42411795 -0.41274461 1.6226703 14390880
0.45840508 -0.42994231 1.6902815 14783331
0.47502062 -0.42994231 1.6902815 14324833
0.49163616 -0.42994231 1.6902815 14587235
0.50825173 -0.42994231 1.6902815 14653028
0.62984073 -0.51593077 2.028338 15178341
0.61883748 -0.49136263 1.9317503 15112549
0.63782668 -0.49136263 1.9317503 15047268
0.68965667 -0.51593077 2.028338 15047527
0.70959538 -0.51593077 2.028338 15047525
0.72953403 -0.51593077 2.028338 15179111
0.71378344 -0.49136263 1.9317503 15113318
0.73277265 -0.49136263 1.9317503 15178856
0.78934997 -0.51593077 2.028338 15113320
0.80928862 -0.51593077 2.028338 15244904
0.82922727 -0.51593077 2.028338 15244647
0.84916592 -0.51593077 2.028338 15375717
0.86910456 -0.51593077 2.028338 15441511
0.98782581 -0.57325643 2.2537088 15047783
0.90898186 -0.51593077 2.028338 15506794
0.97781104 -0.54308504 2.1350925 15178341
0.99879909 -0.54308504 2.1350925 15309671
1.2109972 -0.64491343 2.5354223 15113579
1.5211331 -0.79373968 3.1205199 15047527
1.5518079 -0.79373968 3.1205199 14982250
1.5824827 -0.79373968 3.1205199 15177832
1.497932 -0.73704392 2.8976254 15441515
0 0 0 15047013
1.6745073 -0.79373968 3.1205199 14980964
1.7051822 -0.79373968 3.1205199 15046757
1.735857 -0.79373968 3.1205199 14588007
1.7665318 -0.79373968 3.1205199 14652517
1.7972068 -0.79373968 3.1205199 14324579
1.8278816 -0.79373968 3.1205199 14062435
1.8585564 -0.79373968 3.1205199 13930592
1.8892312 -0.79373968 3.1205199 13996642
1.9199061 -0.79373968 3.1205199 13864032
1.950581 -0.79373968 3.1205199 13799009
1.9812558 -0.79373968 3.1205199 13733475
2.0119307 -0.79373968 3.1205199 13733216
2.0426054 -0.79373968 3.1205199 13535838
2.2460537 -0.85988462 3.380563 13404510
2.1039553 -0.79373968 3.1205199 13404254
2.13463 -0.79373968 3.1205199 13273440
1.4815243 -0.54308504 2.1350925 13207649
1.6792786 -0.6069774 2.3862798 13207387
1.4473255 -0.51593077 2.028338 13010783
1.6302935 -0.57325643 2.2537088 13207392
1.5654767 -0.54308504 2.1350925 13010780
1.5864646 -0.54308504 2.1350925 12878937
1.5270802 -0.51593077 2.028338 12747867
1.5470188 -0.51593077 2.028338 12354652
1.5669575 -0.51593077 2.028338 12550234
1.5868961 -0.51593077 2.028338 12354395
1.6068348 -0.51593077 2.028338 12222039
2.7112887 -0.85988462 3.380563 12484184
0 0 0 12484441
0 0 0 12090709
0 0 0 11958097
2.8442132 -0.85988462 3.380563 11893590
2.6561024 -0.79373968 3.1205199 11959637
2.6867774 -0.79373968 3.1205199 11827795
2.9439063 -0.85988462 3.380563 11828055
2.9771376 -0.85988462 3.380563 11697238
3.0103686 -0.85988462 3.380563 11500374
3.0435996 -0.85988462 3.380563 11827027
3.6921971 -1.0318615 4.0566759 11433300
3.7320745 -1.0318615 4.0566759 11629650
2.9015014 -0.79373968 3.1205199 11499605
2.9321761 -0.79373968 3.1205199 11433812
2.962851 -0.79373968 3.1205199 11302484
2.594389 -0.6879077 2.7044504 11171411
2.312624 -0.6069774 2.3862798 11367248
2.3360813 -0.6069774 2.3862798 11105618
2.3595386 -0.6069774 2.3862798 10974546
2.3829956 -0.6069774 2.3862798 11105365
2.4064529 -0.6069774 2.3862798 11169874
2.1741302 -0.54308504 2.1350925 11235667
2.1951182 -0.54308504 2.1350925 11104851
2.2161064 -0.54308504 2.1350925 11170644
2.2370944 -0.54308504 2.1350925 10842451
2.2580824 -0.54308504 2.1350925 10908500
2.4056857 -0.57325643 2.2537088 10973524
2.4278398 -0.57325643 2.2537088 11104851
3.3922989 -0.79373968 3.1205199 11105618
3.4229739 -0.79373968 3.1205199 11301714
3.7414525 -0.85988462 3.380563 11301460
5.0329118 -1.1465129 4.5074177 11302482
5.07722 -1.1465129 4.5074177 11433556
5.1215281 -1.1465129 4.5074177 11499864
4.6492524 -1.0318615 4.0566759 11302232
4.6891298 -1.0318615 4.0566759 11630169
5.2544522 -1.1465129 4.5074177 11629655
9.5377693 -2.0637231 8.1133518 11630168
9.6175232 -2.0637231 8.1133518 11564632
5.3873768 -1.1465129 4.5074177 11564886
4.4441056 -0.93805593 3.687887 11368276
5.4759932 -1.1465129 4.5074177 11434070
0 0 0 11696472
0 0 0 11761240
0 0 0 11695704
0 0 0 11498581
0 0 0 11499093
0 0 0 11302227
0 0 0 11367510
0 0 0 11039573
0 0 0 9724227
0 0 0 9330241
-3.7242663 -0.7630648 3.1205199 9462085
-4.0013905 -0.82665354 3.380563 10315597
-5.2908797 -1.1022048 4.5074177 11958868
-3.9349284 -0.82665354 3.380563 12550230
-2.7541394 -0.58352011 2.3862798 12352851
-2.7306821 -0.58352011 2.3862798 12484437
-2.7072248 -0.58352011 2.3862798 12156243
-2.8515031 -0.61999017 2.5354223 12156500
-3.230377 -0.70856017 2.8976254 12221523
-3.2018931 -0.70856017 2.8976254 12155731
-3.1734092 -0.70856017 2.8976254 12156246
-2.7518098 -0.61999017 2.5354223 12024658
-2.5664814 -0.58352011 2.3862798 12287060
-2.5430243 -0.58352011 2.3862798 12221267
-2.855509 -0.66132277 2.7044504 12419159
-3.0309904 -0.70856017 2.8976254 12156500
-2.6271932 -0.61999017 2.5354223 12090451
-2.6022699 -0.61999017 2.5354223 12090451
-2.4257381 -0.58352011 2.3862798 12156242
-2.4022808 -0.58352011 2.3862798 12156242
-2.3788235 -0.58352011 2.3862798 12222037
-2.3553662 -0.58352011 2.3862798 12221524
-2.3319092 -0.58352011 2.3862798 12155989
-2.3084519 -0.58352011 2.3862798 11958867
-2.2849946 -0.58352011 2.3862798 12025428
-2.4028835 -0.61999017 2.5354223 11828563
-2.23808 -0.58352011 2.3862798 11763027
-2.214623 -0.58352011 2.3862798 12156501
-2.1911657 -0.58352011 2.3862798 12220753
-2.1677084 -0.58352011 2.3862798 12221010
-2.1442511 -0.58352011 2.3862798 12286545
-1.8975525 -0.52209699 2.1350925 12024658
-1.8765645 -0.52209699 2.1350925 12024658
-1.8555764 -0.52209699 2.1350925 12024658
-1.8345883 -0.52209699 2.1350925 12025428
-1.7229203 -0.49599215 2.028338 12024658
-1.7029817 -0.49599215 2.028338 12090194
-1.683043 -0.49599215 2.028338 12221265
-1.6631044 -0.49599215 2.028338 12024656
-1.6431657 -0.49599215 2.028338 11893843
-1.70866 -0.52209699 2.1350925 12221524
-1.6876719 -0.52209699 2.1350925 12156244
-1.9791871 -0.61999017 2.5354223 12352595
-3.474247 -1.1022048 4.5074177 12352593
-2.374573 -0.7630648 3.1205199 12286799
-3.3856306 -1.1022048 4.5074177 12287312
-2.3132234 -0.7630648 3.1205199 12221522
-1.9782085 -0.66132277 2.7044504 12156242
-1.8296472 -0.61999017 2.5354223 12418644
-1.8047239 -0.61999017 2.5354223 12484179
-1.7798005 -0.61999017 2.5354223 12550230
-1.7548773 -0.61999017 2.5354223 12549971
-1.729954 -0.61999017 2.5354223 12812888
-1.7050307 -0.61999017 2.5354223 12747348
0 0 0 13141590
0 0 0 13207126
0 0 0 13076055
-1.5109057 -0.58352011 2.3862798 13207385
-1.5804141 -0.61999017 2.5354223 13337942
-1.5554907 -0.61999017 2.5354223 13535580
-1.5305674 -0.61999017 2.5354223 13338715
-1.5056441 -0.61999017 2.5354223 13470299
-1.3936195 -0.58352011 2.3862798 13732698
-1.2940422 -0.5511024 2.2537088 14061148
-1.2718883 -0.5511024 2.2537088 13995868
-1.2497342 -0.5511024 2.2537088 13864541
-1.2275801 -0.5511024 2.2537088 14192990
-1.2054261 -0.5511024 2.2537088 14324835
-1.183272 -0.5511024 2.2537088 14455904
-1.2294189 -0.58352011 2.3862798 14455903
-1.2059617 -0.58352011 2.3862798 14586975
-1.0051289 -0.49599215 2.028338 14521440
-0.89562738 -0.45090193 1.8439435 14456931
-0.87750131 -0.45090193 1.8439435 14390879
-0.8593753 -0.45090193 1.8439435 14718560
-0.77114511 -0.41332677 1.6902815 14586974
-0.64673966 -0.35428008 1.4488127 14521183
-0.63249773 -0.35428008 1.4488127 14389853
-0.57703876 -0.33066139 1.3522252 14455136
-0.45709166 -0.26810384 1.0963988 13865052
-0.44631401 -0.26810384 1.0963988 14061147
0 0 0 13930074
-0.34924603 -0.22044094 0.90148348 13797719
-0.31259793 -0.20244576 0.82789302 13470294
-0.29837051 -0.19839685 0.81133515 13273176
-0.28470105 -0.19450672 0.79542661 11761743
-0.27688196 -0.19450672 0.79542661 6830632
-0.25890955 -0.18716682 0.76541048 5319461
-0.25138554 -0.18716682 0.76541048 4859685
-0.24386151 -0.18716682 0.76541048 4201501
-0.23196089 -0.18370079 0.75123626 2297619
-0.22457621 -0.18370079 0.75123626 2166547
-0.21719152 -0.18370079 0.75123626 2560276
-0.20980683 -0.18370079 0.75123626 3217689
-0.20242214 -0.18370079 0.75123626 3348245
-0.19503745 -0.18370079 0.75123626 2888466
-0.18765277 -0.18370079 0.75123626 2822673
-0.18026808 -0.18370079 0.75123626 3085075
-0.17288339 -0.18370079 0.75123626 3938068
-0.16862132 -0.18716682 0.76541048 4464152
-0.16419533 -0.1907662 0.78012997 4530459
-0.15652663 -0.1907662 0.78012997 3216146
-0.15177669 -0.19450672 0.79542661 1706252
-0.14683676 -0.19839685 0.81133515 1312267
-0.1388613 -0.19839685 0.81133515 1246731
-0.13088584 -0.19839685 0.81133515 1705996
-0.12291038 -0.19839685 0.81133515 2952977
-0.11493492 -0.19839685 0.81133515 4528920
-0.1091423 -0.20244576 0.82789302 3805200
-0.10310832 -0.20666339 0.84514076 1771530
-0.09681759 -0.21106046 0.86312246 10120791
-0.088333055 -0.21106046 0.86312246 13930587
-0.081584357 -0.21564874 0.88188601 14259296
-0.076229714 -0.22545096 0.92197174 14521441
-0.068728708 -0.23069401 0.94341296 14586973
-0.055577423 -0.21564874 0.88188601 14455645
-0.051375914 -0.23618671 0.96587515 14520667
-0.042902816 -0.24194738 0.98943311 14520669
0 0 0 14521696
0 0 0 14454878
0 0 0 14389341
-0.0058544013 -0.35428008 1.4488127 13799002
0.008387493 -0.35428008 1.4488127 13929820
0.022629388 -0.35428008 1.4488127 13930075
0.04916171 -0.47237343 1.9317503 13929048
0.0681509 -0.47237343 1.9317503 13601882
0.091497101 -0.49599215 2.028338 13338710
0.11143576 -0.49599215 2.028338 13469526
0.1313744 -0.49599215 2.028338 13273176
0.10808075 -0.35428008 1.4488127 13600342
0.12232265 -0.35428008 1.4488127 13273176
0.1593253 -0.41332677 1.6902815 13272919
0.17594084 -0.41332677 1.6902815 13272665
0.21006151 -0.45090193 1.8439435 13272919
0.38616356 -0.7630648 3.1205199 13206872
0.60209996 -1.1022048 4.5074177 13010520
0.64640808 -1.1022048 4.5074177 13536089
0.29602119 -0.47237343 1.9317503 13338715
0.27563411 -0.41332677 1.6902815 13601371
0.28055966 -0.39679369 1.6226703 13863770
0.29651058 -0.39679369 1.6226703 13536091
0.45950222 -0.58352011 2.3862798 13733468
0.68419254 -0.82665354 3.380563 13864799
0.53806776 -0.61999017 2.5354223 14126685
0.37532735 -0.41332677 1.6902815 14061405
0.3762652 -0.39679369 1.6226703 14258527
0.39221612 -0.39679369 1.6226703 14127455
0.425174 -0.41332677 1.6902815 14520929
0.44178954 -0.41332677 1.6902815 14521698
0.45840508 -0.41332677 1.6902815 14521442
0.47502062 -0.41332677 1.6902815 14914912
0.65551496 -0.5511024 2.2537088 14588007
0.67766899 -0.5511024 2.2537088 14784101
0.74098909 -0.58352011 2.3862798 14915939
0.76444632 -0.58352011 2.3862798 14915171
0.78790355 -0.58352011 2.3862798 14982502
0.72595441 -0.52209699 2.1350925 15309926
0.74694246 -0.52209699 2.1350925 15244133
0.72953403 -0.49599215 2.028338 15310181
0.74947268 -0.49599215 2.028338 15113572
0.73277265 -0.47237343 1.9317503 15375973
0.78934997 -0.49599215 2.028338 15375717
0.80928862 -0.49599215 2.028338 15507561
0.82922727 -0.49599215 2.028338 15507049
0.94351768 -0.5511024 2.2537088 15375463
1.022476 -0.58352011 2.3862798 15440999
1.1853908 -0.66132277 2.7044504 15310441
1.2119757 -0.66132277 2.7044504 15114346
1.2385606 -0.66132277 2.7044504 15506020
1.1860739 -0.61999017 2.5354223 15244136
1.4904583 -0.7630648 3.1205199 15245419
1.5211331 -0.7630648 3.1205199 14917994
1.4409643 -0.70856017 2.8976254 14654313
1.371485 -0.66132277 2.7044504 14851177
1.3980699 -0.66132277 2.7044504 14915171
1.5264157 -0.70856017 2.8976254 14850406
1.5548996 -0.70856017 2.8976254 14916454
1.7051822 -0.7630648 3.1205199 14717540
1.735857 -0.7630648 3.1205199 14586982
1.7665318 -0.7630648 3.1205199 14194278
1.7972068 -0.7630648 3.1205199 14259042
1.8278816 -0.7630648 3.1205199 14194021
1.8585564 -0.7630648 3.1205199 13930848
1.8892312 -0.7630648 3.1205199 14061920
1.9199061 -0.7630648 3.1205199 13733473
1.950581 -0.7630648 3.1205199 13799266
1.9812558 -0.7630648 3.1205199 13536095
2.0119307 -0.7630648 3.1205199 13601632
2.0426054 -0.7630648 3.1205199 13535325
2.2460537 -0.82665354 3.380563 13272924
2.2792847 -0.82665354 3.380563 13273182
2.13463 -0.7630648 3.1205199 13338718
2.1653049 -0.7630648 3.1205199 13272927
2.1959798 -0.7630648 3.1205199 13076576
2.2266545 -0.7630648 3.1205199 13076578
2.2573295 -0.7630648 3.1205199 12879195
1.5654767 -0.52209699 2.1350925 12878684
1.5864646 -0.52209699 2.1350925 12616026
1.5270802 -0.49599215 2.028338 12616282
1.5470188 -0.49599215 2.028338 12616025
1.7410638 -0.5511024 2.2537088 12420188
1.5868961 -0.49599215 2.028338 12157018
2.0085433 -0.61999017 2.5354223 12353371
2.7112887 -0.82665354 3.380563 12484441
0 0 0 12288346
0 0 0 12090454
3.0665259 -0.90180385 3.687887 12221526
2.8442132 -0.82665354 3.380563 12025180
2.8774443 -0.82665354 3.380563 11827797
2.6867774 -0.7630648 3.1205199 11893332
2.9439063 -0.82665354 3.380563 11696211
2.9771376 -0.82665354 3.380563 11629908
3.0103686 -0.82665354 3.380563 11695443
3.0435996 -0.82665354 3.380563 11564884
2.8401515 -0.7630648 3.1205199 11564885
3.1100619 -0.82665354 3.380563 11630677
2.9015014 -0.7630648 3.1205199 11564885
2.9321761 -0.7630648 3.1205199 11498834
2.962851 -0.7630648 3.1205199 11170384
2.4322398 -0.61999017 2.5354223 11367252
2.4571631 -0.61999017 2.5354223 11170646
2.4820864 -0.61999017 2.5354223 11498836
2.5070097 -0.61999017 2.5354223 11367507
2.3829956 -0.58352011 2.3862798 11367507
2.4064529 -0.58352011 2.3862798 11235667
2.2949152 -0.5511024 2.2537088 11433302
2.1951182 -0.52209699 2.1350925 10973269
2.1053011 -0.49599215 2.028338 11039317
2.2370944 -0.52209699 2.1350925 10973780
2.2580824 -0.52209699 2.1350925 10842194
2.2790704 -0.52209699 2.1350925 10842964
2.4278398 -0.5511024 2.2537088 10973519
3.3922989 -0.7630648 3.1205199 11105105
3.4229739 -0.7630648 3.1205199 11170899
3.7414525 -0.82665354 3.380563 11105362
3.7746835 -0.82665354 3.380563 11105618
4.5694981 -0.99198431 4.0566759 11302484
4.609375 -0.99198431 4.0566759 11170646
4.226593 -0.90180385 3.687887 11235669
4.262845 -0.90180385 3.687887 11564630
4.7290072 -0.99198431 4.0566759 11498838
5.2987604 -1.1022048 4.5074177 11433557
6.010952 -1.2399803 5.0708447 11564886
4.4078536 -0.90180385 3.687887 11630679
4.4441056 -0.90180385 3.687887 11498836
4.4803576 -0.90180385 3.687887 11367253
0 0 0 11302230
0 0 0 11105364
0 0 0 11367254
0 0 0 11367766
0 0 0 11434070
0 0 0 11368277
0 0 0 11040341
0 0 0 10973780
0 0 0 9592895
0 0 0 9330495
-3.2276974 -0.63473791 2.7044504 9199168
-3.6935916 -0.73238999 3.1205199 9462342
-5.2908797 -1.0578966 4.5074177 10973519
-5.2465715 -1.0578966 4.5074177 12287318
-5.8525462 -1.1901337 5.0708447 12287317
-2.9013498 -0.59506685 2.5354223 12221523
-2.8764265 -0.59506685 2.5354223 12352852
-3.0416033 -0.63473791 2.7044504 12024659
-3.230377 -0.68007636 2.8976254 12025430
-3.2018931 -0.68007636 2.8976254 12222812
-3.1734092 -0.68007636 2.8976254 12221267
-2.7518098 -0.59506685 2.5354223 12287060
-2.5664814 -0.56006289 2.3862798 12287060
-2.5430243 -0.56006289 2.3862798 12221265
-2.6770399 -0.59506685 2.5354223 12090449
-3.0309904 -0.68007636 2.8976254 12156242
-2.8023393 -0.63473791 2.7044504 12222037
-2.6022699 -0.59506685 2.5354223 11959890
-2.4257381 -0.56006289 2.3862798 11959893
-2.4022808 -0.56006289 2.3862798 12025172
-2.3788235 -0.56006289 2.3862798 12156501
-2.5025768 -0.59506685 2.5354223 12221267
-2.4776535 -0.59506685 2.5354223 12090453
-2.3084519 -0.56006289 2.3862798 11894101
-2.2849946 -0.56006289 2.3862798 11893840
-2.2615373 -0.56006289 2.3862798 12221524
-2.23808 -0.56006289 2.3862798 12024402
-2.3530369 -0.59506685 2.5354223 12024401
-2.1911657 -0.56006289 2.3862798 12024657
-2.1677084 -0.56006289 2.3862798 12089938
-2.1442511 -0.56006289 2.3862798 12090451
-2.0029721 -0.52894831 2.2537088 12221269
-1.8765645 -0.50110894 2.1350925 12155474
-1.8555764 -0.50110894 2.1350925 12155476
-1.8345883 -0.50110894 2.1350925 12287318
-1.8136003 -0.50110894 2.1350925 12090451
-1.7926122 -0.50110894 2.1350925 12286802
-1.683043 -0.47605348 2.028338 12156496
-1.7506361 -0.50110894 2.1350925 12221265
-1.7296481 -0.50110894 2.1350925 12287058
-1.70866 -0.50110894 2.1350925 12221265
-1.7814316 -0.52894831 2.2537088 12222037
-1.7592775 -0.52894831 2.2537088 12221780
-2.4052479 -0.73238999 3.1205199 12352853
-2.572454 -0.7934224 3.380563 12156500
0 0 0 12549717
0 0 0 12616025
-2.1195092 -0.68007636 2.8976254 12484948
-1.8296472 -0.59506685 2.5354223 12419154
-1.8047239 -0.59506685 2.5354223 12484437
-1.6751064 -0.56006289 2.3862798 12747096
-1.6516492 -0.56006289 2.3862798 12878166
-1.6281919 -0.56006289 2.3862798 12878166
-1.6047347 -0.56006289 2.3862798 12550482
-1.5812775 -0.56006289 2.3862798 13075540
-1.5578202 -0.56006289 2.3862798 13272405
-1.534363 -0.56006289 2.3862798 13272665
-1.5109057 -0.56006289 2.3862798 13469273
-1.5804141 -0.59506685 2.5354223 13404762
-1.5554907 -0.59506685 2.5354223 13666906
-1.5305674 -0.59506685 2.5354223 13535319
-1.4170768 -0.56006289 2.3862798 13733212
-1.3936195 -0.56006289 2.3862798 13929307
-1.2259347 -0.50110894 2.1350925 13929819
-1.2718883 -0.52894831 2.2537088 14192477
-1.3232479 -0.56006289 2.3862798 14586208
-1.2997906 -0.56006289 2.3862798 14586206
-1.2054261 -0.52894831 2.2537088 14259040
-1.183272 -0.52894831 2.2537088 14587231
-1.2294189 -0.56006289 2.3862798 14652767
-1.2813343 -0.59506685 2.5354223 14586976
-1.256411 -0.59506685 2.5354223 14521953
-0.98519015 -0.47605348 2.028338 14588257
-0.87750131 -0.43277588 1.8439435 14653023
-0.8593753 -0.43277588 1.8439435 14718560
-0.74029934 -0.38084278 1.6226703 14980962
-0.64673966 -0.34003818 1.4488127 14652767
-0.61068749 -0.32831272 1.3988537 14521437
-0.46786931 -0.25732619 1.0963988 14586718
-0.44506294 -0.25055447 1.0675462 14455132
-0.44631401 -0.25732619 1.0963988 14324575
-0.48832861 -0.28851724 1.2292956 14258011
-0.47624457 -0.28851724 1.2292956 13930329
-0.31259793 -0.19430754 0.82789302 13601882
-0.29837051 -0.19042139 0.81133515 13535317
-0.29039505 -0.19042139 0.81133515 10379576
-0.2715573 -0.1830975 0.78012997 2428425
-0.25890955 -0.17964281 0.76541048 2297617
-0.25138554 -0.17964281 0.76541048 4203042
-0.24386151 -0.17964281 0.76541048 4465695
-0.23196089 -0.1763161 0.75123626 3348247
-0.22049299 -0.17311035 0.73757738 2099469
-0.21719152 -0.1763161 0.75123626 1640461
-0.20980683 -0.1763161 0.75123626 2561046
-0.20242214 -0.1763161 0.75123626 2362381
-0.19503745 -0.1763161 0.75123626 2098955
-0.18765277 -0.1763161 0.75123626 1903116
-0.18026808 -0.1763161 0.75123626 2887698
-0.17614534 -0.17964281 0.76541048 3610388
-0.16862132 -0.17964281 0.76541048 4464152
-0.1610973 -0.17964281 0.76541048 4529943
-0.15652663 -0.1830975 0.78012997 4267032
-0.14885791 -0.1830975 0.78012997 2100238
-0.14395761 -0.18668763 0.79542661 1574924
-0.13613853 -0.18668763 0.79542661 1837838
-0.12831944 -0.18668763 0.79542661 2756625
-0.12291038 -0.19042139 0.81133515 2296334
-0.11728053 -0.19430754 0.82789302 2689291
-0.1091423 -0.19430754 0.82789302 4331027
-0.10310832 -0.1983556 0.84514076 1902346
-0.09681759 -0.20257594 0.86312246 11566946
-0.090253338 -0.20697977 0.88188601 14193245
-0.085292742 -0.21638794 0.92197174 14389343
-0.081807502 -0.2322212 0.98943311 14652766
-0.070365109 -0.22669213 0.96587515 14980958
-0.06087051 -0.22669213 0.96587515 14718815
-0.051375914 -0.22669213 0.96587515 14587230
-0.042902816 -0.2322212 0.98943311 14718561
-0.034006059 -0.23802674 1.014169 14718561
-0.026707483 -0.26447415 1.1268544 14521696
0 0 0 14389856
0 0 0 14324317
0 0 0 14126938
0.030172516 -0.45338425 1.9317503 14126429
0.051619798 -0.47605348 2.028338 14192222
0.071558453 -0.47605348 2.028338 13536348
0.091497101 -0.47605348 2.028338 13470553
0.11143576 -0.47605348 2.028338 13666907
0.13828884 -0.50110894 2.1350925 13338712
0.1592769 -0.50110894 2.1350925 13272665
0.18026496 -0.50110894 2.1350925 13469274
0.18208605 -0.45338425 1.9317503 13338458
0.20107524 -0.45338425 1.9317503 13338458
0.22006443 -0.45338425 1.9317503 13206872
0.38616356 -0.73238999 3.1205199 13536089
0.45157495 -0.7934224 3.380563 13273176
0.64640808 -1.0578966 4.5074177 13470044
0.38852784 -0.59506685 2.5354223 13470301
0.27563411 -0.3967112 1.6902815 13339739
0.28055966 -0.38084278 1.6226703 13797980
0.43604496 -0.56006289 2.3862798 13667676
0.60088754 -0.73238999 3.1205199 13930335
0 0 0 14126685
0 0 0 14127711
0.64341831 -0.68007636 2.8976254 14127708
0.55333114 -0.56006289 2.3862798 14390113
0.40855846 -0.3967112 1.6902815 14390371
0.425174 -0.3967112 1.6902815 14455903
0.44178954 -0.3967112 1.6902815 14390624
0.64716011 -0.56006289 2.3862798 14653024
0.71253097 -0.59506685 2.5354223 14719075
0.73745424 -0.59506685 2.5354223 14849894
0.81320274 -0.63473791 2.7044504 14914919
0.8397876 -0.63473791 2.7044504 14916193
0.81222421 -0.59506685 2.5354223 15047273
0.78790355 -0.56006289 2.3862798 14850660
0.72595441 -0.50110894 2.1350925 15179110
0.74694246 -0.50110894 2.1350925 14982247
0.81059337 -0.52894831 2.2537088 15113576
0.93684077 -0.59506685 2.5354223 15441509
0.85490143 -0.52894831 2.2537088 15244904
0.78934997 -0.47605348 2.028338 15047270
0.80928862 -0.47605348 2.028338 15311210
0.97556144 -0.56006289 2.3862798 15179624
0.99901867 -0.56006289 2.3862798 15244136
1.2415779 -0.68007636 2.8976254 15178341
1.2700616 -0.68007636 2.8976254 15244136
1.2985455 -0.68007636 2.8976254 15047784
1.3270292 -0.68007636 2.8976254 15178855
1.4597833 -0.73238999 3.1205199 15047783
1.4904583 -0.73238999 3.1205199 15047527
1.2359205 -0.59506685 2.5354223 15113318
1.2608439 -0.59506685 2.5354223 15179110
1.2857672 -0.59506685 2.5354223 14981735
1.3106905 -0.59506685 2.5354223 14784101
1.5264157 -0.68007636 2.8976254 14784099
1.6745073 -0.73238999 3.1205199 14652772
1.7051822 -0.73238999 3.1205199 14652257
1.735857 -0.73238999 3.1205199 14521189
1.7665318 -0.73238999 3.1205199 14651745
1.7972068 -0.73238999 3.1205199 14259560
1.8278816 -0.73238999 3.1205199 14127458
1.8585564 -0.73238999 3.1205199 14126688
1.8892312 -0.73238999 3.1205199 14127458
1.9199061 -0.73238999 3.1205199 14060636
1.950581 -0.73238999 3.1205199 13930083
1.9812558 -0.73238999 3.1205199 13667678
2.0119307 -0.73238999 3.1205199 13733470
2.2128224 -0.7934224 3.380563 13405028
2.2460537 -0.7934224 3.380563 13338717
2.2792847 -0.7934224 3.380563 13338717
2.13463 -0.73238999 3.1205199 13272922
2.1653049 -0.73238999 3.1205199 13272927
2.378978 -0.7934224 3.380563 12748383
2.2266545 -0.73238999 3.1205199 12748126
2.2573295 -0.73238999 3.1205199 12813149
2.2880044 -0.73238999 3.1205199 12878686
1.6746017 -0.52894831 2.2537088 12681563
1.6074528 -0.50110894 2.1350925 12485209
1.5470188 -0.47605348 2.028338 12484952
1.9586967 -0.59506685 2.5354223 12288601
1.98362 -0.59506685 2.5354223 12354395
2.6780577 -0.7934224 3.380563 12222814
2.9577696 -0.86555177 3.687887 12157021
3.6593602 -1.0578966 4.5074177 12222042
2.777751 -0.7934224 3.380563 12025430
2.810982 -0.7934224 3.380563 11959383
2.8442132 -0.7934224 3.380563 11828057
2.8774443 -0.7934224 3.380563 11827800
2.9106753 -0.7934224 3.380563 11696216
2.9439063 -0.7934224 3.380563 11630679
2.9771376 -0.7934224 3.380563 11630675
3.0103686 -0.7934224 3.380563 11695443
3.0435996 -0.7934224 3.380563 11761238
3.0768309 -0.7934224 3.380563 11564884
3.3927948 -0.86555177 3.687887 11302483
3.4290469 -0.86555177 3.687887 11368277
3.1765239 -0.7934224 3.380563 11302230
2.962851 -0.73238999 3.1205199 11039825
2.993526 -0.73238999 3.1205199 11171927
2.4571631 -0.59506685 2.5354223 11367253
2.4820864 -0.59506685 2.5354223 11433045
2.5070097 -0.59506685 2.5354223 11170386
2.5319331 -0.59506685 2.5354223 11170646
2.9221213 -0.68007636 2.8976254 11236437
2.9506052 -0.68007636 2.8976254 11235925
2.4533675 -0.56006289 2.3862798 10908244
2.2161064 -0.50110894 2.1350925 10711891
2.1252398 -0.47605348 2.028338 10842705
2.2580824 -0.50110894 2.1350925 11104851
2.2790704 -0.50110894 2.1350925 10842709
3.1215079 -0.68007636 2.8976254 10974039
3.3922989 -0.73238999 3.1205199 11301459
3.4229739 -0.73238999 3.1205199 11236691
3.7414525 -0.7934224 3.380563 11237202
3.7746835 -0.7934224 3.380563 11170896
4.154089 -0.86555177 3.687887 11170897
4.190341 -0.86555177 3.687887 11433556
4.226593 -0.86555177 3.687887 11302484
4.262845 -0.86555177 3.687887 11433300
4.7290072 -0.95210695 4.0566759 11237204
5.2987604 -1.0578966 4.5074177 11105618
4.8087616 -0.95210695 4.0566759 11302226
4.0405321 -0.7934224 3.380563 11367508
4.4441056 -0.86555177 3.687887 11564633
4.4803576 -0.86555177 3.687887 11498839
0 0 0 11630425
0 0 0 11564632
0 0 0 11498836
0 0 0 11302999
0 0 0 11106133
0 0 0 11171925
0 0 0 11367253
0 0 0 11170645
0 0 0 9528387
0 0 0 9264703
-3.2276974 -0.60815305 2.7044504 9198911
-3.6935916 -0.70171511 3.1205199 9462342
-4.3289013 -0.82929963 3.687887 9658693
-5.2465715 -1.0135885 4.5074177 11236177
-5.8525462 -1.140287 5.0708447 12090453
-5.1579552 -1.0135885 4.5074177 12221783
-5.1136475 -1.0135885 4.5074177 12484441
-4.1476407 -0.82929963 3.687887 12090453
-3.230377 -0.65159255 2.8976254 12025430
-3.2018931 -0.65159255 2.8976254 12156759
-2.7767332 -0.57014352 2.5354223 12025173
-2.7518098 -0.57014352 2.5354223 12221267
-2.5664814 -0.53660566 2.3862798 12090453
-2.7019632 -0.57014352 2.5354223 12352855
-2.6770399 -0.57014352 2.5354223 12024658
-2.8289242 -0.60815305 2.7044504 12352338
-3.0025065 -0.65159255 2.8976254 12352339
-2.7757545 -0.60815305 2.7044504 12155985
-2.5773466 -0.57014352 2.5354223 12155472
-2.4022808 -0.53660566 2.3862798 12024658
-2.5275002 -0.57014352 2.5354223 12156244
-2.5025768 -0.57014352 2.5354223 12025430
-2.8316038 -0.65159255 2.8976254 12155987
-3.0187449 -0.70171511 3.1205199 12352082
-2.4278069 -0.57014352 2.5354223 12287314
-2.2615373 -0.53660566 2.3862798 12222037
-2.3779602 -0.57014352 2.5354223 12221267
-2.3530369 -0.57014352 2.5354223 12155474
-2.3281136 -0.57014352 2.5354223 12352853
-2.1677084 -0.53660566 2.3862798 12484438
-2.0251262 -0.50679427 2.2537088 12287315
-2.0029721 -0.50679427 2.2537088 12221265
-1.8765645 -0.48012087 2.1350925 12351826
-1.8555764 -0.48012087 2.1350925 12221269
-1.8345883 -0.48012087 2.1350925 12090453
-1.8136003 -0.48012087 2.1350925 12156244
-1.7926122 -0.48012087 2.1350925 12090451
-1.8700478 -0.50679427 2.2537088 12090450
-1.8478937 -0.50679427 2.2537088 12419156
-2.5279472 -0.70171511 3.1205199 12155987
-2.4972725 -0.70171511 3.1205199 12287059
-1.7814316 -0.50679427 2.2537088 12287574
-1.7592775 -0.50679427 2.2537088 12287830
-1.7371235 -0.50679427 2.2537088 12550230
-2.374573 -0.70171511 3.1205199 12222035
-2.5392227 -0.76019132 3.380563 12419415
-2.0047934 -0.60815305 2.7044504 12419413
-1.9782085 -0.60815305 2.7044504 12746835
-1.8296472 -0.57014352 2.5354223 12878418
-1.8047239 -0.57014352 2.5354223 12747861
-1.6751064 -0.53660566 2.3862798 12943958
-1.6516492 -0.53660566 2.3862798 12878166
-1.6281919 -0.53660566 2.3862798 13141337
-1.6047347 -0.53660566 2.3862798 13272666
-1.4934288 -0.50679427 2.2537088 13272665
-1.3938391 -0.48012087 2.1350925 13273175
-1.534363 -0.53660566 2.3862798 13272917
-1.5109057 -0.53660566 2.3862798 13535577
-1.5804141 -0.57014352 2.5354223 13338458
-1.5554907 -0.57014352 2.5354223 13536608
-1.5305674 -0.57014352 2.5354223 13798747
-1.4170768 -0.53660566 2.3862798 14061149
-1.4807208 -0.57014352 2.5354223 14455394
-1.4557974 -0.57014352 2.5354223 14324320
-1.3467051 -0.53660566 2.3862798 14324063
-1.3232479 -0.53660566 2.3862798 14586975
-1.2997906 -0.53660566 2.3862798 14719073
-1.2763333 -0.53660566 2.3862798 14653026
-1.183272 -0.50679427 2.2537088 14652767
-1.2294189 -0.53660566 2.3862798 14849376
-1.2813343 -0.57014352 2.5354223 14784350
-1.256411 -0.57014352 2.5354223 14784353
-1.2314876 -0.57014352 2.5354223 14849630
-1.13559 -0.53660566 2.3862798 15112802
-0.94531286 -0.45611483 2.028338 14850913
-0.88130873 -0.43439505 1.9317503 14719327
-0.86231953 -0.43439505 1.9317503 14849377
-0.61068749 -0.31456193 1.3988537 14850660
-0.48086569 -0.25339714 1.1268544 14652509
-0.45709166 -0.24654855 1.0963988 14521692
-0.44631401 -0.24654855 1.0963988 14521182
-0.48832861 -0.2764332 1.2292956 14586204
-0.34165373 -0.19831078 0.88188601 14127454
-0.31259793 -0.18616931 0.82789302 14126171
-0.29837051 -0.18244593 0.81133515 13929820
-0.29039505 -0.18244593 0.81133515 9986359
-0.27688196 -0.17886855 0.79542661 3546398
-0.25890955 -0.1721188 0.76541048 2889238
-0.25138554 -0.1721188 0.76541048 2692120
-0.24386151 -0.1721188 0.76541048 6895660
-0.23196089 -0.16893141 0.75123626 4267033
-0.22049299 -0.16585992 0.73757738 2493712
-0.21324256 -0.16585992 0.73757738 2099983
-0.20980683 -0.16893141 0.75123626 1706255
-0.20242214 -0.16893141 0.75123626 1969943
-0.19503745 -0.16893141 0.75123626 2560278
-0.18765277 -0.16893141 0.75123626 3151640
-0.18026808 -0.16893141 0.75123626 3742492
-0.17288339 -0.16893141 0.75123626 4529945
-0.16862132 -0.1721188 0.76541048 4398619
-0.1610973 -0.1721188 0.76541048 4529944
-0.15357327 -0.1721188 0.76541048 4332566
-0.14885791 -0.17542878 0.78012997 2558992
-0.1411892 -0.17542878 0.78012997 2099983
-0.13613853 -0.17886855 0.79542661 1902860
-0.12831944 -0.17886855 0.79542661 3610391
-0.12291038 -0.18244593 0.81133515 3083536
-0.11728053 -0.18616931 0.82789302 2952721
-0.1114161 -0.19004783 0.84514076 4856856
-0.10310832 -0.19004783 0.84514076 1771530
-0.09681759 -0.19409141 0.86312246 12485985
-0.092258967 -0.20271769 0.90148348 14586716
-0.091533676 -0.22249503 0.98943311 14652254
-0.081807502 -0.22249503 0.98943311 14850400
-0.072081327 -0.22249503 0.98943311 14916449
-0.062355161 -0.22249503 0.98943311 15113058
-0.052628987 -0.22249503 0.98943311 15047267
-0.042902816 -0.22249503 0.98943311 14915168
-0.037784513 -0.25339714 1.1268544 14915423
-0.029135432 -0.2764332 1.2292956 14652766
0 0 0 14652512
0 0 0 14455647
0 0 0 14388827
0 0 0 14191964
0.054336626 -0.48012087 2.1350925 14126686
0.075324684 -0.48012087 2.1350925 13733468
0.096312739 -0.48012087 2.1350925 13601882
0.12381751 -0.50679427 2.2537088 13469528
0.14597157 -0.50679427 2.2537088 13666137
0.17801537 -0.53660566 2.3862798 13272919
0.2014726 -0.53660566 2.3862798 13404505
0.23898795 -0.57014352 2.5354223 13731415
0.26391128 -0.57014352 2.5354223 13600344
0.28883457 -0.57014352 2.5354223 13141590
0.38616356 -0.70171511 3.1205199 13273174
0.41683844 -0.70171511 3.1205199 13338712
0.64640808 -1.0135885 4.5074177 13666905
0.38852784 -0.57014352 2.5354223 13732698
0.28761819 -0.39662156 1.763772 13864286
0.29224965 -0.38009566 1.6902815 14126173
0.46329778 -0.57014352 2.5354223 13995100
0.60088754 -0.70171511 3.1205199 14061406
0.63156235 -0.70171511 3.1205199 14258272
0.53806776 -0.57014352 2.5354223 14061662
0.6929121 -0.70171511 3.1205199 14390112
0.67190212 -0.65159255 2.8976254 14455136
0.70038593 -0.65159255 2.8976254 14390115
0.637761 -0.57014352 2.5354223 14652258
0.66268432 -0.57014352 2.5354223 14586979
0.68760765 -0.57014352 2.5354223 14391139
0.71253097 -0.57014352 2.5354223 14980705
0.78661782 -0.60815305 2.7044504 15047525
0.93831086 -0.70171511 3.1205199 14719075
0.96898574 -0.70171511 3.1205199 15046757
0.99966061 -0.70171511 3.1205199 15244136
1.0303354 -0.70171511 3.1205199 14981734
0.72595441 -0.48012087 2.1350925 15309159
0.83481801 -0.53660566 2.3862798 15047526
0.91191745 -0.57014352 2.5354223 15244649
1.1530348 -0.70171511 3.1205199 15113576
0.9617641 -0.57014352 2.5354223 15047527
0.92864698 -0.53660566 2.3862798 15506534
0.95210421 -0.53660566 2.3862798 15441512
0.97556144 -0.53660566 2.3862798 15244388
1.0614574 -0.57014352 2.5354223 15244136
1.2415779 -0.65159255 2.8976254 14982247
1.111304 -0.57014352 2.5354223 15179113
1.1362273 -0.57014352 2.5354223 15047273
1.4291085 -0.70171511 3.1205199 14916454
1.4597833 -0.70171511 3.1205199 15048039
1.4904583 -0.70171511 3.1205199 14915683
1.4124806 -0.65159255 2.8976254 14916452
1.2608439 -0.57014352 2.5354223 14784101
1.2857672 -0.57014352 2.5354223 14981735
1.497932 -0.65159255 2.8976254 14915941
1.6438324 -0.70171511 3.1205199 14586724
1.6745073 -0.70171511 3.1205199 14783842
1.7051822 -0.70171511 3.1205199 14717795
1.8805116 -0.76019132 3.380563 14456164
1.7665318 -0.70171511 3.1205199 14259299
1.7972068 -0.70171511 3.1205199 14390630
1.9802049 -0.76019132 3.380563 13930853
2.0134361 -0.76019132 3.380563 13865056
2.0466671 -0.76019132 3.380563 13865057
1.9199061 -0.70171511 3.1205199 13995872
1.950581 -0.70171511 3.1205199 13930592
1.9812558 -0.70171511 3.1205199 13733727
2.0119307 -0.70171511 3.1205199 13471069
2.2128224 -0.76019132 3.380563 13536096
2.2460537 -0.76019132 3.380563 13208157
2.2792847 -0.76019132 3.380563 13206872
2.13463 -0.70171511 3.1205199 13403999
2.3457468 -0.76019132 3.380563 13141598
2.1959798 -0.70171511 3.1205199 13207134
2.2266545 -0.70171511 3.1205199 12813659
2.2573295 -0.70171511 3.1205199 12878940
2.2880044 -0.70171511 3.1205199 12812891
2.153059 -0.65159255 2.8976254 12681820
1.5270802 -0.45611483 2.028338 12551004
1.6284407 -0.48012087 2.1350925 12287830
1.6494288 -0.48012087 2.1350925 12419931
2.6448267 -0.76019132 3.380563 12221784
2.6780577 -0.76019132 3.380563 12287319
2.7112887 -0.76019132 3.380563 12484442
2.9940217 -0.82929963 3.687887 12155992
2.777751 -0.76019132 3.380563 12025435
2.810982 -0.76019132 3.380563 12024406
2.8442132 -0.76019132 3.380563 11762261
2.8774443 -0.76019132 3.380563 11696727
2.9106753 -0.76019132 3.380563 11564883
2.9439063 -0.76019132 3.380563 11696728
3.5725653 -0.91222966 4.0566759 12024406
3.6124425 -0.91222966 4.0566759 11827027
3.0435996 -0.76019132 3.380563 11499862
3.0768309 -0.76019132 3.380563 11433556
3.1100619 -0.76019132 3.380563 11236950
3.1432929 -0.76019132 3.380563 11433557
3.1765239 -0.76019132 3.380563 11236692
3.2097552 -0.76019132 3.380563 11236437
3.2429862 -0.76019132 3.380563 11630679
3.0242007 -0.70171511 3.1205199 11433046
2.4820864 -0.57014352 2.5354223 11236691
2.5070097 -0.57014352 2.5354223 11171412
3.1162252 -0.70171511 3.1205199 11105107
3.1469002 -0.70171511 3.1205199 11170387
3.4423728 -0.76019132 3.380563 11105106
2.979089 -0.65159255 2.8976254 11235924
2.6316261 -0.57014352 2.5354223 10973266
2.5002818 -0.53660566 2.3862798 10776914
2.2580824 -0.48012087 2.1350925 10711378
2.4056857 -0.50679427 2.2537088 10907987
3.361624 -0.70171511 3.1205199 11104595
3.3922989 -0.70171511 3.1205199 11104594
3.7082214 -0.76019132 3.380563 11104852
4.0815845 -0.82929963 3.687887 11498837
4.1178365 -0.82929963 3.687887 11433298
4.154089 -0.82929963 3.687887 10974032
4.190341 -0.82929963 3.687887 11106134
4.226593 -0.82929963 3.687887 11237204
4.262845 -0.82929963 3.687887 11302740
4.7290072 -0.91222966 4.0566759 11236434
4.7688847 -0.91222966 4.0566759 11302226
4.3716011 -0.82929963 3.687887 11367764
4.4078536 -0.82929963 3.687887 11367252
4.4441056 -0.82929963 3.687887 11367510
4.4803576 -0.82929963 3.687887 11236950
6.2103386 -1.140287 5.0708447 11498839
0 0 0 11498837
0 0 0 11499094
0 0 0 11367767
0 0 0 11170902
0 0 0 11236696
0 0 0 11302232
0 0 0 11040341
0 0 0 9462079
0 0 0 9264702
-3.2276974 -0.58156818 2.7044504 9068098
-4.3651533 -0.79304755 3.687887 9330500
-4.3289013 -0.79304755 3.687887 9396293
-4.7219143 -0.87235236 4.0566759 10119243
-5.2022634 -0.96928042 4.5074177 11368020
-5.1579552 -0.96928042 4.5074177 12156501
-5.1136475 -0.96928042 4.5074177 12221780
-5.0693393 -0.96928042 4.5074177 12222037
-3.230377 -0.6231088 2.8976254 11893844
-2.8016565 -0.5452202 2.5354223 12090453
-2.7767332 -0.5452202 2.5354223 12352340
-2.7518098 -0.5452202 2.5354223 12024660
-2.7268865 -0.5452202 2.5354223 12156245
-2.7019632 -0.5452202 2.5354223 11959123
-2.6770399 -0.5452202 2.5354223 12221522
-2.6521165 -0.5452202 2.5354223 12286800
-2.8023393 -0.58156818 2.7044504 12090706
-2.7757545 -0.58156818 2.7044504 11893842
-2.5773466 -0.5452202 2.5354223 11959637
-2.5524235 -0.5452202 2.5354223 12155731
-2.5275002 -0.5452202 2.5354223 12155988
-2.8600876 -0.6231088 2.8976254 11893330
-2.8316038 -0.6231088 2.8976254 11958867
-3.0187449 -0.6710403 3.1205199 12155476
-2.98807 -0.6710403 3.1205199 12287060
-2.2615373 -0.51314843 2.3862798 12222037
-2.23808 -0.51314843 2.3862798 12157014
-2.3530369 -0.5452202 2.5354223 12090453
-2.1911657 -0.51314843 2.3862798 12353109
-2.0472803 -0.48464021 2.2537088 12221008
-2.0251262 -0.48464021 2.2537088 12287318
-2.0029721 -0.48464021 2.2537088 12156244
-1.8765645 -0.45913279 2.1350925 12156242
-1.8555764 -0.45913279 2.1350925 12418133
-1.8345883 -0.45913279 2.1350925 12222037
-1.8136003 -0.45913279 2.1350925 12287571
-2.8383026 -0.72696024 3.380563 12418387
-2.5892968 -0.6710403 3.1205199 12352594
-2.5586221 -0.6710403 3.1205199 12418385
-2.5279472 -0.6710403 3.1205199 12353105
-2.4972725 -0.6710403 3.1205199 12287828
-2.4665976 -0.6710403 3.1205199 12418644
-2.4359226 -0.6710403 3.1205199 12615510
-1.7371235 -0.48464021 2.2537088 12550230
-2.572454 -0.72696024 3.380563 12550740
-2.5392227 -0.72696024 3.380563 12616022
-1.8794938 -0.5452202 2.5354223 12681557
-1.8545705 -0.5452202 2.5354223 12681557
-1.8296472 -0.5452202 2.5354223 12812629
-1.8047239 -0.5452202 2.5354223 12681557
-1.6751064 -0.51314843 2.3862798 12747861
-1.6516492 -0.51314843 2.3862798 13076311
-1.6281919 -0.51314843 2.3862798 13009750
-1.6047347 -0.51314843 2.3862798 13207131
-1.4148272 -0.45913279 2.1350925 13338458
-1.3241472 -0.43617618 2.028338 13207898
-1.3728511 -0.45913279 2.1350925 13404508
-1.5109057 -0.51314843 2.3862798 13470555
-1.5804141 -0.5452202 2.5354223 13864540
-1.5554907 -0.5452202 2.5354223 13864030
-1.5305674 -0.5452202 2.5354223 13863512
-1.5056441 -0.5452202 2.5354223 13865311
-1.4807208 -0.5452202 2.5354223 14388573
-1.3701624 -0.51314843 2.3862798 14585952
-1.9078321 -0.72696024 3.380563 14718560
-2.0450194 -0.79304755 3.687887 14586976
-2.4551601 -0.96928042 4.5074177 14455390
-1.808139 -0.72696024 3.380563 14653023
-1.7749078 -0.72696024 3.380563 14719075
-1.3062576 -0.5452202 2.5354223 15045729
-1.2813343 -0.5452202 2.5354223 14652769
-1.1825044 -0.51314843 2.3862798 14849376
-1.1590472 -0.51314843 2.3862798 14915168
-1.13559 -0.51314843 2.3862798 15178339
-0.94531286 -0.43617618 2.028338 15637347
-0.92537421 -0.43617618 2.028338 15375717
-0.86231953 -0.41540587 1.9317503 15178338
-0.55343556 -0.2726101 1.2677112 15112802
-0.48086569 -0.24232011 1.1268544 14915679
-0.46978867 -0.24232011 1.1268544 14718044
-0.50041264 -0.26434916 1.2292956 14849888
-0.42407486 -0.2295664 1.0675462 14455901
-0.34165373 -0.1896418 0.88188601 14455388
-0.31259793 -0.17803109 0.82789302 14388825
-0.29837051 -0.17447047 0.81133515 14323292
-0.29039505 -0.17447047 0.81133515 13798490
-0.28241959 -0.17447047 0.81133515 9987132
-0.25890955 -0.16459477 0.76541048 2888983
-0.25138554 -0.16459477 0.76541048 3415842
-0.23934558 -0.16154674 0.75123626 7353894
-0.23196089 -0.16154674 0.75123626 4923417
