# .PCD v0.7 - Point Cloud Data file format
VERSION 0.7
FIELDS x y z rgb
SIZE 4 4 4 4
TYPE F F F U
COUNT 1 1 1 1
WIDTH 1260
HEIGHT 1
VIEWPOINT 0 0 0 1 0 0 0
POINTS 1260
DATA ascii
2.7227349 0.97198337 2.8976254 10240045
2.7512186 0.97198337 2.8976254 9976360
2.4322398 0.85048544 2.5354223 10304553
1.6381086 0.56699032 1.6902815 10370088
1.470866 0.50399137 1.5024725 10041637
1.5427752 0.52337569 1.5602599 10041894
1.4468188 0.48599169 1.4488127 9976101
1.4610606 0.48599169 1.4488127 10370091
1.4753026 0.48599169 1.4488127 10173738
1.4381809 0.46923333 1.3988537 10042921
1.4519317 0.46923333 1.3988537 10239273
1.3282747 0.42524272 1.2677112 10371372
1.3407364 0.42524272 1.2677112 10437165
1.312192 0.41235656 1.2292956 10634031
1.3242761 0.41235656 1.2292956 11028785
1.2249968 0.37799355 1.1268544 10831406
1.2360739 0.37799355 1.1268544 10568238
1.2134441 0.3677775 1.0963988 10502445
1.2582279 0.37799355 1.1268544 10700335
1.3846962 0.41235656 1.2292956 10568236
0 0 0 10371631
0 0 0 9781294
0 0 0 8272684
0 0 0 7223338
0 0 0 6895145
0 0 0 6960680
4.0405321 1.1339806 3.380563 6434594
4.8885164 1.3607768 4.0566759 5845290
5.4759932 1.5119742 4.5074177 5583143
9.9365416 2.7215536 8.1133518 5977387
0 0 0 6502187
0 0 0 8077616
0 0 0 9389618
0 0 0 9781811
0 0 0 10438196
0 0 0 10635314
0 0 0 10570034
0 0 0 6830635
0 0 0 6765352
-0.96830922 0.2801308 0.81133515 5713181
-0.96033376 0.2801308 0.81133515 4595732
-0.95235831 0.2801308 0.81133515 4465434
-0.94438285 0.2801308 0.81133515 3414549
-0.93640739 0.2801308 0.81133515 3416089
-0.92843193 0.2801308 0.81133515 2167825
-0.92045647 0.2801308 0.81133515 1969424
-0.91248101 0.2801308 0.81133515 2035217
-0.90450555 0.2801308 0.81133515 1838867
-0.91482663 0.28584775 0.82789302 1772815
-0.90668839 0.28584775 0.82789302 1773072
-0.91726995 0.29180291 0.84514076 1773072
-0.90896219 0.29180291 0.84514076 1838610
-0.90065438 0.29180291 0.84514076 1838609
-0.8566528 0.2801308 0.81133515 1772817
-0.81603593 0.26935655 0.78012997 1773074
-0.79311496 0.26427433 0.76541048 1772815
-0.771043 0.25938037 0.75123626 984328
-0.76365829 0.25938037 0.75123626 589830
-0.75627363 0.25938037 0.75123626 589833
-0.76301885 0.26427433 0.76541048 524296
-0.75549483 0.26427433 0.76541048 524296
-0.74797082 0.26427433 0.76541048 786698
-0.74044681 0.26427433 0.76541048 852744
-0.73292279 0.26427433 0.76541048 1115403
-0.73934877 0.26935655 0.78012997 918281
-0.7316801 0.26935655 0.78012997 917512
-0.72401136 0.26935655 0.78012997 852743
-0.71634263 0.26935655 0.78012997 918282
-0.70867395 0.26935655 0.78012997 1115660
-0.71475041 0.27463806 0.79542661 1313039
-0.70693129 0.27463806 0.79542661 1509902
-0.69911224 0.27463806 0.79542661 1707282
-0.70511901 0.2801308 0.81133515 1772817
-0.69714355 0.2801308 0.81133515 2495767
-0.70323277 0.28584775 0.82789302 3810594
-0.69509453 0.28584775 0.82789302 5059115
-0.73175776 0.30449 0.88188601 5781039
-0.77353686 0.32573348 0.94341296 6438965
-0.7824598 0.33348906 0.96587515 5647394
-0.87742001 0.37855515 1.0963988 6237475
-0.97168988 0.42444059 1.2292956 8861737
0 0 0 9846575
0 0 0 10305579
0 0 0 11027244
0 0 0 11485738
0 0 0 11682347
-2.1195092 1.0004672 2.8976254 11616296
-2.0910254 1.0004672 2.8976254 11878697
-2.4062984 1.1672117 3.380563 11812904
-2.3730674 1.1672117 3.380563 11878698
-2.8078039 1.4006541 4.0566759 11812391
-3.0754738 1.5562823 4.5074177 12075560
-3.0311658 1.5562823 4.5074177 11878438
-2.9868577 1.5562823 4.5074177 11944744
-2.6482944 1.4006541 4.0566759 12206633
-2.1736808 1.1672117 3.380563 12141352
-2.335036 1.2733219 3.687887 12075560
-2.298784 1.2733219 3.687887 12140840
-2.0739877 1.1672117 3.380563 11878179
-2.22628 1.2733219 3.687887 12075559
-2.1900277 1.2733219 3.687887 12141353
-2.3691535 1.4006541 4.0566759 12271910
-2.1175237 1.2733219 3.687887 12075047
-2.0812714 1.2733219 3.687887 12140838
-2.0450194 1.2733219 3.687887 12271910
-2.0087674 1.2733219 3.687887 12534056
-1.808139 1.1672117 3.380563 12140840
-1.7749078 1.1672117 3.380563 12206890
-1.4928658 1.0004672 2.8976254 12403755
-1.3667566 0.93376935 2.7044504 12469289
-1.3401717 0.93376935 2.7044504 12074793
-1.3135868 0.93376935 2.7044504 12402727
-1.13559 0.82391411 2.3862798 12534567
-0.90029788 0.66697812 1.9317503 12469288
-0.68546236 0.51876074 1.5024725 12403497
-0.62443829 0.48298413 1.3988537 12468260
-0.61068749 0.48298413 1.3988537 12533799
-0.57703876 0.46688467 1.3522252 12665385
-0.46978867 0.38907057 1.1268544 12861994
-0.38403764 0.32573348 0.94341296 12469030
-0.37476385 0.32573348 0.94341296 12337445
-0.35718346 0.31833047 0.92197174 12205861
-0.34038442 0.31125644 0.90148348 12599592
-0.33152279 0.31125644 0.90148348 12140838
-0.32266116 0.31125644 0.90148348 12009254
-0.31379956 0.31125644 0.90148348 12205861
-0.30493793 0.31125644 0.90148348 12271652
-0.27757153 0.29180291 0.84514076 12271398
-0.25849321 0.2801308 0.81133515 12402213
-0.25051776 0.2801308 0.81133515 12139811
-0.2425423 0.2801308 0.81133515 12402213
-0.23456684 0.2801308 0.81133515 12271651
-0.22659136 0.2801308 0.81133515 12139812
-0.2186159 0.2801308 0.81133515 12008225
-0.21064045 0.2801308 0.81133515 12336420
-0.20266499 0.2801308 0.81133515 12205604
-0.19468953 0.2801308 0.81133515 12009254
-0.18671407 0.2801308 0.81133515 11877156
-0.17523393 0.27463806 0.79542661 11811364
-0.16741484 0.27463806 0.79542661 11811618
-0.15959577 0.27463806 0.79542661 11942690
-0.15177669 0.27463806 0.79542661 11680803
-0.1411892 0.26935655 0.78012997 11876640
-0.13352048 0.26935655 0.78012997 11942947
-0.12585177 0.26935655 0.78012997 12008740
-0.12050037 0.27463806 0.79542661 12139813
-0.11268129 0.27463806 0.79542661 12008740
-0.10486221 0.27463806 0.79542661 12139811
-0.097043134 0.27463806 0.79542661 12074533
-0.087508209 0.26935655 0.78012997 11942947
-0.079839498 0.26935655 0.78012997 12008740
-0.070809066 0.26427433 0.76541048 11942693
-0.063285045 0.26427433 0.76541048 12074533
-0.056833357 0.26935655 0.78012997 12205604
-0.050128657 0.27463806 0.79542661 12140325
-0.042309579 0.27463806 0.79542661 12205091
-0.0344905 0.27463806 0.79542661 12402213
-0.026671419 0.27463806 0.79542661 12270884
-0.01885234 0.27463806 0.79542661 12271396
-0.011253926 0.2801308 0.81133515 12664613
-0.0032784648 0.2801308 0.81133515 12336677
0.0047928533 0.28584775 0.82789302 12599337
0.014735416 0.32573348 0.94341296 12533027
0 0 0 12402211
0 0 0 12337444
0 0 0 12664613
0 0 0 12402213
0 0 0 12336420
0.10435383 0.48298413 1.3988537 12599846
0.11810462 0.48298413 1.3988537 12206371
0.14706951 0.5387131 1.5602599 12205606
0.16890322 0.56026161 1.6226703 12599076
0.19255638 0.58360583 1.6902815 12730662
0.23905364 0.66697812 1.9317503 12599590
0.28520525 0.73718631 2.1350925 12402467
0.34221601 0.82391411 2.3862798 12598822
0.38852784 0.87540877 2.5354223 12664869
0.41345116 0.87540877 2.5354223 12664615
0.43837446 0.87540877 2.5354223 12468519
0.57021266 1.0774262 3.1205199 12796199
0.48822111 0.87540877 2.5354223 12468005
0.48295945 0.82391411 2.3862798 12534053
0.50641668 0.82391411 2.3862798 12403237
0.52987391 0.82391411 2.3862798 12534568
0.55333114 0.82391411 2.3862798 12402725
0.54474461 0.77814114 2.2537088 12469030
0.53706187 0.73718631 2.1350925 12402983
0.55804998 0.73718631 2.1350925 12468006
0.50007826 0.63666093 1.8439435 12927528
0.45601982 0.56026161 1.6226703 12796968
0.42140242 0.50023359 1.4488127 12534313
0.42062211 0.48298413 1.3988537 12468260
0.39365044 0.43770438 1.2677112 12730919
0.4061121 0.43770438 1.2677112 12862247
0.41857377 0.43770438 1.2677112 12533797
0.47562528 0.48298413 1.3988537 12862248
0.44349706 0.43770438 1.2677112 12861991
0.52109569 0.50023359 1.4488127 12534824
0.55516493 0.51876074 1.5024725 12337190
0.615529 0.56026161 1.6226703 11943974
0.63147992 0.56026161 1.6226703 12272168
0.64743084 0.56026161 1.6226703 12271910
0.66338181 0.56026161 1.6226703 12403242
0.80872941 0.66697812 1.9317503 12075045
0.82771862 0.66697812 1.9317503 11943459
0.71123457 0.56026161 1.6226703 12403240
0.69921684 0.5387131 1.5602599 12730408
0.68808925 0.51876074 1.5024725 12271143
0.70285863 0.51876074 1.5024725 12599336
0.717628 0.51876074 1.5024725 12205606
0.73239738 0.51876074 1.5024725 12140326
0.72048217 0.50023359 1.4488127 12074533
0.76193613 0.51876074 1.5024725 12139813
0.7767055 0.51876074 1.5024725 12271397
0.82191622 0.5387131 1.5602599 12008741
0.80624425 0.51876074 1.5024725 11877927
0.82101363 0.51876074 1.5024725 11877154
0.835783 0.51876074 1.5024725 12008740
0.88326591 0.5387131 1.5602599 11877414
0.93454748 0.56026161 1.6226703 11484709
1.0801117 0.63666093 1.8439435 11811621
1.2080617 0.70032704 2.028338 11483684
1.2926319 0.73718631 2.1350925 11614757
1.31362 0.73718631 2.1350925 11615269
1.334608 0.73718631 2.1350925 11353127
1.2878163 0.70032704 2.028338 11287333
1.307755 0.70032704 2.028338 11221797
1.3276936 0.70032704 2.028338 11352870
1.2834592 0.66697812 1.9317503 11155746
1.3024484 0.66697812 1.9317503 11156261
1.20653 0.60898 1.763772 11221540
1.2238679 0.60898 1.763772 11221541
1.189489 0.58360583 1.6902815 11156004
1.2061045 0.58360583 1.6902815 10499874
1.22272 0.58360583 1.6902815 10697507
1.3520025 0.63666093 1.8439435 10959652
1.3701285 0.63666093 1.8439435 10959396
1.2725667 0.58360583 1.6902815 10958884
1.2891822 0.58360583 1.6902815 10762276
1.4923403 0.66697812 1.9317503 10893605
1.5113295 0.66697812 1.9317503 10698538
1.3390288 0.58360583 1.6902815 10961198
1.3014187 0.56026161 1.6226703 11092012
1.2667016 0.5387131 1.5602599 10828841
1.2820389 0.5387131 1.5602599 10960427
1.2973764 0.5387131 1.5602599 10830122
1.3652223 0.56026161 1.6226703 10829610
1.4387221 0.58360583 1.6902815 10828841
1.4553376 0.58360583 1.6902815 10828326
1.4719532 0.58360583 1.6902815 10632232
2.748127 1.0774262 3.1205199 10698025
0 0 0 10763816
0 0 0 10434853
0 0 0 10173480
4.1467495 1.5562823 4.5074177 10239786
3.4290469 1.2733219 3.687887 10633515
3.4652989 1.2733219 3.687887 10895915
3.2097552 1.1672117 3.380563 10370602
2.594389 0.93376935 2.7044504 10435881
1.5725844 0.56026161 1.6226703 10370087
1.5274378 0.5387131 1.5602599 10173478
1.5427752 0.5387131 1.5602599 10173738
1.5004047 0.51876074 1.5024725 9976361
1.5151742 0.51876074 1.5024725 10041638
1.4244301 0.48298413 1.3988537 10172712
1.4381809 0.48298413 1.3988537 10303782
1.3158131 0.43770438 1.2677112 9976101
1.3282747 0.43770438 1.2677112 10239271
1.3407364 0.43770438 1.2677112 10239787
1.312192 0.42444059 1.2292956 10305325
1.3242761 0.42444059 1.2292956 10174509
1.2599968 0.40018687 1.1590502 10371372
1.2360739 0.38907057 1.1268544 10700592
1.2134441 0.37855515 1.0963988 10635312
1.2242217 0.37855515 1.0963988 10504238
1.2349994 0.37855515 1.0963988 10634798
0 0 0 10437934
0 0 0 10044462
0 0 0 9650734
0 0 0 8272425
0 0 0 6764329
0 0 0 7223595
0 0 0 6960423
0 0 0 6041125
9.8567877 2.8013082 8.1133518 5976104
0 0 0 5779495
0 0 0 5911081
0 0 0 6239788
0 0 0 7488050
0 0 0 9389362
0 0 0 10110000
0 0 0 10437167
0 0 0 10371631
0 0 0 5453094
0 0 0 6109742
-0.96830922 0.28810626 0.81133515 6044719
-0.96033376 0.28810626 0.81133515 3547418
-0.93368459 0.28245711 0.79542661 1968909
-0.92586553 0.28245711 0.79542661 2034961
-0.90039176 0.27702525 0.78012997 2101264
-0.89272302 0.27702525 0.78012997 2561558
-0.9024083 0.28245711 0.79542661 2825246
-0.89458925 0.28245711 0.79542661 2561046
-0.90450555 0.28810626 0.81133515 2101012
-0.89653009 0.28810626 0.81133515 1838610
-0.88855463 0.28810626 0.81133515 1773074
-0.88057917 0.28810626 0.81133515 1838351
-0.85549384 0.28245711 0.79542661 1838608
-0.83137333 0.27702525 0.78012997 1970194
-0.80816299 0.27179834 0.76541048 2430745
-0.80063897 0.27179834 0.76541048 2233625
-0.79311496 0.27179834 0.76541048 1246730
-0.771043 0.26676506 0.75123626 786696
-0.76365829 0.26676506 0.75123626 720905
-0.77054286 0.27179834 0.76541048 655368
-0.76301885 0.27179834 0.76541048 720905
-0.75549483 0.27179834 0.76541048 655624
-0.74797082 0.27179834 0.76541048 786696
-0.74044681 0.27179834 0.76541048 918282
-0.7470175 0.27702525 0.78012997 1049868
-0.73934877 0.27702525 0.78012997 1181454
-0.7316801 0.27702525 0.78012997 1181710
-0.72401136 0.27702525 0.78012997 1312524
-0.71634263 0.27702525 0.78012997 1641487
-0.70867395 0.27702525 0.78012997 2299416
-0.70100522 0.27702525 0.78012997 3088674
-0.70693129 0.28245711 0.79542661 4401962
-0.69911224 0.28245711 0.79542661 4992808
-0.70511901 0.28810626 0.81133515 5190955
-0.69714355 0.28810626 0.81133515 5584684
-0.70323277 0.29398599 0.82789302 5912105
-0.83072275 0.35134912 0.98943311 6699307
-0.82099658 0.35134912 0.98943311 8273197
-0.83155221 0.36013284 1.014169 10108970
-0.82158285 0.36013284 1.014169 10566952
-0.87742001 0.3893328 1.0963988 10698278
0 0 0 11025958
0 0 0 11222568
0 0 0 11419688
0 0 0 11616552
0 0 0 11551015
0 0 0 11616295
-1.9782085 0.96035421 2.7044504 12075305
-2.0910254 1.0289509 2.8976254 11682088
-2.2211988 1.108101 3.1205199 11877927
-2.1905239 1.108101 3.1205199 12075046
-2.1598489 1.108101 3.1205199 11943720
-2.5162966 1.3095739 3.687887 12009512
-2.7280493 1.4405314 4.0566759 11812134
-2.6881719 1.4405314 4.0566759 11877927
-2.6482944 1.4405314 4.0566759 11550504
-2.3712883 1.3095739 3.687887 11420201
-2.1404498 1.2004428 3.380563 12010795
-2.1072187 1.2004428 3.380563 12141351
-2.0739877 1.2004428 3.380563 11944487
-2.0407565 1.2004428 3.380563 12009767
-2.1900277 1.3095739 3.687887 12009765
-2.3691535 1.4405314 4.0566759 12403240
-2.3292761 1.4405314 4.0566759 12140583
-2.0812714 1.3095739 3.687887 12075047
-1.8746011 1.2004428 3.380563 12075046
-1.84137 1.2004428 3.380563 12337190
-2.1697669 1.4405314 4.0566759 12272168
-1.7749078 1.2004428 3.380563 12075047
-1.7416768 1.2004428 3.380563 12140840
-1.3667566 0.96035421 2.7044504 12403497
-1.3401717 0.96035421 2.7044504 12140840
-1.5156772 1.108101 3.1205199 12469289
-1.2065643 0.90033209 2.5354223 12534823
-0.99506611 0.75817442 2.1350925 12337703
-0.88130873 0.68596727 1.9317503 12205861
-0.64673966 0.51447546 1.4488127 12534312
-0.61068749 0.49673492 1.3988537 12402983
-0.57703876 0.4801771 1.3522252 12599592
-0.46978867 0.40014762 1.1268544 12533542
-0.39318138 0.34298363 0.96587515 12271651
-0.37476385 0.33500728 0.94341296 12271655
-0.36549005 0.33500728 0.94341296 12140324
-0.34812042 0.32739347 0.92197174 12402213
-0.33152279 0.32011807 0.90148348 12140326
-0.32266116 0.32011807 0.90148348 12271397
-0.31379956 0.32011807 0.90148348 12271908
-0.30493793 0.32011807 0.90148348 12468005
-0.27190682 0.29398599 0.82789302 12271397
-0.25849321 0.28810626 0.81133515 12140326
-0.25051776 0.28810626 0.81133515 12401699
-0.2425423 0.28810626 0.81133515 12008996
-0.23456684 0.28810626 0.81133515 12009253
-0.22659136 0.28810626 0.81133515 11746082
-0.2186159 0.28810626 0.81133515 11811361
-0.21064045 0.28810626 0.81133515 11877414
-0.20266499 0.28810626 0.81133515 12204834
-0.19468953 0.28810626 0.81133515 12271397
-0.18671407 0.28810626 0.81133515 11942947
-0.17873861 0.28810626 0.81133515 11942693
-0.16741484 0.28245711 0.79542661 11811875
-0.15959577 0.28245711 0.79542661 11614754
-0.15177669 0.28245711 0.79542661 11680547
-0.14395761 0.28245711 0.79542661 11745570
-0.13613853 0.28245711 0.79542661 11680289
-0.12831944 0.28245711 0.79542661 11812388
-0.12050037 0.28245711 0.79542661 11680289
-0.11268129 0.28245711 0.79542661 12074020
-0.10486221 0.28245711 0.79542661 12204834
-0.097043134 0.28245711 0.79542661 12401697
-0.085857108 0.27179834 0.76541048 12205604
-0.078333087 0.27179834 0.76541048 12467236
-0.070809066 0.27179834 0.76541048 12074531
-0.064502068 0.27702525 0.78012997 12008740
-0.057947736 0.28245711 0.79542661 12335904
-0.050128657 0.28245711 0.79542661 12664102
-0.042309579 0.28245711 0.79542661 12008740
-0.0344905 0.28245711 0.79542661 12402213
-0.026671419 0.28245711 0.79542661 12074020
-0.019229386 0.28810626 0.81133515 12402467
-0.011253926 0.28810626 0.81133515 12336420
-0.0032784648 0.28810626 0.81133515 12074533
0.0048927041 0.3001107 0.84514076 12533029
0.014735416 0.33500728 0.94341296 12599076
0 0 0 12598563
0 0 0 12533281
0 0 0 12730408
0 0 0 12598822
0 0 0 12533029
0.10435383 0.49673492 1.3988537 12730149
0.11810462 0.49673492 1.3988537 12402213
0.1416225 0.53353012 1.5024725 12336420
0.16890322 0.57621253 1.6226703 12533799
0.22006443 0.68596727 1.9317503 12402215
0.23905364 0.68596727 1.9317503 12336678
0.30104998 0.80029523 2.2537088 12074533
0.34221601 0.8473714 2.3862798 12271655
0.38852784 0.90033209 2.5354223 12401700
0.41345116 0.90033209 2.5354223 12140069
0.43837446 0.90033209 2.5354223 12402726
0.46329778 0.90033209 2.5354223 12468262
0.48822111 0.90033209 2.5354223 12468004
0.48295945 0.8473714 2.3862798 12730920
0.50641668 0.8473714 2.3862798 12730921
0.50043648 0.80029523 2.2537088 12795942
0.49508578 0.75817442 2.1350925 12796455
0.51607382 0.75817442 2.1350925 12796453
0.51020885 0.72026569 2.028338 12731178
0.5049023 0.68596727 1.9317503 12402983
0.50007826 0.65478694 1.8439435 12928043
0.45601982 0.57621253 1.6226703 12402470
0.42140242 0.51447546 1.4488127 12140324
0.42062211 0.49673492 1.3988537 12337448
0.4343729 0.49673492 1.3988537 12337189
0.44812369 0.49673492 1.3988537 12600103
0.46187449 0.49673492 1.3988537 12469030
0.47562528 0.49673492 1.3988537 12534055
0.48937607 0.49673492 1.3988537 12664871
0.52109569 0.51447546 1.4488127 12861735
0.59957808 0.57621253 1.6226703 12664869
0.64117604 0.6002214 1.6902815 12205604
0.65779161 0.6002214 1.6902815 12468265
0.67440712 0.6002214 1.6902815 12337448
0.69102269 0.6002214 1.6902815 12599340
0.7076382 0.6002214 1.6902815 12337190
0.82771862 0.68596727 1.9317503 12403496
0.74086928 0.6002214 1.6902815 12403496
0.69921684 0.55405051 1.5602599 11878184
0.68808925 0.53353012 1.5024725 12009511
0.67775649 0.51447546 1.4488127 12140326
0.717628 0.53353012 1.5024725 12140324
0.7062403 0.51447546 1.4488127 12008999
0.72048217 0.51447546 1.4488127 12271399
0.7347241 0.51447546 1.4488127 11877927
0.7767055 0.53353012 1.5024725 11943206
0.79147488 0.53353012 1.5024725 11877414
0.80624425 0.53353012 1.5024725 11943207
0.82101363 0.53353012 1.5024725 11877412
0.8679285 0.55405051 1.5602599 11746343
0.88326591 0.55405051 1.5602599 11746854
0.93454748 0.57621253 1.6226703 11549734
1.1315457 0.68596727 1.9317503 11287075
1.2080617 0.72026569 2.028338 11287332
1.2926319 0.75817442 2.1350925 11287334
1.31362 0.75817442 2.1350925 11614757
1.334608 0.75817442 2.1350925 11221541
1.2878163 0.72026569 2.028338 11221542
1.307755 0.72026569 2.028338 11024162
1.3276936 0.72026569 2.028338 11155748
1.2834592 0.68596727 1.9317503 11155490
1.3675709 0.72026569 2.028338 11221541
1.3214376 0.68596727 1.9317503 11221539
1.3404268 0.68596727 1.9317503 11287332
1.359416 0.68596727 1.9317503 11352357
1.2061045 0.6002214 1.6902815 11221284
1.1738113 0.57621253 1.6226703 11024675
1.1897622 0.57621253 1.6226703 11024933
1.2057132 0.57621253 1.6226703 11155748
1.2216641 0.57621253 1.6226703 10958882
1.2891822 0.6002214 1.6902815 10303524
1.3057978 0.6002214 1.6902815 10435365
1.3799095 0.62631798 1.763772 10369574
1.3972476 0.62631798 1.763772 10698027
1.3014187 0.57621253 1.6226703 10828840
1.2667016 0.55405051 1.5602599 10698023
1.2345561 0.53353012 1.5024725 10698538
1.2973764 0.55405051 1.5602599 10829867
1.3652223 0.57621253 1.6226703 10502186
1.3811733 0.57621253 1.6226703 10502186
1.3971242 0.57621253 1.6226703 10763816
1.4130751 0.57621253 1.6226703 10829867
0 0 0 10631976
0 0 0 10501674
0 0 0 10501415
2.6372836 1.0289509 2.8976254 10436138
3.1100619 1.2004428 3.380563 10370345
3.4290469 1.3095739 3.687887 10435367
3.8118291 1.4405314 4.0566759 10370343
3.5015512 1.3095739 3.687887 10173480
1.5566334 0.57621253 1.6226703 10305064
1.5725844 0.57621253 1.6226703 10304809
1.5274378 0.55405051 1.5602599 10239017
1.5427752 0.55405051 1.5602599 10172970
1.5004047 0.53353012 1.5024725 10172969
1.5734501 0.55405051 1.5602599 10304810
1.4753026 0.51447546 1.4488127 10107430
1.4381809 0.49673492 1.3988537 10173224
1.4519317 0.49673492 1.3988537 10239528
1.4656825 0.49673492 1.3988537 10239527
1.5322702 0.51447546 1.4488127 10173738
1.4931841 0.49673492 1.3988537 10436654
1.3242761 0.43652463 1.2292956 10436398
1.2599968 0.41158038 1.1590502 10436909
1.2360739 0.40014762 1.1268544 10568492
1.1512163 0.36936703 1.0401733 10765613
1.2242217 0.3893328 1.0963988 10831406
1.2349994 0.3893328 1.0963988 10569263
1.245777 0.3893328 1.0963988 10569519
0 0 0 10568751
0 0 0 10372401
0 0 0 9978413
0 0 0 7945003
0 0 0 6895401
0 0 0 6828838
0 0 0 6500389
0 0 0 5844001
0 0 0 5450785
0 0 0 5385508
0 0 0 5713702
0 0 0 6174507
0 0 0 7748908
0 0 0 9520948
0 0 0 10241844
0 0 0 10503217
0 0 0 6306091
0 0 0 5452324
-0.93106657 0.28469399 0.78012997 2758929
-0.9233979 0.28469399 0.78012997 2034704
-0.89845121 0.27932239 0.76541048 1903633
-0.8909272 0.27932239 0.76541048 1903632
-0.88340318 0.27932239 0.76541048 1838353
-0.87587917 0.27932239 0.76541048 1904146
-0.8683551 0.27932239 0.76541048 1903633
-0.87738562 0.28469399 0.78012997 2034704
-0.86971688 0.28469399 0.78012997 2429203
-0.86204821 0.28469399 0.78012997 2101267
-0.87113196 0.2902762 0.79542661 2101778
-0.8633129 0.2902762 0.79542661 2232848
-0.83904207 0.28469399 0.78012997 1903629
-0.80058169 0.27414975 0.75123626 1443336
-0.79319704 0.27414975 0.75123626 1443338
-0.78581238 0.27414975 0.75123626 1180681
-0.77842766 0.27414975 0.75123626 1246474
-0.771043 0.27414975 0.75123626 984075
-0.77806687 0.27932239 0.76541048 918538
-0.77054286 0.27932239 0.76541048 984330
-0.76301885 0.27932239 0.76541048 1115661
-0.74150425 0.27414975 0.75123626 1181454
-0.74797082 0.27932239 0.76541048 1641489
-0.74044681 0.27932239 0.76541048 1904660
-0.7470175 0.28469399 0.78012997 2629151
-0.73934877 0.28469399 0.78012997 3813163
-0.7316801 0.28469399 0.78012997 4205608
-0.72401136 0.28469399 0.78012997 4401446
-0.71634263 0.28469399 0.78012997 4071968
-0.69530267 0.27932239 0.76541048 3940896
-0.70100522 0.28469399 0.78012997 3874328
-0.70693129 0.2902762 0.79542661 5975334
-0.71309447 0.29608172 0.81133515 6240559
-0.70511901 0.29608172 0.81133515 7618866
-0.711371 0.30212423 0.82789302 9650221
0 0 0 11091239
0 0 0 11551017
-0.82099658 0.36107528 0.98943311 11091236
-0.83155221 0.37010217 1.014169 11091749
-0.82158285 0.37010217 1.014169 11485480
-0.81161356 0.37010217 1.014169 11484709
-0.97168988 0.44860867 1.2292956 11615525
0 0 0 11550504
0 0 0 11354152
0 0 0 11484708
0 0 0 11747111
0 0 0 11616295
-2.1195092 1.0574347 2.8976254 11877414
-2.0910254 1.0574347 2.8976254 11550504
-2.2211988 1.1387759 3.1205199 11747367
-2.1905239 1.1387759 3.1205199 11943720
-2.1598489 1.1387759 3.1205199 11747111
-2.1291742 1.1387759 3.1205199 11812134
-2.4800446 1.345826 3.687887 11812134
-2.6881719 1.4804087 4.0566759 11747111
-2.6482944 1.4804087 4.0566759 11616297
-2.6084173 1.4804087 4.0566759 11616297
-2.1404498 1.2336738 3.380563 11747622
-2.1072187 1.2336738 3.380563 12141610
-2.0739877 1.2336738 3.380563 12075560
-2.0407565 1.2336738 3.380563 11943974
-2.1900277 1.345826 3.687887 11943974
-2.3691535 1.4804087 4.0566759 12009767
-2.3292761 1.4804087 4.0566759 12140839
-2.2893987 1.4804087 4.0566759 11812388
-1.8746011 1.2336738 3.380563 12075045
-1.84137 1.2336738 3.380563 12403496
-2.1697669 1.4804087 4.0566759 12271910
-2.1298895 1.4804087 4.0566759 12402983
-2.0900123 1.4804087 4.0566759 12206117
-1.7084457 1.2336738 3.380563 12271654
-1.6752145 1.2336738 3.380563 12337960
-1.9703803 1.4804087 4.0566759 12600364
-1.6087524 1.2336738 3.380563 12665385
-0.99506611 0.77916247 2.1350925 12337703
-0.92537421 0.74020433 2.028338 12469289
-0.72434843 0.59216344 1.6226703 12337191
-0.63249773 0.52871734 1.4488127 12402982
-0.5969367 0.51048571 1.3988537 12337190
-0.51249665 0.44860867 1.2292956 12468006
-0.40277117 0.36107528 0.98943311 12206117
-0.37476385 0.34428108 0.94341296 12271397
-0.36549005 0.34428108 0.94341296 12140326
-0.35621625 0.34428108 0.94341296 12336935
-0.33905742 0.33645651 0.92197174 12336935
-0.32266116 0.3289797 0.90148348 12139811
-0.31379956 0.3289797 0.90148348 12402213
-0.30493793 0.3289797 0.90148348 12205859
-0.27757153 0.30841845 0.84514076 12337445
-0.25849321 0.29608172 0.81133515 12140326
-0.25051776 0.29608172 0.81133515 12205604
-0.2425423 0.29608172 0.81133515 12008997
-0.2606298 0.3289797 0.90148348 12074790
-0.22659136 0.29608172 0.81133515 12074276
-0.2186159 0.29608172 0.81133515 12270884
-0.21064045 0.29608172 0.81133515 12139813
-0.20266499 0.29608172 0.81133515 12074531
-0.19468953 0.29608172 0.81133515 12205604
-0.18671407 0.29608172 0.81133515 11942693
-0.17873861 0.29608172 0.81133515 11942434
-0.16741484 0.2902762 0.79542661 12139559
-0.15959577 0.2902762 0.79542661 11943204
-0.15177669 0.2902762 0.79542661 11680032
-0.14395761 0.2902762 0.79542661 11876899
-0.13613853 0.2902762 0.79542661 11745826
-0.12831944 0.2902762 0.79542661 12008227
-0.12050037 0.2902762 0.79542661 11680034
-0.11268129 0.2902762 0.79542661 12139813
-0.10486221 0.2902762 0.79542661 12073766
-0.097043134 0.2902762 0.79542661 11811621
-0.085857108 0.27932239 0.76541048 12074020
-0.078333087 0.27932239 0.76541048 12401443
-0.070809066 0.27932239 0.76541048 12467236
-0.064502068 0.28469399 0.78012997 12336420
-0.057947736 0.2902762 0.79542661 12139813
-0.050128657 0.2902762 0.79542661 12533283
-0.042309579 0.2902762 0.79542661 12139811
-0.0344905 0.2902762 0.79542661 12336420
-0.027204847 0.29608172 0.81133515 12205604
-0.019229386 0.29608172 0.81133515 12205606
-0.011722839 0.30841845 0.84514076 12204836
-0.0036427386 0.3289797 0.90148348 12074533
0.0053374954 0.33645651 0.92197174 12139813
0.015086258 0.35247824 0.96587515 11877668
0 0 0 12206119
0 0 0 12074533
0 0 0 12796201
0.074290499 0.49346954 1.3522252 12336422
0.087582931 0.49346954 1.3522252 12205604
0.10435383 0.51048571 1.3988537 12533799
0.12685312 0.54829949 1.5024725 12271397
0.1416225 0.54829949 1.5024725 12468260
0.17594084 0.61683691 1.6902815 12533799
0.22006443 0.70495647 1.9317503 12533029
0.23905364 0.70495647 1.9317503 12729633
0.28520525 0.77916247 2.1350925 12665129
0.34221601 0.87082863 2.3862798 12533286
0.38852784 0.92525542 2.5354223 12468263
0.41345116 0.92525542 2.5354223 12468264
0.5844993 1.2336738 3.380563 12468007
0.82364053 1.6448985 4.5074177 12336934
0.65096146 1.2336738 3.380563 12467489
0.48295945 0.87082863 2.3862798 12663840
0.47828245 0.82244927 2.2537088 12730149
0.47409773 0.77916247 2.1350925 12927014
0.49508578 0.77916247 2.1350925 12795942
0.51607382 0.77916247 2.1350925 12796455
0.53706187 0.77916247 2.1350925 12664869
0.5049023 0.70495647 1.9317503 12796455
0.50007826 0.67291301 1.8439435 12664614
0.45601982 0.59216344 1.6226703 12796712
0.47197074 0.59216344 1.6226703 12271655
0.43564433 0.52871734 1.4488127 12468777
0.4343729 0.51048571 1.3988537 12337190
0.44812369 0.51048571 1.3988537 12337190
0.46187449 0.51048571 1.3988537 12468265
0.47562528 0.51048571 1.3988537 12403239
0.48937607 0.51048571 1.3988537 12271399
0.60794497 0.61683691 1.6902815 12403498
0.71378344 0.70495647 1.9317503 12468261
0.73277265 0.70495647 1.9317503 12468004
0.75176179 0.70495647 1.9317503 12402470
0.67440712 0.61683691 1.6902815 12599592
0.72106713 0.6436559 1.763772 12205606
0.73840511 0.6436559 1.763772 12402728
0.82771862 0.70495647 1.9317503 12205862
0.74086928 0.61683691 1.6902815 12271655
0.72718549 0.59216344 1.6226703 11943717
0.68808925 0.54829949 1.5024725 12008998
0.67775649 0.52871734 1.4488127 12205604
0.69199842 0.52871734 1.4488127 11943974
0.7062403 0.52871734 1.4488127 11877927
0.72048217 0.52871734 1.4488127 11943461
0.7347241 0.52871734 1.4488127 11877928
0.7767055 0.54829949 1.5024725 11811619
0.82191622 0.56938797 1.5602599 11877414
0.83725363 0.56938797 1.5602599 11876900
0.8525911 0.56938797 1.5602599 11353125
0.8679285 0.56938797 1.5602599 11746598
0.91859657 0.59216344 1.6226703 11680547
1.1125565 0.70495647 1.9317503 11812136
1.188123 0.74020433 2.028338 12139816
1.2716439 0.77916247 2.1350925 11746343
1.2926319 0.77916247 2.1350925 11614755
1.247939 0.74020433 2.028338 11680547
1.2678777 0.74020433 2.028338 11483170
1.2878163 0.74020433 2.028338 11156261
1.307755 0.74020433 2.028338 11156004
1.3276936 0.74020433 2.028338 11353640
1.3476323 0.74020433 2.028338 11287075
1.3675709 0.74020433 2.028338 11352357
1.3875096 0.74020433 2.028338 11286562
1.3404268 0.70495647 1.9317503 11089955
1.359416 0.70495647 1.9317503 11090468
1.1578604 0.59216344 1.6226703 11352613
1.1738113 0.59216344 1.6226703 11155491
1.1897622 0.59216344 1.6226703 11155748
1.2057132 0.59216344 1.6226703 11286820
1.2216641 0.59216344 1.6226703 11089955
1.2891822 0.61683691 1.6902815 10630945
1.3057978 0.61683691 1.6902815 10434339
1.3224133 0.61683691 1.6902815 10303780
1.3390288 0.61683691 1.6902815 10435366
1.3014187 0.59216344 1.6226703 10501159
1.3173696 0.59216344 1.6226703 10435109
1.3333205 0.59216344 1.6226703 10434595
1.2973764 0.56938797 1.5602599 10698025
1.3652223 0.59216344 1.6226703 10632745
1.3811733 0.59216344 1.6226703 10501417
1.3971242 0.59216344 1.6226703 10370344
1.4130751 0.59216344 1.6226703 10566439
1.429026 0.59216344 1.6226703 10041640
1.6420193 0.67291301 1.8439435 10305579
1.6601453 0.67291301 1.8439435 10501931
2.6372836 1.0574347 2.8976254 10501674
3.1100619 1.2336738 3.380563 10566954
3.1432929 1.2336738 3.380563 10436138
4.2353659 1.6448985 4.5074177 10698540
2.962851 1.1387759 3.1205199 10501159
2.4322398 0.92525542 2.5354223 10370344
1.5725844 0.59216344 1.6226703 10305579
1.5274378 0.56938797 1.5602599 10107687
1.4856354 0.54829949 1.5024725 10173480
1.5004047 0.54829949 1.5024725 10107689
1.5151742 0.54829949 1.5024725 10107690
1.4753026 0.52871734 1.4488127 9976101
1.4895445 0.52871734 1.4488127 10107686
1.5594822 0.54829949 1.5024725 10239273
1.5742517 0.54829949 1.5024725 10239017
1.5322702 0.52871734 1.4488127 10107688
1.546512 0.52871734 1.4488127 10305067
1.3242761 0.44860867 1.2292956 10371116
1.2599968 0.4229739 1.1590502 10634029
1.2026664 0.40011045 1.0963988 10700079
1.2134441 0.40011045 1.0963988 10765615
1.2242217 0.40011045 1.0963988 10830894
1.2349994 0.40011045 1.0963988 10700335
1.245777 0.40011045 1.0963988 10700333
1.2565546 0.40011045 1.0963988 10700078
0 0 0 10503215
0 0 0 10371888
0 0 0 9192752
0 0 0 7224363
0 0 0 6303780
0 0 0 6238245
0 0 0 6303781
0 0 0 6237988
0 0 0 5648422
0 0 0 5779495
0 0 0 5977127
0 0 0 6239271
0 0 0 7354666
0 0 0 8733232
0 0 0 10044978
0 0 0 4335391
0 0 0 2232332
-0.89658266 0.28153443 0.75123626 1772815
-0.88919795 0.28153443 0.75123626 1969425
-0.88181329 0.28153443 0.75123626 1838867
-0.8909272 0.2868464 0.76541048 1707281
-0.88340318 0.2868464 0.76541048 1641231
-0.87587917 0.2868464 0.76541048 1575438
-0.8683551 0.2868464 0.76541048 1575438
-0.86083108 0.2868464 0.76541048 1707024
-0.85330707 0.2868464 0.76541048 1575438
-0.86204821 0.29236269 0.78012997 1509645
-0.85437948 0.29236269 0.78012997 1641231
-0.84671074 0.29236269 0.78012997 1444109
-0.80796641 0.28153443 0.75123626 1509902
-0.80058169 0.28153443 0.75123626 1444109
-0.79319704 0.28153443 0.75123626 1575438
-0.78581238 0.28153443 0.75123626 1773075
-0.76427442 0.27641562 0.73757738 1773075
-0.771043 0.28153443 0.75123626 2102297
-0.76365829 0.28153443 0.75123626 2562591
-0.77054286 0.2868464 0.76541048 2694691
-0.76301885 0.2868464 0.76541048 3023657
-0.74150425 0.28153443 0.75123626 3746090
-0.74797082 0.2868464 0.76541048 4401959
-0.75468624 0.29236269 0.78012997 4204065
-0.7470175 0.29236269 0.78012997 3875613
-0.73934877 0.29236269 0.78012997 3677721
-0.71787477 0.2868464 0.76541048 4071709
-0.71035069 0.2868464 0.76541048 4727322
-0.70282668 0.2868464 0.76541048 5712932
-0.69530267 0.2868464 0.76541048 6698796
-0.68777865 0.2868464 0.76541048 8011311
-0.69333649 0.29236269 0.78012997 9912624
-0.69911224 0.29809529 0.79542661 10959909
-0.71950924 0.31026244 0.82789302 11354410
0 0 0 11222052
0 0 0 11484967
-0.83072275 0.37080145 0.98943311 11549218
-0.82099658 0.37080145 0.98943311 11157029
-0.81127042 0.37080145 0.98943311 11353895
-0.80154425 0.37080145 0.98943311 11353123
-0.81161356 0.38007149 1.014169 11551014
-0.97168988 0.46069267 1.2292956 11418659
0 0 0 11353638
0 0 0 11616295
0 0 0 11551015
0 0 0 11747368
0 0 0 11550247
0 0 0 11681320
-2.0910254 1.0859185 2.8976254 11615527
-2.0625415 1.0859185 2.8976254 11681318
-2.1905239 1.1694508 3.1205199 11615782
-2.1598489 1.1694508 3.1205199 11878695
-2.1291742 1.1694508 3.1205199 11681572
-2.4800446 1.3820781 3.687887 11943461
-2.4437923 1.3820781 3.687887 11877927
-2.4075403 1.3820781 3.687887 12009511
-2.6084173 1.520286 4.0566759 11878182
-2.1404498 1.266905 3.380563 11747111
-2.1072187 1.266905 3.380563 11878951
-2.0739877 1.266905 3.380563 12075045
-2.0407565 1.266905 3.380563 12206890
-2.1900277 1.3820781 3.687887 12272426
-2.1537757 1.3820781 3.687887 11943974
-2.3292761 1.520286 4.0566759 12141353
-2.2893987 1.520286 4.0566759 12009254
-1.7304012 1.1694508 3.1205199 12009254
-1.6997262 1.1694508 3.1205199 12206118
-2.1697669 1.520286 4.0566759 11747110
-2.1298895 1.520286 4.0566759 12009511
-2.0900123 1.520286 4.0566759 12009254
-2.2779276 1.6892067 4.5074177 12337192
-2.2336197 1.6892067 4.5074177 12272167
-2.1893115 1.6892067 4.5074177 12337447
-1.930503 1.520286 4.0566759 12271654
-1.5755213 1.266905 3.380563 12271910
-1.0886755 0.89428586 2.3862798 12534569
-0.90543556 0.76014298 2.028338 12533799
-0.6559236 0.56306887 1.5024725 12271651
-0.5969367 0.5242365 1.3988537 11943461
-0.51249665 0.46069267 1.2292956 12271141
-0.43456891 0.40007526 1.0675462 11943461
-0.38368678 0.36197284 0.96587515 12074533
-0.36549005 0.35355487 0.94341296 12140326
-0.35621625 0.35355487 0.94341296 12337192
-0.33905742 0.34551951 0.92197174 12468006
-0.3156468 0.33049694 0.88188601 12401956
-0.30697781 0.33049694 0.88188601 12468262
-0.30493793 0.3378413 0.90148348 12468260
-0.2960763 0.3378413 0.90148348 12205862
-0.26376858 0.31026244 0.82789302 12337190
-0.25051776 0.30405718 0.81133515 11943207
-0.2425423 0.30405718 0.81133515 11943461
-0.23935391 0.31026244 0.82789302 11877668
-0.22659136 0.30405718 0.81133515 12140068
-0.2186159 0.30405718 0.81133515 12008483
-0.21064045 0.30405718 0.81133515 12008226
-0.20266499 0.30405718 0.81133515 11811875
-0.19468953 0.30405718 0.81133515 11745828
-0.18671407 0.30405718 0.81133515 11811875
-0.17873861 0.30405718 0.81133515 12074020
-0.17076315 0.30405718 0.81133515 12008740
-0.15959577 0.29809529 0.79542661 12074018
-0.15481222 0.30405718 0.81133515 12008486
-0.14683676 0.30405718 0.81133515 11811107
-0.13613853 0.29809529 0.79542661 11745570
-0.12831944 0.29809529 0.79542661 11811364
-0.12050037 0.29809529 0.79542661 11745571
-0.11268129 0.29809529 0.79542661 11811106
-0.10284563 0.29236269 0.78012997 11810851
-0.093381122 0.2868464 0.76541048 11877411
-0.085857108 0.2868464 0.76541048 12008740
-0.078333087 0.2868464 0.76541048 12008740
-0.072170787 0.29236269 0.78012997 12139041
-0.064502068 0.29236269 0.78012997 12270627
-0.057947736 0.29809529 0.79542661 12204834
-0.050128657 0.29809529 0.79542661 12270627
-0.0440365 0.31026244 0.82789302 12074272
-0.035180308 0.30405718 0.81133515 12139811
-0.027760049 0.31026244 0.82789302 12205604
-0.02003061 0.31672624 0.84514076 12139811
-0.013397531 0.36197284 0.96587515 12074533
-0.003902934 0.36197284 0.96587515 12205604
0.0055916621 0.36197284 0.96587515 11811875
0.015454216 0.37080145 0.98943311 12139813
0 0 0 12074533
0 0 0 12008486
0 0 0 12205604
0.074290499 0.50676197 1.3522252 12402213
0.087582931 0.50676197 1.3522252 12139811
0.11208375 0.56306887 1.5024725 12533283
0.12685312 0.56306887 1.5024725 12139811
0.14706951 0.58472538 1.5602599 12402213
0.17594084 0.63345248 1.6902815 12205348
0.21006151 0.69103903 1.8439435 12270628
0.23905364 0.72394568 1.9317503 12533028
0.25804281 0.72394568 1.9317503 12599078
0.34221601 0.89428586 2.3862798 12598308
0.38852784 0.95017874 2.5354223 12664613
0.55126822 1.266905 3.380563 12533541
0.70139921 1.520286 4.0566759 12533285
0.82364053 1.6892067 4.5074177 12469030
0.86794865 1.6892067 4.5074177 12336420
0.51314443 0.95017874 2.5354223 12730408
0.43045419 0.76014298 2.028338 12730408
0.45039287 0.76014298 2.028338 12402983
0.52259058 0.84460336 2.2537088 12468260
0.54474461 0.84460336 2.2537088 12467490
0.60024565 0.89428586 2.3862798 12731432
0.5049023 0.72394568 1.9317503 12861735
0.47833574 0.66099387 1.763772 12796455
0.47502062 0.63345248 1.6902815 12665127
0.47197074 0.60811436 1.6226703 12402213
0.48792166 0.60811436 1.6226703 12402983
0.4498862 0.54295927 1.4488127 12205604
0.59070849 0.69103903 1.8439435 12205604
0.60883456 0.69103903 1.8439435 12468518
0.53050512 0.58472538 1.5602599 12600103
0.56767625 0.60811436 1.6226703 12337705
0.63437736 0.66099387 1.763772 12140326
0.71378344 0.72394568 1.9317503 12205604
0.73277265 0.72394568 1.9317503 12337449
0.75176179 0.72394568 1.9317503 12074532
0.67440712 0.63345248 1.6902815 12008740
0.72106713 0.66099387 1.763772 12206117
0.73840511 0.66099387 1.763772 12468261
0.82771862 0.72394568 1.9317503 12271398
0.74086928 0.63345248 1.6902815 12337705
0.72718549 0.60811436 1.6226703 12336420
0.71455425 0.58472538 1.5602599 12270884
0.72989166 0.58472538 1.5602599 12008740
0.74522913 0.58472538 1.5602599 12206119
0.76056653 0.58472538 1.5602599 11943205
0.77590394 0.58472538 1.5602599 11746595
0.76193613 0.56306887 1.5024725 12008488
0.80657881 0.58472538 1.5602599 12008742
0.85479283 0.60811436 1.6226703 11418918
0.87074375 0.60811436 1.6226703 11221541
0.8525911 0.58472538 1.5602599 11483942
0.90264559 0.60811436 1.6226703 11548962
1.0438597 0.69103903 1.8439435 11615270
1.1681844 0.76014298 2.028338 11746595
1.2506558 0.80015051 2.1350925 11943461
1.2716439 0.80015051 2.1350925 11746086
1.2280003 0.76014298 2.028338 11483941
1.247939 0.76014298 2.028338 11811621
1.2075025 0.72394568 1.9317503 11745315
1.2878163 0.76014298 2.028338 11746343
1.307755 0.76014298 2.028338 11615271
1.3276936 0.76014298 2.028338 11221027
1.3476323 0.76014298 2.028338 11418148
1.3675709 0.76014298 2.028338 11549734
1.3875096 0.76014298 2.028338 11155746
1.4074482 0.76014298 2.028338 11090211
1.359416 0.72394568 1.9317503 11024675
1.2585438 0.66099387 1.763772 11352357
1.1738113 0.60811436 1.6226703 11221026
1.1897622 0.60811436 1.6226703 11024675
1.2057132 0.60811436 1.6226703 11156004
1.2725667 0.63345248 1.6902815 11090210
1.2891822 0.63345248 1.6902815 10958882
1.3057978 0.63345248 1.6902815 10893089
1.3224133 0.63345248 1.6902815 10697767
1.3390288 0.63345248 1.6902815 10632232
1.3556443 0.63345248 1.6902815 10566439
1.3173696 0.60811436 1.6226703 10697511
1.3333205 0.60811436 1.6226703 10238760
1.2973764 0.58472538 1.5602599 10041894
1.3127139 0.58472538 1.5602599 10369317
1.3811733 0.60811436 1.6226703 10237734
1.3971242 0.60811436 1.6226703 10632489
1.4130751 0.60811436 1.6226703 10697255
1.429026 0.60811436 1.6226703 10501160
1.5706271 0.66099387 1.763772 10172965
3.0435996 1.266905 3.380563 10239271
3.3565426 1.3820781 3.687887 10370859
3.7320745 1.520286 4.0566759 10435367
4.7149396 1.9003575 5.0708447 10633260
4.2353659 1.6892067 4.5074177 10501414
4.2796736 1.6892067 4.5074177 10501157
5.5594049 2.1718371 5.7952509 10632232
5.6163726 2.1718371 5.7952509 10305066
1.5885353 0.60811436 1.6226703 10239017
1.4856354 0.56306887 1.5024725 10108200
1.5004047 0.56306887 1.5024725 10238759
1.5734501 0.58472538 1.5602599 10173480
1.5887874 0.58472538 1.5602599 10173480
1.6041249 0.58472538 1.5602599 10173479
1.6194624 0.58472538 1.5602599 10370345
1.5742517 0.56306887 1.5024725 10107432
1.5322702 0.54295927 1.4488127 10107687
1.546512 0.54295927 1.4488127 10305066
1.5069349 0.5242365 1.3988537 10305066
1.3363601 0.46069267 1.2292956 10371115
1.2026664 0.41088808 1.0963988 10174761
1.1815114 0.40007526 1.0675462 10241069
1.1920054 0.40007526 1.0675462 10503984
1.2024994 0.40007526 1.0675462 10700333
1.2129934 0.40007526 1.0675462 10765870
1.1623131 0.38007149 1.014169 10764331
1.202341 0.38981691 1.0401733 10568236
0 0 0 10108200
0 0 0 10109742
0 0 0 8995376
0 0 0 6828580
0 0 0 5975073
0 0 0 6238247
0 0 0 6566950
0 0 0 6106915
0 0 0 5713956
0 0 0 5779749
0 0 0 5780006
0 0 0 5911337
0 0 0 6765614
0 0 0 8797996
0 0 0 1838350
0 0 0 1838607
-0.84939408 0.27371287 0.71169752 1904401
-0.84239805 0.27371287 0.71169752 4008749
-0.83540207 0.27371287 0.71169752 5846832
-0.85852987 0.28366604 0.73757738 5124912
-0.86704391 0.28891912 0.75123626 3086873
-0.82895708 0.27860057 0.72440636 1575695
-0.82183611 0.27860057 0.72440636 1707281
-0.86083108 0.29437041 0.76541048 1641231
-0.85330707 0.29437041 0.76541048 1707024
-0.84578305 0.29437041 0.76541048 1838867
-0.83825904 0.29437041 0.76541048 1904660
-0.81535107 0.28891912 0.75123626 2233625
-0.80796641 0.28891912 0.75123626 2497054
-0.80058169 0.28891912 0.75123626 2365980
-0.77877522 0.28366604 0.73757738 2365209
-0.77152479 0.28366604 0.73757738 2759194
-0.76427442 0.28366604 0.73757738 3745061
-0.75702399 0.28366604 0.73757738 4204329
-0.76365829 0.28891912 0.75123626 4138536
-0.75627363 0.28891912 0.75123626 4073511
-0.74888891 0.28891912 0.75123626 3678495
-0.74150425 0.28891912 0.75123626 3941409
-0.76235491 0.30003139 0.78012997 4204834
-0.75468624 0.30003139 0.78012997 4925988
-0.79275328 0.31840068 0.82789302 5514783
-0.73934877 0.30003139 0.78012997 7353128
-0.71787477 0.29437041 0.76541048 8402986
-0.71035069 0.29437041 0.76541048 9584427
-0.70282668 0.29437041 0.76541048 10435624
-0.68242675 0.28891912 0.75123626 10894631
-0.68777865 0.29437041 0.76541048 10894373
-0.69333649 0.30003139 0.78012997 10960166
-0.71309447 0.31203264 0.81133515 11288359
-0.71950924 0.31840068 0.82789302 11222567
-0.711371 0.31840068 0.82789302 11091238
-0.84044892 0.38052762 0.98943311 11550506
-0.79208446 0.36282867 0.94341296 11484711
-0.82099658 0.38052762 0.98943311 11353125
-0.81127042 0.38052762 0.98943311 11549990
-0.80154425 0.38052762 0.98943311 11549734
-0.81161356 0.39004084 1.014169 11418918
0 0 0 11419431
0 0 0 11419431
0 0 0 11485225
0 0 0 11287332
0 0 0 11419689
0 0 0 11420203
-1.9782085 1.0401088 2.7044504 11616553
-1.9516237 1.0401088 2.7044504 11682090
-2.0625415 1.1144023 2.8976254 11812904
-2.1905239 1.2001256 3.1205199 11878181
-2.3398364 1.300136 3.380563 11747366
-2.3066053 1.300136 3.380563 12009254
-2.2733741 1.300136 3.380563 12009254
-2.4437923 1.4183302 3.687887 11812134
-2.4075403 1.4183302 3.687887 11943720
-2.3712883 1.4183302 3.687887 11812134
-2.335036 1.4183302 3.687887 11681062
-2.5286627 1.5601634 4.0566759 12008997
-2.262532 1.4183302 3.687887 12206119
-2.22628 1.4183302 3.687887 11943974
-2.1900277 1.4183302 3.687887 12206117
-2.1537757 1.4183302 3.687887 11878694
-2.3292761 1.5601634 4.0566759 12010021
-2.2893987 1.5601634 4.0566759 12009510
-1.7304012 1.2001256 3.1205199 12074531
-1.6997262 1.2001256 3.1205199 12271909
-1.808139 1.300136 3.380563 12140324
-2.1298895 1.5601634 4.0566759 12140326
-2.0900123 1.5601634 4.0566759 12075047
-2.0501349 1.5601634 4.0566759 12075047
-2.2336197 1.7335148 4.5074177 12403240
-2.1893115 1.7335148 4.5074177 12139811
-1.930503 1.5601634 4.0566759 12074278
-1.5755213 1.300136 3.380563 12403241
-1.4236526 1.2001256 3.1205199 12206119
-0.90543556 0.78008169 2.028338 11943974
-0.68115145 0.60006279 1.5602599 12009253
-0.61825585 0.55720115 1.4488127 11418916
-0.51249665 0.47277671 1.2292956 11811618
-0.44631401 0.42166573 1.0963988 12075046
-0.38368678 0.37146744 0.96587515 12074275
-0.36549005 0.36282867 0.94341296 12205604
-0.34812042 0.35458255 0.92197174 12271397
-0.33905742 0.35458255 0.92197174 12270628
-0.3156468 0.33916593 0.88188601 12271651
-0.30697781 0.33916593 0.88188601 12271655
-0.29830885 0.33916593 0.88188601 12336933
-0.2960763 0.34670293 0.90148348 12271398
-0.28721467 0.34670293 0.90148348 12008740
-0.27835307 0.34670293 0.90148348 12205606
-0.2425423 0.31203264 0.81133515 12009252
-0.23935391 0.31840068 0.82789302 11943461
-0.23121569 0.31840068 0.82789302 11615009
-0.22772489 0.32503399 0.84514076 11942949
-0.21941712 0.32503399 0.84514076 12008741
-0.20680101 0.31840068 0.82789302 11942948
-0.19866279 0.31840068 0.82789302 11614497
-0.19052456 0.31840068 0.82789302 12074020
-0.18618605 0.32503399 0.84514076 12139041
-0.17076315 0.31203264 0.81133515 12204834
-0.16278769 0.31203264 0.81133515 11745568
-0.15481222 0.31203264 0.81133515 11745314
-0.14683676 0.31203264 0.81133515 12073763
-0.13613853 0.30591437 0.79542661 11811877
-0.12831944 0.30591437 0.79542661 12007968
-0.12050037 0.30591437 0.79542661 12205350
-0.11268129 0.30591437 0.79542661 12205092
-0.10284563 0.30003139 0.78012997 12139555
-0.09517692 0.30003139 0.78012997 12204835
-0.087508209 0.30003139 0.78012997 11680289
-0.079839498 0.30003139 0.78012997 11549729
-0.072170787 0.30003139 0.78012997 11876900
-0.064502068 0.30003139 0.78012997 11942179
-0.057947736 0.30591437 0.79542661 11943204
-0.052174725 0.31840068 0.82789302 12008227
-0.0440365 0.31840068 0.82789302 11876641
-0.035898276 0.31840068 0.82789302 12270884
-0.030227607 0.34670293 0.90148348 12336422
-0.021365985 0.34670293 0.90148348 11943461
-0.013397531 0.37146744 0.96587515 12533029
-0.0039981278 0.38052762 0.98943311 12270627
0.0055916621 0.37146744 0.96587515 12336674
0.015454216 0.38052762 0.98943311 12074018
0 0 0 12139813
0 0 0 11876641
0 0 0 12074018
0.079596967 0.55720115 1.4488127 12402213
0.093838856 0.55720115 1.4488127 12139811
0.12105045 0.62406528 1.6226703 12139810
0.13700137 0.62406528 1.6226703 12140580
0.15295228 0.62406528 1.6226703 12271141
0.17594084 0.65006799 1.6902815 12401958
0.21006151 0.7091651 1.8439435 12336163
0.22818756 0.7091651 1.8439435 12270884
0.28520525 0.82113856 2.1350925 12205604
0.36360452 0.97510201 2.5354223 12140069
0.4440318 1.1144023 2.8976254 12204833
0.55126822 1.300136 3.380563 12467236
0.5844993 1.300136 3.380563 12271397
0.7412765 1.5601634 4.0566759 12401443
0.86794865 1.7335148 4.5074177 12336420
0.51314443 0.97510201 2.5354223 12337190
0.50641668 0.91774309 2.3862798 12796455
0.50043648 0.86675739 2.2537088 12795942
0.55333114 0.91774309 2.3862798 12337444
0.57678843 0.91774309 2.3862798 12534053
0.60024565 0.91774309 2.3862798 12599847
0.62370288 0.91774309 2.3862798 12599591
0.50007826 0.7091651 1.8439435 12468776
0.49567369 0.67833185 1.763772 12861735
0.51301163 0.67833185 1.763772 12664615
0.53034961 0.67833185 1.763772 12664615
0.57258248 0.7091651 1.8439435 12337192
0.61883748 0.74293488 1.9317503 12664872
0.63782668 0.74293488 1.9317503 12599080
0.57471389 0.65006799 1.6902815 12467748
0.5913294 0.65006799 1.6902815 12271397
0.60794497 0.65006799 1.6902815 12336422
0.71378344 0.74293488 1.9317503 12074536
0.73277265 0.74293488 1.9317503 11943207
0.75176179 0.74293488 1.9317503 12075047
0.70372921 0.67833185 1.763772 12206119
0.72106713 0.67833185 1.763772 12074277
0.80872941 0.74293488 1.9317503 12205605
0.82771862 0.74293488 1.9317503 12140072
0.71123457 0.62406528 1.6226703 12139559
0.72718549 0.62406528 1.6226703 12140069
0.71455425 0.60006279 1.5602599 12140326
0.72989166 0.60006279 1.5602599 11745828
0.74522913 0.60006279 1.5602599 11942950
0.76056653 0.60006279 1.5602599 11877668
0.77590394 0.60006279 1.5602599 12008486
0.79124135 0.60006279 1.5602599 11877415
0.83884192 0.62406528 1.6226703 11484709
0.85479283 0.62406528 1.6226703 11811622
0.87074375 0.62406528 1.6226703 11681064
0.96379858 0.67833185 1.763772 11025959
1.0257336 0.7091651 1.8439435 11091751
1.0935673 0.74293488 1.9317503 11418148
1.1681844 0.78008169 2.028338 11221283
1.2506558 0.82113856 2.1350925 11418661
1.2716439 0.82113856 2.1350925 11352355
1.2280003 0.78008169 2.028338 11680548
1.247939 0.78008169 2.028338 11024160
1.2075025 0.74293488 1.9317503 11483682
1.2264916 0.74293488 1.9317503 11418405
1.307755 0.78008169 2.028338 11352353
1.3276936 0.78008169 2.028338 11549477
1.3476323 0.78008169 2.028338 11680037
1.3675709 0.78008169 2.028338 11548964
1.3875096 0.78008169 2.028338 11418148
1.4815243 0.82113856 2.1350925 11483171
1.4273869 0.78008169 2.028338 11090212
1.2585438 0.67833185 1.763772 11156261
1.1738113 0.62406528 1.6226703 11090723
1.1897622 0.62406528 1.6226703 11090212
