# .PCD v0.7 - Point Cloud Data file format
VERSION 0.7
FIELDS x y z rgb
SIZE 4 4 4 4
TYPE F F F U
COUNT 1 1 1 1
WIDTH 1267
HEIGHT 1
VIEWPOINT 0 0 0 1 0 0 0
POINTS 1267
DATA ascii
-1.1376687 0.33711109 1.0675462 1838610
-1.1271747 0.33711109 1.0675462 1772817
-1.1787186 0.35583949 1.1268544 1772817
-1.1676415 0.35583949 1.1268544 2035473
-1.3431071 0.41323295 1.3086051 1904401
-1.1145283 0.34622219 1.0963988 1838610
-1.0209694 0.32025555 1.014169 1576465
-0.77769232 0.24635041 0.78012997 1379084
-0.77002364 0.24635041 0.78012997 2101783
-0.77730304 0.2511808 0.79542661 2627611
-0.78487366 0.25620443 0.81133515 2957346
-0.76166487 0.2511808 0.79542661 2172447
-0.75384581 0.2511808 0.79542661 4680254
-0.74602669 0.2511808 0.79542661 1316358
-0.73820764 0.2511808 0.79542661 1773071
-0.73038858 0.2511808 0.79542661 2232856
-0.72256947 0.2511808 0.79542661 3152924
-0.71475041 0.2511808 0.79542661 4598312
-0.70693129 0.2511808 0.79542661 5783090
-0.71309447 0.25620443 0.81133515 8682861
-0.70511901 0.25620443 0.81133515 4021571
-0.69714355 0.25620443 0.81133515 4600612
-0.70323277 0.26143309 0.82789302 3546650
-0.70957565 0.26687959 0.84514076 1050640
-0.7012679 0.26687959 0.84514076 1575696
-0.70770395 0.27255788 0.86312246 1772817
-0.71441984 0.27848306 0.88188601 1970196
-0.72143424 0.28467157 0.90148348 2893093
-0.71257257 0.28467157 0.90148348 4271396
-0.73644173 0.29791212 0.94341296 7422254
-0.76263952 0.31244442 0.98943311 7686190
-0.75291336 0.31244442 0.98943311 7685421
-0.74318719 0.31244442 0.98943311 7815980
-0.73346102 0.31244442 0.98943311 7947824
0 0 0 8210994
0 0 0 8341808
0 0 0 7882543
0 0 0 7684653
0 0 0 8079410
0 0 0 9393728
0 0 0 10381641
0 0 0 10512196
0 0 0 11168070
0 0 0 10969151
-3.2106748 1.6012777 5.0708447 11161907
-2.5286627 1.2810222 4.0566759 11749932
-2.4887853 1.2810222 4.0566759 12207918
-2.4489081 1.2810222 4.0566759 12470318
-2.6767008 1.423358 4.5074177 12404267
-2.6323926 1.423358 4.5074177 12535338
-2.5880845 1.423358 4.5074177 12469803
-2.5437765 1.423358 4.5074177 12536109
-2.4994683 1.423358 4.5074177 12469803
-2.4551601 1.423358 4.5074177 12535081
-2.7122085 1.6012777 5.0708447 12468006
-2.366544 1.423358 4.5074177 12075046
-2.0900123 1.2810222 4.0566759 12206632
-1.8637589 1.1645656 3.687887 12535082
-0.80410302 0.51240885 1.6226703 12732202
-0.7881521 0.51240885 1.6226703 12731432
-0.71500111 0.47445264 1.5024725 12535336
-0.65193987 0.44173175 1.3988537 12731432
-0.63818908 0.44173175 1.3988537 12535078
-0.60362363 0.42700735 1.3522252 12535336
-0.52088052 0.37677121 1.1931399 12534823
-0.48086569 0.35583949 1.1268544 12404010
-0.45709166 0.34622219 1.0963988 12534569
-0.40277117 0.31244442 0.98943311 12272168
-0.38368678 0.30500525 0.96587515 12337445
-0.36549005 0.29791212 0.94341296 12271910
-0.34812042 0.29114139 0.92197174 12205861
-0.33905742 0.29114139 0.92197174 12403240
-0.32266116 0.28467157 0.90148348 12205861
-0.31379956 0.28467157 0.90148348 12271651
-0.30493793 0.28467157 0.90148348 12337190
-0.2960763 0.28467157 0.90148348 12074793
-0.28721467 0.28467157 0.90148348 12139812
-0.26095599 0.26687959 0.84514076 12008997
-0.24749213 0.26143309 0.82789302 12075047
-0.24434045 0.26687959 0.84514076 11877668
-0.23603266 0.26687959 0.84514076 12206117
-0.22772489 0.26687959 0.84514076 12271654
-0.21493924 0.26143309 0.82789302 12008740
-0.20266499 0.25620443 0.81133515 12336420
-0.19468953 0.25620443 0.81133515 12665642
-0.19052456 0.26143309 0.82789302 12074532
-0.18238634 0.26143309 0.82789302 12336933
-0.17424811 0.26143309 0.82789302 12270371
-0.16610989 0.26143309 0.82789302 11877668
-0.15481222 0.25620443 0.81133515 12139811
-0.14395761 0.2511808 0.79542661 11811361
-0.13613853 0.2511808 0.79542661 11942947
-0.13088584 0.25620443 0.81133515 11942432
-0.12291038 0.25620443 0.81133515 11877411
-0.11493492 0.25620443 0.81133515 12205091
-0.1091423 0.26143309 0.82789302 12335908
-0.10100408 0.26143309 0.82789302 12467236
-0.094800554 0.26687959 0.84514076 12401954
-0.083033077 0.25620443 0.81133515 12598819
-0.072170787 0.24635041 0.78012997 12205346
-0.064502068 0.24635041 0.78012997 12336420
-0.056833357 0.24635041 0.78012997 12533283
-0.050128657 0.2511808 0.79542661 12664356
-0.043155771 0.25620443 0.81133515 12467490
-0.039089229 0.28467157 0.90148348 12533540
-0.028941326 0.27255788 0.86312246 12008740
-0.019621823 0.26143309 0.82789302 12335904
-0.011483598 0.26143309 0.82789302 12008738
-0.0034150674 0.26687959 0.84514076 12271651
0.0052188844 0.28467157 0.90148348 12205604
0.014080508 0.28467157 0.90148348 12599589
0.022942131 0.28467157 0.90148348 12468006
0.03407545 0.30500525 0.96587515 12272164
0.044632733 0.31244442 0.98943311 12599076
0 0 0 12664356
0 0 0 12730662
0 0 0 12271397
0 0 0 12533284
0 0 0 12468517
0.24838707 0.75354242 2.3862798 12599589
0.2718443 0.75354242 2.3862798 12271397
0.35858044 0.91501576 2.8976254 12599076
0.45157495 1.0675184 3.380563 12599845
0.58176726 1.2810222 4.0566759 12534823
0.62164456 1.2810222 4.0566759 12796455
0.66152191 1.2810222 4.0566759 12599844
0.70139921 1.2810222 4.0566759 12927783
0.82364053 1.423358 4.5074177 12796455
0.86794865 1.423358 4.5074177 12796454
0.82103109 1.2810222 4.0566759 12795941
0.57393891 0.85401469 2.7044504 12796454
0.56299102 0.80063885 2.5354223 13321515
0.58791435 0.80063885 2.5354223 12534823
0.61283767 0.80063885 2.5354223 12600616
0.60024565 0.75354242 2.3862798 12665641
0.62370288 0.75354242 2.3862798 12993062
0.64716011 0.75354242 2.3862798 12731177
0.67061734 0.75354242 2.3862798 12731687
0.58996344 0.6405111 2.028338 12796453
0.33883449 0.35583949 1.1268544 12665638
0.33149511 0.33711109 1.0675462 12796454
0.34198913 0.33711109 1.0675462 12796454
0.39395177 0.37677121 1.1931399 12599846
0.43103543 0.40031943 1.2677112 12796455
0.43005773 0.38818851 1.2292956 12402213
0.60794497 0.53375918 1.6902815 12796455
0.62456053 0.53375918 1.6902815 12665384
0.73277265 0.6100105 1.9317503 12730406
0.75176179 0.6100105 1.9317503 12402983
0.770751 0.6100105 1.9317503 12795942
0.7897402 0.6100105 1.9317503 12271398
0.80872941 0.6100105 1.9317503 12534057
0.79009503 0.58228278 1.8439435 12337705
0.61313319 0.44173175 1.3988537 12468776
0.58643991 0.41323295 1.3086051 12402983
0.59930354 0.41323295 1.3086051 12075047
0.59303695 0.40031943 1.2677112 12205604
0.66813642 0.44173175 1.3988537 12402983
0.68188721 0.44173175 1.3988537 12139813
0.695638 0.44173175 1.3988537 12075047
0.76193613 0.47445264 1.5024725 11746084
0.83884192 0.51240885 1.6226703 11877669
0.85479283 0.51240885 1.6226703 11943720
0.87074375 0.51240885 1.6226703 11812133
0.8525911 0.49270082 1.5602599 11812136
0.8679285 0.49270082 1.5602599 12074792
0.95687139 0.53375918 1.6902815 11615525
1.0619857 0.58228278 1.8439435 11418404
1.1315457 0.6100105 1.9317503 11746342
1.1505349 0.6100105 1.9317503 11287847
1.1695241 0.6100105 1.9317503 11615012
1.1885133 0.6100105 1.9317503 11418918
1.2075025 0.6100105 1.9317503 12008742
1.0731802 0.53375918 1.6902815 11418148
1.0897957 0.53375918 1.6902815 11615270
1.1064112 0.53375918 1.6902815 11352355
1.0781058 0.51240885 1.6226703 11812136
1.0940567 0.51240885 1.6226703 11615529
1.1100076 0.51240885 1.6226703 11418663
1.1259586 0.51240885 1.6226703 11418403
1.189489 0.53375918 1.6902815 11418663
1.2061045 0.53375918 1.6902815 11352870
1.2758818 0.55696613 1.763772 10959909
1.3520025 0.58228278 1.8439435 11222824
1.3701285 0.58228278 1.8439435 11090469
1.3882545 0.58228278 1.8439435 10828325
1.4733511 0.6100105 1.9317503 11091238
1.4923403 0.6100105 1.9317503 11287589
1.5113295 0.6100105 1.9317503 11355178
1.5303187 0.6100105 1.9317503 11158828
1.4145855 0.55696613 1.763772 10961709
1.37226 0.53375918 1.6902815 11092779
1.4492614 0.55696613 1.763772 10960679
1.4665993 0.55696613 1.763772 10895404
1.4839373 0.55696613 1.763772 10830126
1.5012753 0.55696613 1.763772 10698539
1.4553376 0.53375918 1.6902815 10698795
1.5359511 0.55696613 1.763772 10632745
1.5532892 0.55696613 1.763772 10436652
1.6420193 0.58228278 1.8439435 10698538
2.1484234 0.75354242 2.3862798 10698025
2.8401515 0.98540163 3.1205199 10699564
2.8708265 0.98540163 3.1205199 10436393
2.9015014 0.98540163 3.1205199 10501931
2.9321761 0.98540163 3.1205199 10370859
2.962851 0.98540163 3.1205199 10305066
1.9457918 0.6405111 2.028338 10371370
1.9657305 0.6405111 2.028338 10502188
1.6547242 0.53375918 1.6902815 10436652
1.6713398 0.53375918 1.6902815 10568238
1.7613447 0.55696613 1.763772 10568238
1.7786826 0.55696613 1.763772 10305325
1.7960205 0.55696613 1.763772 10240043
1.8133585 0.55696613 1.763772 10239532
0 0 0 10567724
0 0 0 10568236
3.9003241 1.1645656 3.687887 10699822
1.9682881 0.58228278 1.8439435 11029042
1.9864142 0.58228278 1.8439435 10701362
4.8999872 1.423358 4.5074177 10831150
0 0 0 10700335
0 0 0 10634544
0 0 0 10437681
0 0 0 10306352
0 0 0 9257259
0 0 0 7617322
0 0 0 7813931
3.6376977 0.98540163 3.1205199 7222825
3.6683726 0.98540163 3.1205199 6698023
3.6990473 0.98540163 3.1205199 6304295
8.0810642 2.1350367 6.761126 6305836
9.7770329 2.5620444 8.1133518 6240299
8.2139893 2.1350367 6.761126 6962733
8.2804508 2.1350367 6.761126 8471859
0 0 0 10176819
0 0 0 10307892
0 0 0 10176306
0 0 0 10241843
0 0 0 10307123
0 0 0 10634290
0 0 0 10372401
0 0 0 4532770
0 0 0 6503984
-1.05251 0.28715205 0.88188601 7159853
-1.043841 0.28715205 0.88188601 6699560
-1.0351721 0.28715205 0.88188601 6962732
-1.0265031 0.28715205 0.88188601 6831149
-1.0178341 0.28715205 0.88188601 6897710
-1.0315911 0.29353321 0.90148348 4534052
-1.0227294 0.29353321 0.90148348 2101005
-1.0138677 0.29353321 0.90148348 1903887
-1.0050062 0.29353321 0.90148348 1904146
-0.99614453 0.29353321 0.90148348 1838609
-1.0578032 0.31449986 0.96587515 1707023
-1.0738771 0.32217059 0.98943311 1773074
-1.0641508 0.32217059 0.98943311 1838610
-1.1376687 0.34760511 1.0675462 1904401
-1.0982728 0.33869216 1.0401733 1838609
-1.1166807 0.34760511 1.0675462 1772815
-1.1061866 0.34760511 1.0675462 1641231
-1.0956926 0.34760511 1.0675462 1378057
-1.0309387 0.33022487 1.014169 1772817
-0.78536105 0.25401914 0.78012997 1970197
-0.76301885 0.2492263 0.76541048 2035474
-0.75549483 0.2492263 0.76541048 1312524
-0.76235491 0.25401914 0.78012997 1248273
-0.75468624 0.25401914 0.78012997 1710365
-0.7470175 0.25401914 0.78012997 593929
-0.73934877 0.25401914 0.78012997 1117198
-0.74602669 0.25899988 0.79542661 1509903
-0.73820764 0.25899988 0.79542661 2429977
-0.73038858 0.25899988 0.79542661 3349792
-0.72256947 0.25899988 0.79542661 3874846
-0.71475041 0.25899988 0.79542661 4598053
-0.70693129 0.25899988 0.79542661 6638135
-0.69911224 0.25899988 0.79542661 7096883
-0.69129318 0.25899988 0.79542661 5058078
-0.69714355 0.26417989 0.81133515 1312516
-0.70323277 0.2695713 0.82789302 918538
-0.69509453 0.2695713 0.82789302 1181966
-0.7012679 0.27518737 0.84514076 1444623
-0.69296008 0.27518737 0.84514076 1903890
-0.71441984 0.28715205 0.88188601 2101783
-0.72143424 0.29353321 0.90148348 3617074
-0.7287674 0.3002044 0.92197174 5257260
-0.79167491 0.33022487 1.014169 6897196
0 0 0 7290669
0 0 0 7553580
0 0 0 7092516
0 0 0 6634025
0 0 0 6831918
0 0 0 8538422
0 0 0 8407345
0 0 0 8472881
0 0 0 8866098
-5.5358529 2.641799 8.1133518 10373427
-5.4560986 2.641799 8.1133518 11420973
-3.8402452 1.8869991 5.7952509 12207662
-3.3103681 1.6511242 5.0708447 12076846
-2.8982413 1.4676661 4.5074177 12141354
-3.2106748 1.6511242 5.0708447 11551530
-2.8096251 1.4676661 4.5074177 12207403
-2.765317 1.4676661 4.5074177 12535082
-2.721009 1.4676661 4.5074177 12404012
-2.6767008 1.4676661 4.5074177 12403496
-2.3691535 1.3208995 4.0566759 12469544
-2.5880845 1.4676661 4.5074177 12403496
-2.5437765 1.4676661 4.5074177 12272426
-2.8119018 1.6511242 5.0708447 12075560
-2.7620552 1.6511242 5.0708447 12272938
-2.7122085 1.6511242 5.0708447 12600875
-2.6623619 1.6511242 5.0708447 12534826
-2.0900123 1.3208995 4.0566759 12600875
-2.0501349 1.3208995 4.0566759 12534825
-1.546352 1.0160766 3.1205199 12666156
-0.93827629 0.62899971 1.9317503 12796971
-0.80437618 0.55037475 1.6902815 12599846
-0.67522341 0.47174978 1.4488127 12534308
-0.63818908 0.45548254 1.3988537 12469030
-0.62443829 0.45548254 1.3988537 12730662
-0.53666472 0.40027252 1.2292956 12665895
-0.49460471 0.37739983 1.1590502 12337701
-0.41249734 0.32217059 0.98943311 12469289
-0.40277117 0.32217059 0.98943311 12468776
-0.37476385 0.30718592 0.94341296 12206631
-0.35718346 0.3002044 0.92197174 12140838
-0.34812042 0.3002044 0.92197174 12140326
-0.33152279 0.29353321 0.90148348 11877669
-0.32266116 0.29353321 0.90148348 12205863
-0.31379956 0.29353321 0.90148348 12140582
-0.30493793 0.29353321 0.90148348 12140581
-0.2960763 0.29353321 0.90148348 12074533
-0.28721467 0.29353321 0.90148348 12009252
-0.26095599 0.27518737 0.84514076 12140579
-0.24749213 0.2695713 0.82789302 12205859
-0.23935391 0.2695713 0.82789302 12205604
-0.23121569 0.2695713 0.82789302 12139811
-0.22307746 0.2695713 0.82789302 11943717
-0.21493924 0.2695713 0.82789302 12140582
-0.20680101 0.2695713 0.82789302 12074273
-0.19866279 0.2695713 0.82789302 12139810
-0.19052456 0.2695713 0.82789302 12140068
-0.18238634 0.2695713 0.82789302 12270371
-0.17424811 0.2695713 0.82789302 12270627
-0.16610989 0.2695713 0.82789302 12205604
-0.15177669 0.25899988 0.79542661 12008995
-0.14395761 0.25899988 0.79542661 12468260
-0.13613853 0.25899988 0.79542661 12270627
-0.13088584 0.26417989 0.81133515 11877668
-0.12291038 0.26417989 0.81133515 12008740
-0.11493492 0.26417989 0.81133515 11745828
-0.10695945 0.26417989 0.81133515 11745314
-0.098983996 0.26417989 0.81133515 11942690
-0.092865855 0.2695713 0.82789302 12008483
-0.079839498 0.25401914 0.78012997 12271140
-0.072170787 0.25401914 0.78012997 12402213
-0.064502068 0.25401914 0.78012997 12140068
-0.056833357 0.25401914 0.78012997 12336162
-0.050128657 0.25899988 0.79542661 12664357
-0.042309579 0.25899988 0.79542661 12467490
-0.039089229 0.29353321 0.90148348 12401956
-0.030227607 0.29353321 0.90148348 12271397
-0.019621823 0.2695713 0.82789302 12401443
-0.011483598 0.2695713 0.82789302 12664870
-0.0033453722 0.2695713 0.82789302 12140067
0.0047928533 0.2695713 0.82789302 12074019
0.014080508 0.29353321 0.90148348 12139811
0.025180388 0.32217059 0.98943311 12205606
0 0 0 12336419
0.044632733 0.32217059 0.98943311 12336420
0 0 0 12401957
0 0 0 12730149
0 0 0 12468004
0.13700137 0.52835977 1.6226703 12927270
0.15295228 0.52835977 1.6226703 12927271
0.20107524 0.62899971 1.9317503 12796458
0.2718443 0.77699965 2.3862798 12271396
0.3137579 0.82556212 2.5354223 12664868
0.41683844 1.0160766 3.1205199 12795940
0.58176726 1.3208995 4.0566759 12599846
0.62164456 1.3208995 4.0566759 12337190
0.66152191 1.3208995 4.0566759 12534310
0.77933246 1.4676661 4.5074177 12861734
0.82364053 1.4676661 4.5074177 12403237
0.7811538 1.3208995 4.0566759 12600103
0.63156235 1.0160766 3.1205199 12665126
0.53806776 0.82556212 2.5354223 12796712
0.56299102 0.82556212 2.5354223 12599592
0.58791435 0.82556212 2.5354223 12861990
0.57678843 0.77699965 2.3862798 12927781
0.60024565 0.77699965 2.3862798 12730661
0.62370288 0.77699965 2.3862798 12927527
0.64716011 0.77699965 2.3862798 12863018
0.67061734 0.77699965 2.3862798 12534821
0.58996344 0.66044974 2.028338 12469289
0.36963758 0.40027252 1.2292956 12535082
0.34045443 0.35699984 1.0963988 12469289
0.36098856 0.36691654 1.1268544 12338984
0.39395177 0.38849983 1.1931399 12141353
0.41797373 0.40027252 1.2292956 12599847
0.43005773 0.40027252 1.2292956 12665639
0.60794497 0.55037475 1.6902815 12599590
0.65171534 0.5743041 1.763772 12533797
0.73277265 0.62899971 1.9317503 12862248
0.75176179 0.62899971 1.9317503 12468260
0.80928862 0.66044974 2.028338 12468777
0.82922727 0.66044974 2.028338 12271397
0.80872941 0.62899971 1.9317503 12731176
0.82771862 0.62899971 1.9317503 12206119
0.84670776 0.62899971 1.9317503 12008997
0.86569697 0.62899971 1.9317503 12009253
0.59930354 0.42609659 1.3086051 12271912
0.59303695 0.41278106 1.2677112 12205604
0.66813642 0.45548254 1.3988537 12074790
0.68188721 0.45548254 1.3988537 12009254
0.77590394 0.50803828 1.5602599 12075047
0.822891 0.52835977 1.6226703 12074791
0.83884192 0.52835977 1.6226703 11943720
0.85479283 0.52835977 1.6226703 12008740
0.87074375 0.52835977 1.6226703 11877671
0.88669467 0.52835977 1.6226703 11943207
0.94025582 0.55037475 1.6902815 12074278
0.95687139 0.55037475 1.6902815 11943205
1.0619857 0.60040879 1.8439435 11680548
1.1315457 0.62899971 1.9317503 12008740
1.1505349 0.62899971 1.9317503 11155746
1.1163639 0.60040879 1.8439435 11025445
1.0851643 0.5743041 1.763772 10828580
1.0565646 0.55037475 1.6902815 11353381
1.0731802 0.55037475 1.6902815 11221539
1.0897957 0.55037475 1.6902815 11025445
1.1064112 0.55037475 1.6902815 11549736
1.0781058 0.52835977 1.6226703 11090984
0.94315231 0.45548254 1.3988537 11287333
0.9910782 0.47174978 1.4488127 11418405
1.1259586 0.52835977 1.6226703 11549732
1.189489 0.55037475 1.6902815 11680550
1.3157504 0.60040879 1.8439435 11418918
1.3338765 0.60040879 1.8439435 11287590
1.3520025 0.60040879 1.8439435 11286564
1.3701285 0.60040879 1.8439435 10959141
1.4543619 0.62899971 1.9317503 11222052
1.4733511 0.62899971 1.9317503 11615527
1.4923403 0.62899971 1.9317503 11288363
1.5113295 0.62899971 1.9317503 10960936
1.4607588 0.60040879 1.8439435 10960424
1.3014187 0.52835977 1.6226703 11223851
1.3173696 0.52835977 1.6226703 11093036
1.3888755 0.55037475 1.6902815 11027756
1.533263 0.60040879 1.8439435 11027244
1.4839373 0.5743041 1.763772 10895916
1.4387221 0.55037475 1.6902815 10698536
1.4553376 0.55037475 1.6902815 10961197
1.5359511 0.5743041 1.763772 11092011
1.5532892 0.5743041 1.763772 10567722
1.6420193 0.60040879 1.8439435 10764843
2.1484234 0.77699965 2.3862798 10829096
2.8401515 1.0160766 3.1205199 10698538
2.8708265 1.0160766 3.1205199 10435367
2.9015014 1.0160766 3.1205199 10369833
2.9321761 1.0160766 3.1205199 10369833
2.2657096 0.77699965 2.3862798 10107175
1.853135 0.62899971 1.9317503 10173226
1.7093308 0.5743041 1.763772 10239019
1.6547242 0.55037475 1.6902815 10566954
1.7440066 0.5743041 1.763772 10239532
1.8414057 0.60040879 1.8439435 10239275
1.8595318 0.60040879 1.8439435 10436911
1.7211864 0.55037475 1.6902815 10240556
1.8133585 0.5743041 1.763772 10240554
0 0 0 10503728
0 0 0 10568751
4.2903566 1.3208995 4.0566759 10503470
4.3302341 1.3208995 4.0566759 10766128
4.3701115 1.3208995 4.0566759 10831410
6.2999835 1.8869991 5.7952509 10633777
7.4164429 2.201499 6.761126 10699569
0 0 0 10700080
0 0 0 10371885
0 0 0 10502445
0 0 0 10109229
0 0 0 8667180
0 0 0 6828582
0 0 0 7354409
0 0 0 6894629
3.6990473 1.0160766 3.1205199 6435109
4.0405321 1.1007495 3.380563 6106916
4.8885164 1.3208995 4.0566759 6041897
5.4759932 1.4676661 4.5074177 6174250
8.2804508 2.201499 6.761126 7093805
0 0 0 9061169
0 0 0 9586224
0 0 0 10110769
0 0 0 10504498
0 0 0 10242099
0 0 0 10373171
0 0 0 10503730
0 0 0 6174761
0 0 0 6831405
-1.05251 0.29582101 0.88188601 7028012
-1.0216316 0.28952694 0.86312246 7027497
-1.0131471 0.28952694 0.86312246 6961963
-0.9837321 0.28349516 0.84514076 6896942
-0.97542435 0.28349516 0.84514076 3546643
-0.98769349 0.28952694 0.86312246 1903883
-0.97920895 0.28952694 0.86312246 1772560
-1.0138677 0.30239484 0.90148348 1904660
-1.0050062 0.30239484 0.90148348 1904403
-0.99614453 0.30239484 0.90148348 1772817
-0.98728287 0.30239484 0.90148348 1838866
-0.97842127 0.30239484 0.90148348 1904145
-1.0641508 0.33189675 0.98943311 1904401
-1.0544246 0.33189675 0.98943311 1707023
-1.0446985 0.33189675 0.98943311 1575695
-0.81603593 0.26168784 0.78012997 1509645
-0.80836719 0.26168784 0.78012997 1707023
-0.80069846 0.26168784 0.78012997 1904402
-0.77806687 0.25675032 0.76541048 1575437
-0.75627363 0.25199568 0.75123626 1049352
-0.76301885 0.25675032 0.76541048 984588
-0.75549483 0.25675032 0.76541048 1050895
-0.76235491 0.26168784 0.78012997 787721
-0.75468624 0.26168784 0.78012997 1246987
-0.7470175 0.26168784 0.78012997 1247501
-0.73934877 0.26168784 0.78012997 1575696
-0.74602669 0.26681897 0.79542661 2298391
-0.73820764 0.26681897 0.79542661 3153185
-0.73038858 0.26681897 0.79542661 4007723
-0.72256947 0.26681897 0.79542661 3745574
-0.71475041 0.26681897 0.79542661 2757906
-0.70693129 0.26681897 0.79542661 1902596
-0.69911224 0.26681897 0.79542661 1377798
-0.70511901 0.27215534 0.81133515 1509648
-0.69714355 0.27215534 0.81133515 1444880
-0.70323277 0.27770954 0.82789302 1444880
-0.69509453 0.27770954 0.82789302 1707281
-0.7012679 0.28349516 0.84514076 1641487
-0.70770395 0.28952694 0.86312246 2101781
-0.73029584 0.30239484 0.90148348 3878448
-0.73783046 0.30926743 0.92197174 4338224
-0.80164421 0.3401942 1.014169 6242356
0 0 0 6503983
0 0 0 5977127
0 0 0 5844511
0 0 0 6828066
0 0 0 9258292
0 0 0 9062453
0 0 0 10241325
0 0 0 11157800
-3.1640902 1.5119742 4.5074177 11747881
-3.5097547 1.7009709 5.0708447 11748139
-3.9541805 1.9439667 5.7952509 11813674
-3.4100614 1.7009709 5.0708447 11813928
-3.3602147 1.7009709 5.0708447 12338733
-2.9425495 1.5119742 4.5074177 12075560
-2.8982413 1.5119742 4.5074177 12010537
-2.8539333 1.5119742 4.5074177 12075560
-2.8096251 1.5119742 4.5074177 12009254
-2.765317 1.5119742 4.5074177 12140838
-2.721009 1.5119742 4.5074177 12206629
-2.6767008 1.5119742 4.5074177 12141094
-2.6323926 1.5119742 4.5074177 12009255
-2.5880845 1.5119742 4.5074177 12403498
-2.5437765 1.5119742 4.5074177 12404011
-2.8119018 1.7009709 5.0708447 12338216
-2.7620552 1.7009709 5.0708447 12535082
-2.7122085 1.7009709 5.0708447 12468776
-2.6623619 1.7009709 5.0708447 12403750
-2.3222358 1.5119742 4.5074177 12600362
-2.0501349 1.3607768 4.0566759 12271910
-1.8275068 1.2370697 3.687887 12469034
-1.6419835 1.1339806 3.380563 12468518
-1.6087524 1.1339806 3.380563 12730663
-1.1121327 0.80045688 2.3862798 12534565
-0.66098154 0.48599169 1.4488127 12469030
-0.62443829 0.46923333 1.3988537 12469030
-0.61068749 0.46923333 1.3988537 12599848
-0.52458072 0.41235656 1.2292956 12468776
-0.41249734 0.33189675 0.98943311 12468773
-0.39318138 0.32399446 0.96587515 12469031
-0.37476385 0.31645972 0.94341296 12468517
-0.36549005 0.31645972 0.94341296 12469543
-0.34812042 0.30926743 0.92197174 12271910
-0.33152279 0.30239484 0.90148348 12075047
-0.32266116 0.30239484 0.90148348 12206119
-0.31379956 0.30239484 0.90148348 12205860
-0.30493793 0.30239484 0.90148348 12074790
-0.2960763 0.30239484 0.90148348 12140324
-0.28097087 0.29582101 0.88188601 12402470
-0.27230191 0.29582101 0.88188601 12336674
-0.2526482 0.28349516 0.84514076 12336675
-0.24434045 0.28349516 0.84514076 11877925
-0.23603266 0.28349516 0.84514076 11943461
-0.24290656 0.30239484 0.90148348 12075045
-0.23404494 0.30239484 0.90148348 12337444
-0.22518331 0.30239484 0.90148348 12074018
-0.20280159 0.28349516 0.84514076 12139299
-0.19449382 0.28349516 0.84514076 11943461
-0.18238634 0.27770954 0.82789302 11942434
-0.17787828 0.28349516 0.84514076 12008739
-0.16610989 0.27770954 0.82789302 11811618
-0.16126272 0.28349516 0.84514076 12074021
-0.15620932 0.28952694 0.86312246 11942947
-0.1416952 0.27770954 0.82789302 12008227
-0.13088584 0.27215534 0.81133515 12336420
-0.12291038 0.27215534 0.81133515 12401443
-0.11493492 0.27215534 0.81133515 12467236
-0.10695945 0.27215534 0.81133515 11877414
-0.10100408 0.27770954 0.82789302 11811875
-0.092865855 0.27770954 0.82789302 11876900
-0.08472763 0.27770954 0.82789302 11812131
-0.075057611 0.27215534 0.81133515 12074789
-0.067082152 0.27215534 0.81133515 12008995
-0.059106693 0.27215534 0.81133515 12336162
-0.050128657 0.26681897 0.79542661 12402213
-0.047950853 0.30239484 0.90148348 12599076
-0.039089229 0.30239484 0.90148348 12401955
-0.030914599 0.30926743 0.92197174 12467491
-0.021851575 0.30926743 0.92197174 12336932
-0.012232527 0.29582101 0.88188601 12270882
-0.0033453722 0.27770954 0.82789302 12336420
0.0051054307 0.29582101 0.88188601 12336419
0.015454216 0.33189675 0.98943311 12401700
0.027168313 0.35809913 1.0675462 12337190
0 0 0 12336677
0 0 0 12402213
0 0 0 12468003
0 0 0 12730663
0.10808075 0.48599169 1.4488127 12533795
0.12232265 0.48599169 1.4488127 12599076
0.15295228 0.54431069 1.6226703 12402467
0.17594084 0.56699032 1.6902815 12598566
0.25674185 0.75598711 2.2537088 12796453
0.3137579 0.85048544 2.5354223 12665639
0.33868122 0.85048544 2.5354223 12927014
0.58176726 1.3607768 4.0566759 12730921
0.69071621 1.5119742 4.5074177 12664357
0.73502433 1.5119742 4.5074177 12796455
0.77933246 1.5119742 4.5074177 12665127
0.82364053 1.5119742 4.5074177 12730920
0.52076918 0.90718442 2.7044504 12534056
0.51314443 0.85048544 2.5354223 12337187
0.53806776 0.85048544 2.5354223 12534569
0.56299102 0.85048544 2.5354223 12468776
0.58791435 0.85048544 2.5354223 12271655
0.57678843 0.80045688 2.3862798 12533540
0.60024565 0.80045688 2.3862798 12730660
0.62370288 0.80045688 2.3862798 12664869
0.64716011 0.80045688 2.3862798 12862246
0.63336086 0.75598711 2.2537088 12731430
0.51301163 0.59164202 1.763772 12665897
0.36963758 0.41235656 1.2292956 12731175
0.359909 0.38879335 1.1590502 12862248
0.38222316 0.40022844 1.1931399 13059369
0.39395177 0.40022844 1.1931399 12600103
0.41797373 0.41235656 1.2292956 12534055
0.43005773 0.41235656 1.2292956 12402981
0.60794497 0.56699032 1.6902815 12469289
0.62456053 0.56699032 1.6902815 12402983
0.66905326 0.59164202 1.763772 12337190
0.71759081 0.61853486 1.8439435 12796201
0.73571688 0.61853486 1.8439435 12271655
0.7897402 0.64798892 1.9317503 12665639
0.77196896 0.61853486 1.8439435 12468260
0.82771862 0.64798892 1.9317503 12140069
0.84670776 0.64798892 1.9317503 12533800
0.86569697 0.64798892 1.9317503 12271397
0.77410042 0.56699032 1.6902815 12271399
0.59303695 0.42524272 1.2677112 12468776
0.66813642 0.46923333 1.3988537 12074533
0.68188721 0.46923333 1.3988537 12074790
0.72048217 0.48599169 1.4488127 12140071
0.76193613 0.50399137 1.5024725 11943204
0.83884192 0.54431069 1.6226703 11943207
0.85479283 0.54431069 1.6226703 11943207
0.87074375 0.54431069 1.6226703 11680035
0.92364031 0.56699032 1.6902815 11746853
0.94025582 0.56699032 1.6902815 11877925
0.91859657 0.54431069 1.6226703 11680548
0.89860338 0.52337569 1.5602599 11746599
0.9504984 0.54431069 1.6226703 12008486
0.96644932 0.54431069 1.6226703 11877669
1.0233335 0.56699032 1.6902815 11812133
0.99835116 0.54431069 1.6226703 11614499
1.014302 0.54431069 1.6226703 11746341
1.0302529 0.54431069 1.6226703 11484455
1.046204 0.54431069 1.6226703 11353640
1.1064112 0.56699032 1.6902815 11222053
1.0781058 0.54431069 1.6226703 10500387
1.0940567 0.54431069 1.6226703 10303524
0.9910782 0.48599169 1.4488127 11155746
1.1259586 0.54431069 1.6226703 10696740
1.189489 0.56699032 1.6902815 10893859
1.3157504 0.61853486 1.8439435 11024677
1.3338765 0.61853486 1.8439435 11024677
1.3520025 0.61853486 1.8439435 11090212
1.4353727 0.64798892 1.9317503 11286564
1.5270802 0.68038839 2.028338 11156263
1.5470188 0.68038839 2.028338 11090211
1.4923403 0.64798892 1.9317503 11417635
1.4426327 0.61853486 1.8439435 11025188
1.4607588 0.61853486 1.8439435 10895400
1.3014187 0.54431069 1.6226703 10764583
1.3173696 0.54431069 1.6226703 10698280
1.4492614 0.59164202 1.763772 10698795
1.4665993 0.59164202 1.763772 10566952
1.4221066 0.56699032 1.6902815 10698025
1.4387221 0.56699032 1.6902815 10764333
1.4553376 0.56699032 1.6902815 11026477
1.5359511 0.59164202 1.763772 10764331
1.5532892 0.59164202 1.763772 10764330
1.6420193 0.61853486 1.8439435 10698536
0 0 0 10830124
2.8401515 1.0467514 3.1205199 10502958
3.3927948 1.2370697 3.687887 10436395
2.9015014 1.0467514 3.1205199 10370600
2.9321761 1.0467514 3.1205199 10435881
2.962851 1.0467514 3.1205199 10304294
1.853135 0.64798892 1.9317503 10435368
1.6381086 0.56699032 1.6902815 10041637
1.6547242 0.56699032 1.6902815 10303525
1.6713398 0.56699032 1.6902815 9976101
1.6879553 0.56699032 1.6902815 9976101
1.7045708 0.56699032 1.6902815 10239273
1.7211864 0.56699032 1.6902815 10107942
1.8133585 0.59164202 1.763772 10436393
0 0 0 10304550
0 0 0 10436650
0 0 0 10437163
0 0 0 10897714
5.4626389 1.7009709 5.0708447 10700594
6.2999835 1.9439667 5.7952509 10700594
5.5623322 1.7009709 5.0708447 10699570
2.2448716 0.68038839 2.028338 10634544
3.0197468 0.90718442 2.7044504 10699822
0 0 0 10634543
0 0 0 10240299
0 0 0 9650478
0 0 0 8141612
0 0 0 6960424
0 0 0 7158317
0 0 0 7157803
3.7297223 1.0467514 3.1205199 6500390
3.7603972 1.0467514 3.1205199 5910311
4.1069946 1.1339806 3.380563 5780010
8.2804508 2.2679613 6.761126 5845801
0 0 0 6698794
0 0 0 8076847
0 0 0 9454384
0 0 0 10109229
0 0 0 10044978
0 0 0 10176562
0 0 0 10570548
0 0 0 6634538
0 0 0 6502952
-0.98807067 0.28584775 0.82789302 5516061
-0.97993243 0.28584775 0.82789302 4595477
-0.97179419 0.28584775 0.82789302 4728605
-0.96365601 0.28584775 0.82789302 3414034
-0.93640739 0.2801308 0.81133515 3350043
-0.94737953 0.28584775 0.82789302 2102289
-0.95880878 0.29180291 0.84514076 1969424
-0.95050102 0.29180291 0.84514076 1969424
-0.94219327 0.29180291 0.84514076 1772815
-0.95375538 0.29801148 0.86312246 1772815
-0.9255777 0.29180291 0.84514076 1838608
-0.91726995 0.29180291 0.84514076 1838610
-0.87260371 0.2801308 0.81133515 1576465
-0.80058169 0.25938037 0.75123626 1773074
-0.80816299 0.26427433 0.76541048 1641744
-0.80063897 0.26427433 0.76541048 1642258
-0.79311496 0.26427433 0.76541048 1641231
-0.771043 0.25938037 0.75123626 1115145
-0.76365829 0.25938037 0.75123626 786438
-0.75627363 0.25938037 0.75123626 589832
-0.76301885 0.26427433 0.76541048 393222
-0.75549483 0.26427433 0.76541048 720905
-0.74797082 0.26427433 0.76541048 656395
-0.74044681 0.26427433 0.76541048 786951
-0.7470175 0.26935655 0.78012997 1050124
-0.73934877 0.26935655 0.78012997 984074
-0.7316801 0.26935655 0.78012997 852489
-0.72401136 0.26935655 0.78012997 852489
-0.71634263 0.26935655 0.78012997 852491
-0.70867395 0.26935655 0.78012997 1115403
-0.71475041 0.27463806 0.79542661 1247245
-0.70693129 0.27463806 0.79542661 1509902
-0.71309447 0.2801308 0.81133515 1511443
-0.70511901 0.2801308 0.81133515 1904661
-0.69714355 0.2801308 0.81133515 2496282
-0.70323277 0.28584775 0.82789302 3679267
-0.69509453 0.28584775 0.82789302 5189418
-0.71618849 0.29801148 0.86312246 5649712
-0.75595647 0.31833047 0.92197174 6373172
-0.80154425 0.34162295 0.98943311 5713184
-0.87742001 0.37855515 1.0963988 6170912
-0.97168988 0.42444059 1.2292956 8731949
-1.0919653 0.48298413 1.3988537 10043438
0 0 0 10305325
0 0 0 11158059
0 0 0 11551273
0 0 0 11747625
0 0 0 11681831
-2.2518735 1.0774262 3.1205199 11681831
-2.8875585 1.4006541 4.0566759 11550503
-3.1640902 1.5562823 4.5074177 11878954
-3.119782 1.5562823 4.5074177 11877927
-3.459908 1.7508175 5.0708447 12009254
-3.4100614 1.7508175 5.0708447 12075304
-2.9868577 1.5562823 4.5074177 12271912
-2.9425495 1.5562823 4.5074177 12141354
-2.8982413 1.5562823 4.5074177 12141353
-2.8539333 1.5562823 4.5074177 12207146
-2.8096251 1.5562823 4.5074177 11943974
-2.765317 1.5562823 4.5074177 12009767
-2.721009 1.5562823 4.5074177 12206888
-2.6767008 1.5562823 4.5074177 12534569
-2.6323926 1.5562823 4.5074177 12140837
-2.5880845 1.5562823 4.5074177 12075560
-2.5437765 1.5562823 4.5074177 12009254
-2.4994683 1.5562823 4.5074177 12075045
-2.7620552 1.7508175 5.0708447 12271912
-2.7122085 1.7508175 5.0708447 12468776
-2.366544 1.5562823 4.5074177 12337703
-2.3222358 1.5562823 4.5074177 12338217
-2.0501349 1.4006541 4.0566759 12534569
-2.0102577 1.4006541 4.0566759 12600616
-1.9703803 1.4006541 4.0566759 12796967
-1.930503 1.4006541 4.0566759 12534053
-1.5755213 1.1672117 3.380563 12797223
-1.0886755 0.82391411 2.3862798 12468776
-0.64673966 0.50023359 1.4488127 12075558
-0.61068749 0.48298413 1.3988537 12075047
-0.57703876 0.46688467 1.3522252 12468777
-0.42280981 0.35016352 1.014169 12534823
-0.39318138 0.33348906 0.96587515 12534567
-0.37476385 0.32573348 0.94341296 12336419
-0.36549005 0.32573348 0.94341296 12469032
-0.34812042 0.31833047 0.92197174 12337190
-0.33905742 0.31833047 0.92197174 12140840
-0.32999438 0.31833047 0.92197174 12140324
-0.31379956 0.31125644 0.90148348 11943460
-0.30493793 0.31125644 0.90148348 12205859
-0.2960763 0.31125644 0.90148348 12402470
-0.28721467 0.31125644 0.90148348 12271141
-0.27230191 0.30449 0.88188601 12401957
-0.26363292 0.30449 0.88188601 12599076
-0.25496393 0.30449 0.88188601 12336420
-0.25176817 0.31125644 0.90148348 12139813
-0.24290656 0.31125644 0.90148348 12139043
-0.23404494 0.31125644 0.90148348 12271651
-0.22518331 0.31125644 0.90148348 12139811
-0.21632169 0.31125644 0.90148348 12074533
-0.20746008 0.31125644 0.90148348 12008483
-0.19428109 0.30449 0.88188601 11680545
-0.18561211 0.30449 0.88188601 11746081
-0.16957051 0.29180291 0.84514076 11877153
-0.16126272 0.29180291 0.84514076 11877411
-0.15620932 0.29801148 0.86312246 11745825
-0.15429033 0.31125644 0.90148348 11877668
-0.13355698 0.28584775 0.82789302 12074018
-0.12541875 0.28584775 0.82789302 12205604
-0.11728053 0.28584775 0.82789302 12204836
-0.1091423 0.28584775 0.82789302 12139811
-0.10100408 0.28584775 0.82789302 12270627
-0.092865855 0.28584775 0.82789302 12074531
-0.08472763 0.28584775 0.82789302 12008227
-0.076589406 0.28584775 0.82789302 12270629
-0.069877237 0.29180291 0.84514076 12074018
-0.064246401 0.30449 0.88188601 12074531
-0.056812476 0.31125644 0.90148348 12140326
-0.047950853 0.31125644 0.90148348 12074018
-0.039089229 0.31125644 0.90148348 12336420
-0.031633545 0.32573348 0.94341296 12467747
-0.022892127 0.33348906 0.96587515 12139809
-0.012788552 0.31833047 0.92197174 12402213
-0.0035635484 0.30449 0.88188601 12664612
0.0057280441 0.34162295 0.98943311 12467492
0.015454216 0.34162295 0.98943311 12533028
0.025809899 0.35016352 1.014169 12467492
0.043368753 0.42444059 1.2292956 12599076
0 0 0 12533540
0 0 0 12271140
0.082109004 0.43770438 1.2677112 12402213
0.10808075 0.50023359 1.4488127 12730917
0.13700137 0.56026161 1.6226703 12468776
0.1593253 0.58360583 1.6902815 12599592
0.20107524 0.66697812 1.9317503 12469030
0.25674185 0.77814114 2.2537088 12599074
0.3137579 0.87540877 2.5354223 12599078
0.33868122 0.87540877 2.5354223 12271140
0.58176726 1.4006541 4.0566759 12599078
0.69071621 1.5562823 4.5074177 12533796
0.73502433 1.5562823 4.5074177 12796199
0.70139921 1.4006541 4.0566759 12730407
0.49418429 0.93376935 2.7044504 12730407
0.48822111 0.87540877 2.5354223 12664871
0.51314443 0.87540877 2.5354223 12534310
0.53806776 0.87540877 2.5354223 12599590
0.56299102 0.87540877 2.5354223 12468261
0.55333114 0.82391411 2.3862798 12206117
0.57678843 0.82391411 2.3862798 12665639
0.60024565 0.82391411 2.3862798 12861733
0.62370288 0.82391411 2.3862798 12730149
0.64716011 0.82391411 2.3862798 12862249
0.63336086 0.77814114 2.2537088 12599592
0.51301163 0.60898 1.763772 12469033
0.38118878 0.43770438 1.2677112 12337190
0.38172162 0.42444059 1.2292956 12731174
0.38222316 0.41195706 1.1931399 12862248
0.40588969 0.42444059 1.2292956 12533541
0.41797373 0.42444059 1.2292956 12796455
0.47306353 0.46688467 1.3522252 12665125
0 0 0 12599846
0.71378344 0.66697812 1.9317503 12468260
0.6994648 0.63666093 1.8439435 12271397
0.68639123 0.60898 1.763772 12402983
0.73571688 0.63666093 1.8439435 12402726
0.7897402 0.66697812 1.9317503 12599590
0.80872941 0.66697812 1.9317503 12534053
0.82771862 0.66697812 1.9317503 12270884
0.80822104 0.63666093 1.8439435 12534056
0.79041898 0.60898 1.763772 12402213
0.77410042 0.58360583 1.6902815 12402727
0.75908732 0.56026161 1.6226703 12468263
0.6458652 0.46688467 1.3522252 12140326
0.65915763 0.46688467 1.3522252 12009252
0.67245007 0.46688467 1.3522252 12140583
0.7347241 0.50023359 1.4488127 12074533
0.83884192 0.56026161 1.6226703 11943720
0.89040917 0.58360583 1.6902815 11877925
0.90702474 0.58360583 1.6902815 11943461
0.92364031 0.58360583 1.6902815 11680290
0.94025582 0.58360583 1.6902815 11943974
0.91859657 0.56026161 1.6226703 11943461
0.89860338 0.5387131 1.5602599 11550247
0.9504984 0.56026161 1.6226703 11614500
0.96644932 0.56026161 1.6226703 11549477
0.98240024 0.56026161 1.6226703 11745828
0.95995307 0.5387131 1.5602599 11680549
0.97529048 0.5387131 1.5602599 11680550
1.0302529 0.56026161 1.6226703 11680806
1.0897957 0.58360583 1.6902815 11549477
1.1064112 0.58360583 1.6902815 11352610
1.1230268 0.58360583 1.6902815 11155746
1.0940567 0.56026161 1.6226703 11287332
1.1100076 0.56026161 1.6226703 11353127
1.1259586 0.56026161 1.6226703 10893860
1.189489 0.58360583 1.6902815 11024933
1.3157504 0.63666093 1.8439435 10696740
1.3338765 0.63666093 1.8439435 10697253
1.3520025 0.63666093 1.8439435 10762534
1.4353727 0.66697812 1.9317503 11090214
1.5270802 0.70032704 2.028338 10368547
1.3452337 0.60898 1.763772 10565669
1.3625716 0.60898 1.763772 10369575
1.3799095 0.60898 1.763772 10370343
1.4607588 0.63666093 1.8439435 10764329
1.5493079 0.66697812 1.9317503 10764072
1.4319234 0.60898 1.763772 10632745
1.4492614 0.60898 1.763772 10567724
1.405491 0.58360583 1.6902815 10830124
1.4221066 0.58360583 1.6902815 10632229
1.4387221 0.58360583 1.6902815 10632487
1.4553376 0.58360583 1.6902815 10960425
1.5359511 0.60898 1.763772 10698025
1.5532892 0.60898 1.763772 10632745
1.5706271 0.60898 1.763772 10501673
0 0 0 10370345
0 0 0 10501160
0 0 0 10042923
2.9015014 1.0774262 3.1205199 10108716
2.9321761 1.0774262 3.1205199 10371118
2.962851 1.0774262 3.1205199 10436138
1.853135 0.66697812 1.9317503 10567467
1.8721242 0.66697812 1.9317503 10501416
1.6547242 0.58360583 1.6902815 10239272
1.6713398 0.58360583 1.6902815 10107687
1.6879553 0.58360583 1.6902815 10239530
1.7045708 0.58360583 1.6902815 9910567
1.7211864 0.58360583 1.6902815 10107173
1.8133585 0.60898 1.763772 10042407
1.9139099 0.63666093 1.8439435 10107687
0 0 0 10305065
0 0 0 10305323
0 0 0 10239786
6.2430158 2.0009344 5.7952509 10568236
1.8374952 0.58360583 1.6902815 10502445
1.8541107 0.58360583 1.6902815 11029558
1.8707262 0.58360583 1.6902815 10831923
1.9694002 0.60898 1.763772 10766130
2.284749 0.70032704 2.028338 10569521
3.0729165 0.93376935 2.7044504 10503728
0 0 0 10240558
0 0 0 9650735
0 0 0 8075562
0 0 0 6697769
0 0 0 7092011
4.0405321 1.1672117 3.380563 6894632
3.7603972 1.0774262 3.1205199 5975334
3.2855954 0.93376935 2.7044504 5845032
4.1402254 1.1672117 3.380563 5713703
8.3469133 2.3344233 6.761126 5977129
0 0 0 6174249
0 0 0 7291700
0 0 0 9389362
0 0 0 10175536
0 0 0 10569008
0 0 0 10568751
0 0 0 5452324
0 0 0 5912878
-0.96830922 0.28810626 0.81133515 5781807
-0.96033376 0.28810626 0.81133515 3547674
-0.93368459 0.28245711 0.79542661 2100495
-0.90806043 0.27702525 0.78012997 2100753
-0.90039176 0.27702525 0.78012997 1969421
-0.92843193 0.28810626 0.81133515 2561557
-0.92045647 0.28810626 0.81133515 2759452
-0.91248101 0.28810626 0.81133515 2561300
-0.88677013 0.28245711 0.79542661 1970451
-0.84578305 0.27179834 0.76541048 1969424
-0.83825904 0.27179834 0.76541048 1773072
-0.84671074 0.27702525 0.78012997 1904143
-0.80796641 0.26676506 0.75123626 1837836
-0.80058169 0.26676506 0.75123626 1904399
-0.79319704 0.26676506 0.75123626 2430743
-0.78581238 0.26676506 0.75123626 2299418
-0.77842766 0.26676506 0.75123626 1246987
-0.771043 0.26676506 0.75123626 786696
-0.76365829 0.26676506 0.75123626 524550
-0.75627363 0.26676506 0.75123626 524552
-0.76301885 0.27179834 0.76541048 590089
-0.75549483 0.27179834 0.76541048 786441
-0.74797082 0.27179834 0.76541048 721159
-0.74044681 0.27179834 0.76541048 983305
-0.7470175 0.27702525 0.78012997 918282
-0.73934877 0.27702525 0.78012997 984847
-0.74602669 0.28245711 0.79542661 1181709
-0.72401136 0.27702525 0.78012997 1378317
-0.71634263 0.27702525 0.78012997 1707023
-0.70867395 0.27702525 0.78012997 2496538
-0.71475041 0.28245711 0.79542661 3548708
-0.70693129 0.28245711 0.79542661 4336167
-0.71309447 0.28810626 0.81133515 4927014
-0.70511901 0.28810626 0.81133515 5256233
-0.69714355 0.28810626 0.81133515 5387561
-0.70323277 0.29398599 0.82789302 5846827
-0.72467297 0.30649602 0.86312246 6765100
-0.7480191 0.32011807 0.90148348 8535595
-0.81127042 0.35134912 0.98943311 10371372
-0.88819766 0.3893328 1.0963988 10435880
-0.98377389 0.43652463 1.2292956 10894890
-1.1057161 0.49673492 1.3988537 11157031
-1.0919653 0.49673492 1.3988537 11419432
-1.4889629 0.68596727 1.9317503 11550504
0 0 0 11616297
0 0 0 11550502
0 0 0 11747881
0 0 0 11943974
-2.2518735 1.108101 3.1205199 11616039
-2.8875585 1.4405314 4.0566759 11943720
-2.847681 1.4405314 4.0566759 12009000
-3.119782 1.6005905 4.5074177 12271912
-3.0754738 1.6005905 4.5074177 12075048
-3.0311658 1.6005905 4.5074177 11877925
-2.9868577 1.6005905 4.5074177 12009767
-2.9425495 1.6005905 4.5074177 11747113
-2.8982413 1.6005905 4.5074177 11747113
-2.8539333 1.6005905 4.5074177 12010282
-2.8096251 1.6005905 4.5074177 12076330
-2.765317 1.6005905 4.5074177 12011306
-2.721009 1.6005905 4.5074177 12140838
-2.6767008 1.6005905 4.5074177 12140583
-2.6323926 1.6005905 4.5074177 12075045
-2.5880845 1.6005905 4.5074177 12009510
-2.5437765 1.6005905 4.5074177 12403496
-2.4994683 1.6005905 4.5074177 12402983
-2.7620552 1.8006642 5.0708447 12206117
-2.7122085 1.8006642 5.0708447 12337190
-2.6623619 1.8006642 5.0708447 12206117
-2.3222358 1.6005905 4.5074177 12009767
-2.2779276 1.6005905 4.5074177 12010025
-2.0102577 1.4405314 4.0566759 12140838
-2.1893115 1.6005905 4.5074177 12534824
-2.1450033 1.6005905 4.5074177 12534823
-1.8906257 1.4405314 4.0566759 12271397
-1.4236526 1.108101 3.1205199 12337446
-0.69648886 0.55405051 1.5602599 12337702
-0.63249773 0.51447546 1.4488127 12402983
-0.5969367 0.49673492 1.3988537 12403240
-0.56374633 0.4801771 1.3522252 12402725
-0.41284049 0.36013284 1.014169 12665639
-0.38368678 0.34298363 0.96587515 12468006
-0.37419218 0.34298363 0.96587515 12140324
-0.36469758 0.34298363 0.96587515 12205604
-0.34694245 0.33500728 0.94341296 12271397
-0.33766866 0.33500728 0.94341296 12271910
-0.32839489 0.33500728 0.94341296 12337190
-0.31912109 0.33500728 0.94341296 12271651
-0.3098473 0.33500728 0.94341296 12206117
-0.28721467 0.32011807 0.90148348 11943461
-0.27835307 0.32011807 0.90148348 12336934
-0.26363292 0.31315899 0.88188601 12336677
-0.2606298 0.32011807 0.90148348 12205604
-0.25176817 0.32011807 0.90148348 11942947
-0.24290656 0.32011807 0.90148348 11877155
-0.23404494 0.32011807 0.90148348 12204836
-0.22518331 0.32011807 0.90148348 12074020
-0.21161905 0.31315899 0.88188601 12205604
-0.20295006 0.31315899 0.88188601 12139811
-0.19428109 0.31315899 0.88188601 11745568
-0.18561211 0.31315899 0.88188601 11877157
-0.17317837 0.30649602 0.86312246 11614753
-0.16126272 0.3001107 0.84514076 11614754
-0.15295495 0.3001107 0.84514076 11811363
-0.14464718 0.3001107 0.84514076 11876896
-0.1454287 0.32011807 0.90148348 11811877
-0.12803164 0.3001107 0.84514076 11811361
-0.11972387 0.3001107 0.84514076 12074020
-0.1114161 0.3001107 0.84514076 12335650
-0.10100408 0.29398599 0.82789302 11942434
-0.092865855 0.29398599 0.82789302 12467490
-0.08472763 0.29398599 0.82789302 12139811
-0.076589406 0.29398599 0.82789302 12336420
-0.069877237 0.3001107 0.84514076 12139813
-0.065674096 0.32011807 0.90148348 12401697
-0.058103669 0.32739347 0.92197174 12336420
-0.049040645 0.32739347 0.92197174 12336674
-0.039977621 0.32739347 0.92197174 12533283
-0.030914599 0.32739347 0.92197174 11943461
-0.021851575 0.32739347 0.92197174 12336420
-0.012788552 0.32739347 0.92197174 12074018
-0.003725528 0.32739347 0.92197174 12205604
0.0057280441 0.35134912 0.98943311 12336420
0.015454216 0.35134912 0.98943311 12467490
0.025809899 0.36013284 1.014169 12533281
0.035779227 0.36013284 1.014169 12270881
0.055452786 0.43652463 1.2292956 12467236
0.069647342 0.45016605 1.2677112 12336420
0.084757678 0.46468753 1.3086051 12270881
0.11639466 0.55405051 1.5602599 12468006
0 0 0 12337190
0 0 0 12336420
0.24838707 0.8473714 2.3862798 12533283
0.28883457 0.90033209 2.5354223 12271140
0.3137579 0.90033209 2.5354223 12074533
0.41683844 1.108101 3.1205199 11942436
0.64640808 1.6005905 4.5074177 12205862
0.69071621 1.6005905 4.5074177 12139813
0.73502433 1.6005905 4.5074177 12139811
0.70139921 1.4405314 4.0566759 12664614
0.5294832 1.0289509 2.8976254 12664870
0.52076918 0.96035421 2.7044504 12730662
0.54735404 0.96035421 2.7044504 12665638
0.57393891 0.96035421 2.7044504 12599333
0.56299102 0.90033209 2.5354223 12664870
0.55333114 0.8473714 2.3862798 12992805
0.57678843 0.8473714 2.3862798 12468776
0.60024565 0.8473714 2.3862798 12731178
0.62370288 0.8473714 2.3862798 12731178
0.61120683 0.80029523 2.2537088 12599848
0.57002479 0.72026569 2.028338 12272167
0.56186992 0.68596727 1.9317503 12337960
0.38118878 0.45016605 1.2677112 12205862
0.39365044 0.45016605 1.2677112 12337190
0.39380565 0.43652463 1.2292956 12599847
0.41857377 0.45016605 1.2677112 12599076
0.43103543 0.45016605 1.2677112 12730662
0.5913294 0.6002214 1.6902815 12468261
0 0 0 12861735
0.71378344 0.68596727 1.9317503 12337190
0.66905326 0.62631798 1.763772 12271140
0.68639123 0.62631798 1.763772 12468005
0.70372921 0.62631798 1.763772 12533544
0.7897402 0.68596727 1.9317503 12337192
0.77196896 0.65478694 1.8439435 12206117
0.79009503 0.65478694 1.8439435 12140326
0.773081 0.62631798 1.763772 12403496
0.75748485 0.6002214 1.6902815 12074790
0.74313641 0.57621253 1.6226703 12075047
0.75908732 0.57621253 1.6226703 12140069
0.6458652 0.4801771 1.3522252 12074531
0.63789451 0.46468753 1.3086051 12008740
0.65075815 0.46468753 1.3086051 12139813
0.70938879 0.49673492 1.3988537 11943204
0.83884192 0.57621253 1.6226703 12206120
0.89040917 0.6002214 1.6902815 12205091
0.90702474 0.6002214 1.6902815 12139813
0.96379858 0.62631798 1.763772 11942693
0.9811365 0.62631798 1.763772 11942693
0.91859657 0.57621253 1.6226703 11615268
0.93454748 0.57621253 1.6226703 11614755
0.9504984 0.57621253 1.6226703 11614499
0.96644932 0.57621253 1.6226703 11484711
0.98240024 0.57621253 1.6226703 11353125
0.99835116 0.57621253 1.6226703 11353125
1.014302 0.57621253 1.6226703 11286307
1.0731802 0.6002214 1.6902815 11155747
1.0897957 0.6002214 1.6902815 11417378
1.1064112 0.6002214 1.6902815 11286564
1.0781058 0.57621253 1.6226703 11221798
1.1396424 0.6002214 1.6902815 11221540
1.1562579 0.6002214 1.6902815 11352355
1.1728734 0.6002214 1.6902815 11418918
1.189489 0.6002214 1.6902815 11221541
1.2585438 0.62631798 1.763772 11287334
1.3338765 0.65478694 1.8439435 11090469
1.3520025 0.65478694 1.8439435 11090212
1.5071415 0.72026569 2.028338 10828071
1.5270802 0.72026569 2.028338 10630949
1.3452337 0.62631798 1.763772 10499619
1.3625716 0.62631798 1.763772 10434083
1.4426327 0.65478694 1.8439435 10435112
1.5303187 0.68596727 1.9317503 10501159
1.5493079 0.68596727 1.9317503 10763559
1.4970108 0.65478694 1.8439435 10894634
1.4492614 0.62631798 1.763772 10632747
1.405491 0.6002214 1.6902815 10566952
1.4221066 0.6002214 1.6902815 10633002
1.4387221 0.6002214 1.6902815 10632744
1.4553376 0.6002214 1.6902815 10698025
1.5359511 0.62631798 1.763772 10567722
1.5532892 0.62631798 1.763772 10435882
1.5706271 0.62631798 1.763772 10632746
1.7391998 0.68596727 1.9317503 10632744
2.1718805 0.8473714 2.3862798 10566951
4.6650929 1.8006642 5.0708447 10501929
2.9015014 1.108101 3.1205199 10304552
2.9321761 1.108101 3.1205199 10041640
2.962851 1.108101 3.1205199 10173480
1.853135 0.68596727 1.9317503 10370345
1.8721242 0.68596727 1.9317503 10239014
1.7266687 0.62631798 1.763772 10239017
1.6713398 0.6002214 1.6902815 10173483
1.6879553 0.6002214 1.6902815 10173481
1.7045708 0.6002214 1.6902815 10107687
1.7211864 0.6002214 1.6902815 10370347
1.8133585 0.62631798 1.763772 10239019
1.8306965 0.62631798 1.763772 10107946
1.932036 0.65478694 1.8439435 10107690
0 0 0 9976360
0 0 0 10239532
1.7480445 0.57621253 1.6226703 10502188
1.7639954 0.57621253 1.6226703 10502446
1.8541107 0.6002214 1.6902815 10502446
1.9520621 0.62631798 1.763772 10502957
2.2648103 0.72026569 2.028338 10634799
1.3846962 0.43652463 1.2292956 10700336
1.3967803 0.43652463 1.2292956 10634544
1.6604472 0.51447546 1.4488127 10503728
0 0 0 10371888
0 0 0 9781552
0 0 0 7749165
0 0 0 6961194
0 0 0 7026216
0 0 0 6369576
3.7910719 1.108101 3.1205199 5712419
8.2804508 2.4008856 6.761126 5450275
0 0 0 5451301
0 0 0 5517350
0 0 0 6174505
0 0 0 7814701
0 0 0 9717557
0 0 0 10176051
0 0 0 10569010
0 0 0 6371370
0 0 0 5189668
