# .PCD v0.7 - Point Cloud Data file format
VERSION 0.7
FIELDS x y z rgb
SIZE 4 4 4 4
TYPE F F F U
COUNT 1 1 1 1
WIDTH 1297
HEIGHT 1
VIEWPOINT 0 0 0 1 0 0 0
POINTS 1297
DATA ascii
1.7202107 0.11629152 1.9317503 852489
1.7391998 0.11629152 1.9317503 787209
1.758189 0.11629152 1.9317503 852489
1.7771782 0.11629152 1.9317503 852489
1.8859758 0.12210611 2.028338 984075
1.8151566 0.11629152 1.9317503 852491
1.8341458 0.11629152 1.9317503 852491
1.853135 0.11629152 1.9317503 852744
1.8721242 0.11629152 1.9317503 852746
1.8051536 0.11100554 1.8439435 918282
1.8232797 0.11100554 1.8439435 852744
1.8414057 0.11100554 1.8439435 918280
1.7045708 0.10175508 1.6902815 918536
1.652339 0.097684883 1.6226703 852489
1.6041249 0.093927771 1.5602599 852489
1.6194624 0.093927771 1.5602599 1114891
1.7001917 0.097684883 1.6226703 1049868
1.7161427 0.097684883 1.6226703 4006679
1.8827103 0.10617922 1.763772 5782057
1.9864142 0.11100554 1.8439435 5976356
2.0999944 0.11629152 1.9317503 8015158
2.2249329 0.12210611 2.028338 8410947
2.2448716 0.12210611 2.028338 8279615
2.5164559 0.13567345 2.2537088 8607295
2.53861 0.13567345 2.2537088 9394495
2.5607641 0.13567345 2.2537088 9789250
2.3246262 0.12210611 2.028338 9921605
2.2329187 0.11629152 1.9317503 10250057
2.1495485 0.11100554 1.8439435 10775373
2.1676745 0.11100554 1.8439435 10250573
2.1858006 0.11100554 1.8439435 10251086
2.3088756 0.11629152 1.9317503 9921353
2.3278649 0.11629152 1.9317503 9593930
2.4641969 0.12210611 2.028338 9659723
3.8217468 0.18785554 3.1205199 9791053
0 0 0 9790540
0 0 0 10053967
0 0 0 10119502
0 0 0 9988173
0 0 0 9988175
0 0 0 9659211
0 0 0 9790541
0 0 0 3874581
0 0 0 1246472
-4.0346217 0.23674124 3.380563 1509645
-4.0013905 0.23674124 3.380563 1575180
-3.9681594 0.23674124 3.380563 2890266
-3.9349284 0.23674124 3.380563 3545878
-4.2563972 0.25826317 3.687887 3808537
-4.2201452 0.25826317 3.687887 3742742
-4.1838932 0.25826317 3.687887 3939351
-4.1476407 0.25826317 3.687887 4005144
-4.1113887 0.25826317 3.687887 3611156
-4.0751367 0.25826317 3.687887 3939608
-4.0388846 0.25826317 3.687887 4005144
-4.0026326 0.25826317 3.687887 4005144
-3.9663804 0.25826317 3.687887 3874071
-3.9301283 0.25826317 3.687887 3940121
-3.8938763 0.25826317 3.687887 3874328
-3.8576241 0.25826317 3.687887 3939864
-4.2035093 0.28408951 4.0566759 4005144
-3.78512 0.25826317 3.687887 3807765
-3.7488678 0.25826317 3.687887 2887692
-3.7126157 0.25826317 3.687887 1772300
-3.6763637 0.25826317 3.687887 1969425
-3.6401114 0.25826317 3.687887 2758424
-3.6038594 0.25826317 3.687887 3086615
-4.3604093 0.31565502 4.5074177 3086102
-3.884491 0.28408951 4.0566759 2889239
-3.8446138 0.28408951 4.0566759 2823703
-3.8047364 0.28408951 4.0566759 2758168
-3.7648592 0.28408951 4.0566759 1969169
-3.7249818 0.28408951 4.0566759 786696
-3.3500948 0.25826317 3.687887 852743
-3.3138428 0.25826317 3.687887 852743
-3.2775905 0.25826317 3.687887 918536
-3.5654726 0.28408951 4.0566759 852746
-3.5255952 0.28408951 4.0566759 852745
-3.8730199 0.31565502 4.5074177 852489
-3.8287117 0.31565502 4.5074177 1049098
-3.7844038 0.31565502 4.5074177 983559
-3.7400956 0.31565502 4.5074177 917766
-3.6957874 0.31565502 4.5074177 786953
-3.6514795 0.31565502 4.5074177 786698
-3.6071713 0.31565502 4.5074177 918282
-4.0082207 0.3551119 5.0708447 1180684
-3.9583743 0.3551119 5.0708447 1443078
-3.9085276 0.3551119 5.0708447 1310979
-3.858681 0.3551119 5.0708447 1311749
-3.8088343 0.3551119 5.0708447 1180420
-3.7589877 0.3551119 5.0708447 1114628
-3.709141 0.3551119 5.0708447 983557
-3.6592944 0.3551119 5.0708447 918021
-3.6094477 0.3551119 5.0708447 918024
-3.5596011 0.3551119 5.0708447 918282
-3.5097547 0.3551119 5.0708447 787209
-3.0754738 0.31565502 4.5074177 853001
-3.0311658 0.31565502 4.5074177 787209
-2.9868577 0.31565502 4.5074177 918025
-2.9425495 0.31565502 4.5074177 787466
-2.6084173 0.28408951 4.0566759 721158
-2.8539333 0.31565502 4.5074177 786950
-2.8096251 0.31565502 4.5074177 721160
-2.765317 0.31565502 4.5074177 919052
-2.721009 0.31565502 4.5074177 3217947
-2.6767008 0.31565502 4.5074177 9197635
-2.9614415 0.3551119 5.0708447 9855297
-2.9115949 0.3551119 5.0708447 10315335
-3.2705696 0.40584216 5.7952509 10840389
-3.2136018 0.40584216 5.7952509 10972742
-3.1566343 0.40584216 5.7952509 10775111
-3.0996668 0.40584216 5.7952509 10644554
-3.0426991 0.40584216 5.7952509 10578759
-2.9857316 0.40584216 5.7952509 10841931
-2.5626686 0.3551119 5.0708447 10513222
-2.8717964 0.40584216 5.7952509 10776651
-2.8148289 0.40584216 5.7952509 10251338
-2.7578614 0.40584216 5.7952509 8146739
-2.7008936 0.40584216 5.7952509 8672312
-2.6439261 0.40584216 5.7952509 9065272
-2.5869586 0.40584216 5.7952509 7358512
-2.5299909 0.40584216 5.7952509 8738624
-2.4730234 0.40584216 5.7952509 8803640
-2.114049 0.3551119 5.0708447 8935225
-1.8348465 0.31565502 4.5074177 11170384
-1.7905384 0.31565502 4.5074177 11564364
-1.5716072 0.28408951 4.0566759 10446908
-1.5317299 0.28408951 4.0566759 1378316
-1.6576141 0.31565502 4.5074177 786953
-1.8149691 0.3551119 5.0708447 720904
-1.7651225 0.3551119 5.0708447 721418
-1.7152759 0.3551119 5.0708447 853515
-1.4803816 0.31565502 4.5074177 1049098
0 0 0 1050123
-0.29823542 0.067640357 0.96587515 984073
-0.27561623 0.064565793 0.92197174 1181454
-0.25496393 0.061758585 0.88188601 984589
-0.24629496 0.061758585 0.88188601 1181708
-0.23762599 0.061758585 0.88188601 852744
-0.228957 0.061758585 0.88188601 1049608
-0.22028802 0.061758585 0.88188601 984075
-0.21161905 0.061758585 0.88188601 787466
-0.20295006 0.061758585 0.88188601 918282
-0.18618605 0.059185311 0.84514076 1443083
-0.17424811 0.057977453 0.82789302 1049098
-0.16610989 0.057977453 0.82789302 852491
-0.15797167 0.057977453 0.82789302 852489
-0.15295495 0.059185311 0.84514076 918282
-0.1388613 0.0568179 0.81133515 721675
-0.13088584 0.0568179 0.81133515 786698
-0.12291038 0.0568179 0.81133515 787214
-0.11493492 0.0568179 0.81133515 852491
-0.10695945 0.0568179 0.81133515 786696
-0.10100408 0.057977453 0.82789302 852489
-0.092865855 0.057977453 0.82789302 852489
-0.086492784 0.059185311 0.84514076 721675
-0.078185014 0.059185311 0.84514076 918282
-0.071363986 0.060444575 0.86312246 1049354
-0.060312953 0.057977453 0.82789302 983561
-0.053261697 0.059185311 0.84514076 852489
-0.045910392 0.060444575 0.86312246 787210
-0.037425857 0.060444575 0.86312246 852489
-0.033176642 0.069290124 0.98943311 786696
-0.029135432 0.086087726 1.2292956 918282
0 0 0 983818
0 0 0 1114891
0 0 0 1049352
0 0 0 1180681
0 0 0 1378060
0 0 0 1509645
0 0 0 1706254
0 0 0 1640461
0 0 0 1575438
0 0 0 1575438
0 0 0 1575439
0.25492048 0.189393 2.7044504 1706254
0 0 0 1707024
0 0 0 4991007
0 0 0 5187101
0 0 0 5449499
0 0 0 3740942
0.62164456 0.28408951 4.0566759 4465693
0.73502433 0.31565502 4.5074177 4990235
0.77933246 0.31565502 4.5074177 4924956
0.82364053 0.31565502 4.5074177 4924700
0.97644222 0.3551119 5.0708447 4924956
0.91225678 0.31565502 4.5074177 4924955
0.9565649 0.31565502 4.5074177 8804677
0.81889606 0.25826317 3.687887 10183496
0.94066304 0.28408951 4.0566759 10972492
0.89140022 0.25826317 3.687887 11235662
0.92765236 0.25826317 3.687887 11893332
0.96390444 0.25826317 3.687887 11958354
1.1001723 0.28408951 4.0566759 12419160
1.1400496 0.28408951 4.0566759 9918780
1.1799269 0.28408951 4.0566759 1181197
1.0165035 0.23674124 3.380563 1115144
0.89977241 0.20292108 2.8976254 1115401
0.76444632 0.16711147 2.3862798 786696
0.78790355 0.16711147 2.3862798 983816
0.81136078 0.16711147 2.3862798 918281
0.83481801 0.16711147 2.3862798 918026
0.81059337 0.15782751 2.2537088 918282
0.8327474 0.15782751 2.2537088 1049609
0.85490143 0.15782751 2.2537088 983560
0.78934997 0.14204475 2.028338 721671
0.770751 0.13528071 1.9317503 983559
0.7897402 0.13528071 1.9317503 917769
0.84916592 0.14204475 2.028338 720903
0.9148469 0.1495208 2.1350925 720903
0.93583494 0.1495208 2.1350925 786696
0.90898186 0.14204475 2.028338 786694
0.92892057 0.14204475 2.028338 655880
0.94885921 0.14204475 2.028338 655880
1.0197872 0.1495208 2.1350925 720903
0.94165373 0.13528071 1.9317503 721415
0.96064293 0.13528071 1.9317503 1049352
0.97963214 0.13528071 1.9317503 786696
0.99862134 0.13528071 1.9317503 852490
1.0176105 0.13528071 1.9317503 655880
1.0365998 0.13528071 1.9317503 655882
1.0555888 0.13528071 1.9317503 852491
0.9811365 0.12351717 1.763772 721675
0.99847448 0.12351717 1.763772 721675
1.0619857 0.12913159 1.8439435 786696
1.1315457 0.13528071 1.9317503 1837838
1.1505349 0.13528071 1.9317503 6832436
1.1695241 0.13528071 1.9317503 8017729
1.247939 0.14204475 2.028338 8543050
1.2678777 0.14204475 2.028338 8543564
1.2878163 0.14204475 2.028338 8477517
1.307755 0.14204475 2.028338 6442305
1.26447 0.13528071 1.9317503 6638143
1.2834592 0.13528071 1.9317503 7424318
1.3024484 0.13528071 1.9317503 3479318
1.3875096 0.14204475 2.028338 2495253
1.4074482 0.14204475 2.028338 1048580
1.5859854 0.15782751 2.2537088 590089
1.6081395 0.15782751 2.2537088 786696
1.6302935 0.15782751 2.2537088 786696
1.5654767 0.1495208 2.1350925 655880
1.4353727 0.13528071 1.9317503 721675
1.4543619 0.13528071 1.9317503 721416
1.4733511 0.13528071 1.9317503 655882
1.4923403 0.13528071 1.9317503 786696
1.3799095 0.12351717 1.763772 852489
1.3972476 0.12351717 1.763772 852489
1.4145855 0.12351717 1.763772 918282
1.4319234 0.12351717 1.763772 852489
1.4492614 0.12351717 1.763772 852745
1.4665993 0.12351717 1.763772 852489
1.4221066 0.11837062 1.6902815 983306
1.4387221 0.11837062 1.6902815 852490
1.3971242 0.1136358 1.6226703 918283
1.4719532 0.11837062 1.6902815 721417
1.7012215 0.13528071 1.9317503 786952
1.7202107 0.13528071 1.9317503 656139
1.7391998 0.13528071 1.9317503 787210
1.758189 0.13528071 1.9317503 852489
1.7771782 0.13528071 1.9317503 852491
1.6399789 0.12351717 1.763772 853004
1.7326494 0.12913159 1.8439435 852490
1.7507756 0.12913159 1.8439435 984076
1.853135 0.13528071 1.9317503 918282
1.8721242 0.13528071 1.9317503 721673
1.8911134 0.13528071 1.9317503 787466
1.9101025 0.13528071 1.9317503 983305
1.7613447 0.12351717 1.763772 918282
1.5151742 0.10521834 1.5024725 721673
1.5299435 0.10521834 1.5024725 786696
1.4895445 0.10146054 1.4488127 918282
1.5594822 0.10521834 1.5024725 1049352
1.6347997 0.1092652 1.5602599 918282
1.7161427 0.1136358 1.6226703 1904146
1.8042641 0.11837062 1.6902815 2034961
1.9000483 0.12351717 1.763772 1968913
1.9173863 0.12351717 1.763772 5451812
2.0226662 0.12913159 1.8439435 7753783
2.2448716 0.14204475 2.028338 8409659
2.2648103 0.14204475 2.028338 8541757
2.284749 0.14204475 2.028338 9001278
2.1949403 0.13528071 1.9317503 9329472
2.2139297 0.13528071 1.9317503 9461828
2.2329187 0.13528071 1.9317503 9856073
2.1495485 0.12913159 1.8439435 10511949
2.1676745 0.12913159 1.8439435 10447436
2.1858006 0.12913159 1.8439435 9855817
2.3088756 0.13528071 1.9317503 9658956
2.3278649 0.13528071 1.9317503 9199432
2.4641969 0.14204475 2.028338 9462858
0 0 0 9527623
0 0 0 9855817
0 0 0 10053196
0 0 0 10053966
0 0 0 10184010
0 0 0 9594186
0 0 0 9528649
0 0 0 9528649
0 0 0 3939601
0 0 0 1246728
-4.0346217 0.26997232 3.380563 1312524
-4.0013905 0.26997232 3.380563 1443851
-3.9681594 0.26997232 3.380563 2890265
-3.6322417 0.24920525 3.1205199 3611671
-4.2563972 0.29451528 3.687887 3743001
-4.2201452 0.29451528 3.687887 3676949
-4.1838932 0.29451528 3.687887 3676950
-4.1476407 0.29451528 3.687887 3611159
-4.1113887 0.29451528 3.687887 3545365
-4.0751367 0.29451528 3.687887 3742229
-4.0388846 0.29451528 3.687887 3742999
-4.0026326 0.29451528 3.687887 3809049
-3.9663804 0.29451528 3.687887 3677206
-3.9301283 0.29451528 3.687887 3808536
-3.8938763 0.29451528 3.687887 3939866
-3.8576241 0.29451528 3.687887 3676439
-4.2035093 0.32396683 4.0566759 3545367
-4.1636324 0.32396683 4.0566759 3545366
-4.123755 0.32396683 4.0566759 2756366
-3.7126157 0.29451528 3.687887 1378058
-4.0440001 0.32396683 4.0566759 1509645
-3.6401114 0.29451528 3.687887 2035474
-3.6038594 0.29451528 3.687887 1114885
-3.9243684 0.32396683 4.0566759 984070
-3.884491 0.32396683 4.0566759 852742
-3.8446138 0.32396683 4.0566759 786949
-3.8047364 0.32396683 4.0566759 786950
-3.7648592 0.32396683 4.0566759 852489
-3.7249818 0.32396683 4.0566759 786696
-3.3500948 0.29451528 3.687887 786696
-3.3138428 0.29451528 3.687887 721416
-3.2775905 0.29451528 3.687887 852489
-3.5654726 0.32396683 4.0566759 787210
-3.5255952 0.32396683 4.0566759 983819
-3.8730199 0.35996315 4.5074177 655881
-3.8287117 0.35996315 4.5074177 853000
-3.7844038 0.35996315 4.5074177 786696
-3.7400956 0.35996315 4.5074177 786696
-3.6957874 0.35996315 4.5074177 918283
-3.6514795 0.35996315 4.5074177 720905
-3.6071713 0.35996315 4.5074177 983305
-3.5628631 0.35996315 4.5074177 983559
-3.5185549 0.35996315 4.5074177 1115144
-3.9085276 0.40495852 5.0708447 1049352
-3.858681 0.40495852 5.0708447 1049098
-3.8088343 0.40495852 5.0708447 983817
-3.7589877 0.40495852 5.0708447 852489
-3.709141 0.40495852 5.0708447 852743
-3.6592944 0.40495852 5.0708447 983560
-3.6094477 0.40495852 5.0708447 917512
-3.1640902 0.35996315 4.5074177 852489
-3.119782 0.35996315 4.5074177 918282
-3.0754738 0.35996315 4.5074177 917512
-3.0311658 0.35996315 4.5074177 786953
-2.6881719 0.32396683 4.0566759 852232
-2.6482944 0.32396683 4.0566759 852233
-2.3712883 0.29451528 3.687887 786696
-2.5685399 0.32396683 4.0566759 852745
-2.8096251 0.35996315 4.5074177 852233
-2.765317 0.35996315 4.5074177 918539
-2.721009 0.35996315 4.5074177 3086106
-3.0112882 0.40495852 5.0708447 7948101
-2.9614415 0.40495852 5.0708447 9461569
-2.9115949 0.40495852 5.0708447 9856069
-2.8617485 0.40495852 5.0708447 10447175
-3.2136018 0.46280971 5.7952509 10643523
-3.1566343 0.46280971 5.7952509 10512198
-3.0996668 0.46280971 5.7952509 10446916
-3.0426991 0.46280971 5.7952509 10381895
-2.9857316 0.46280971 5.7952509 10643782
-2.9287641 0.46280971 5.7952509 10577988
-2.8717964 0.46280971 5.7952509 10840904
-2.8148289 0.46280971 5.7952509 10118468
-2.7578614 0.46280971 5.7952509 9920834
-2.7008936 0.46280971 5.7952509 9527620
-2.6439261 0.46280971 5.7952509 8936259
-2.5869586 0.46280971 5.7952509 7358258
-2.5299909 0.46280971 5.7952509 8739138
-2.4730234 0.46280971 5.7952509 9199173
-1.8791547 0.35996315 4.5074177 10578245
-1.8348465 0.35996315 4.5074177 11103818
-1.6114845 0.32396683 4.0566759 11104329
-1.4287338 0.29451528 3.687887 4923918
-1.5317299 0.32396683 4.0566759 1312269
-1.6576141 0.35996315 4.5074177 721929
-1.8149691 0.40495852 5.0708447 655625
-1.7651225 0.40495852 5.0708447 721418
-1.5246897 0.35996315 4.5074177 918539
-1.4803816 0.35996315 4.5074177 853004
0 0 0 1050635
0 0 0 984075
-0.26363292 0.070427567 0.88188601 984075
-0.25496393 0.070427567 0.88188601 984589
-0.24629496 0.070427567 0.88188601 1181197
-0.23257011 0.068929106 0.86312246 984586
-0.22408557 0.068929106 0.86312246 918282
-0.21560104 0.068929106 0.86312246 984075
-0.19866279 0.066115677 0.82789302 1049870
-0.19052456 0.066115677 0.82789302 1313042
-0.17873861 0.064793363 0.81133515 2431002
-0.17076315 0.064793363 0.81133515 2431002
-0.16610989 0.066115677 0.82789302 1115661
-0.15481222 0.064793363 0.81133515 786696
-0.14683676 0.064793363 0.81133515 721673
-0.1388613 0.064793363 0.81133515 852491
-0.13088584 0.064793363 0.81133515 786698
-0.12291038 0.064793363 0.81133515 786696
-0.11493492 0.064793363 0.81133515 852489
-0.10695945 0.064793363 0.81133515 852489
-0.10100408 0.066115677 0.82789302 590089
-0.092865855 0.066115677 0.82789302 918282
-0.08472763 0.066115677 0.82789302 852489
-0.076589406 0.066115677 0.82789302 786953
-0.068451174 0.066115677 0.82789302 984075
-0.059106693 0.064793363 0.81133515 852489
-0.05113123 0.064793363 0.81133515 852746
-0.043155771 0.064793363 0.81133515 918282
-0.037425857 0.068929106 0.86312246 853003
-0.034006059 0.080991708 1.014169 786696
0 0 0 852489
0 0 0 984329
0 0 0 983561
0 0 0 852489
0 0 0 1246220
0 0 0 1312267
0 0 0 1443852
0 0 0 1575439
0 0 0 1706254
0 0 0 1837325
0.20175074 0.21597786 2.7044504 1837838
0.21406464 0.20247926 2.5354223 1509645
0.22492984 0.19056872 2.3862798 1443853
0.24838707 0.19056872 2.3862798 1509645
0 0 0 3415838
0 0 0 4728087
0 0 0 5056026
0 0 0 4858904
0 0 0 4662299
1.3230438 0.64793366 8.1133518 4859163
1.4027984 0.64793366 8.1133518 4859163
1.482553 0.64793366 8.1133518 4793884
0.86794865 0.35996315 4.5074177 4530457
0.82103109 0.32396683 4.0566759 4399897
0.71742362 0.26997232 3.380563 9396296
0.7506547 0.26997232 3.380563 10577987
0.78388578 0.26997232 3.380563 11235662
0.89140022 0.29451528 3.687887 11104851
0.92765236 0.29451528 3.687887 11434068
0.81561148 0.24920525 3.1205199 10379838
0.91681015 0.26997232 3.380563 10181688
0.95004123 0.26997232 3.380563 8403491
0.98327231 0.26997232 3.380563 1180938
1.0165035 0.26997232 3.380563 1180938
1.399646 0.35996315 4.5074177 852487
0.76444632 0.19056872 2.3862798 983561
0.78790355 0.19056872 2.3862798 918024
0.81136078 0.19056872 2.3862798 851975
0.83481801 0.19056872 2.3862798 786696
0.72953403 0.16198342 2.028338 721416
0.71378344 0.1542699 1.9317503 1049096
0.6994648 0.14725764 1.8439435 918025
0.71759081 0.14725764 1.8439435 983305
0.73571688 0.14725764 1.8439435 918282
0.7897402 0.1542699 1.9317503 918796
0.84916592 0.16198342 2.028338 984075
0.86910456 0.16198342 2.028338 984075
0.88904321 0.16198342 2.028338 1180938
0.90898186 0.16198342 2.028338 1050122
0.97781104 0.17050885 2.1350925 1049098
0.99879909 0.17050885 2.1350925 655880
0.92266452 0.1542699 1.9317503 721159
0.89885128 0.14725764 1.8439435 786440
0.91697735 0.14725764 1.8439435 852491
0.93510342 0.14725764 1.8439435 786696
0.95322943 0.14725764 1.8439435 852491
0.9713555 0.14725764 1.8439435 787468
0.98948157 0.14725764 1.8439435 787468
0.96379858 0.14085513 1.763772 852747
0.9811365 0.14085513 1.763772 786698
0.99847448 0.14085513 1.763772 918283
1.1125565 0.1542699 1.9317503 721417
1.1315457 0.1542699 1.9317503 1773074
1.2080617 0.16198342 2.028338 6832952
1.1695241 0.1542699 1.9317503 7227705
1.247939 0.16198342 2.028338 7623236
1.2678777 0.16198342 2.028338 8345673
1.2878163 0.16198342 2.028338 7754821
1.307755 0.16198342 2.028338 6834494
1.3276936 0.16198342 2.028338 6899513
1.3476323 0.16198342 2.028338 8014142
1.3675709 0.16198342 2.028338 3413525
1.3875096 0.16198342 2.028338 2888471
1.4074482 0.16198342 2.028338 655366
1.5025125 0.17050885 2.1350925 720904
1.5235004 0.17050885 2.1350925 720903
1.5444885 0.17050885 2.1350925 852489
1.4163835 0.1542699 1.9317503 655882
1.4353727 0.1542699 1.9317503 852491
1.4543619 0.1542699 1.9317503 721160
1.4733511 0.1542699 1.9317503 655880
1.4923403 0.1542699 1.9317503 852489
1.3799095 0.14085513 1.763772 852747
1.5303187 0.1542699 1.9317503 852490
1.5493079 0.1542699 1.9317503 852489
1.568297 0.1542699 1.9317503 918282
1.4492614 0.14085513 1.763772 787209
1.4665993 0.14085513 1.763772 852488
1.4221066 0.13498616 1.6902815 983305
1.3811733 0.12958673 1.6226703 787468
1.3971242 0.12958673 1.6226703 852237
1.6057671 0.14725764 1.8439435 721673
1.7012215 0.1542699 1.9317503 787467
1.9012855 0.17050885 2.1350925 787468
1.9222735 0.17050885 2.1350925 721675
1.758189 0.1542699 1.9317503 721673
1.6963974 0.14725764 1.8439435 786696
1.5716465 0.13498616 1.6902815 918282
1.6573169 0.14085513 1.763772 852491
1.7507756 0.14725764 1.8439435 852746
1.853135 0.1542699 1.9317503 787466
1.8721242 0.1542699 1.9317503 918282
1.8911134 0.1542699 1.9317503 1049352
1.6044862 0.12958673 1.6226703 1049098
1.5004047 0.11998771 1.5024725 721673
1.5151742 0.11998771 1.5024725 721673
1.4753026 0.11570243 1.4488127 918281
1.4895445 0.11570243 1.4488127 918536
1.5037863 0.11570243 1.4488127 1050122
1.6347997 0.12460262 1.5602599 918538
1.7161427 0.12958673 1.6226703 1771532
1.8042641 0.13498616 1.6902815 1904404
1.8208796 0.13498616 1.6902815 1377806
1.9173863 0.14085513 1.763772 2428171
1.9347242 0.14085513 1.763772 6898730
2.0407922 0.14725764 1.8439435 8212277
2.1569622 0.1542699 1.9317503 8475449
2.1759512 0.1542699 1.9317503 8541499
2.1949403 0.1542699 1.9317503 9001793
2.2139297 0.1542699 1.9317503 9133122
2.2329187 0.1542699 1.9317503 9593671
2.2519081 0.1542699 1.9317503 9986633
2.1676745 0.14725764 1.8439435 10118989
2.1858006 0.14725764 1.8439435 10185037
2.3088756 0.1542699 1.9317503 9593417
2.3278649 0.1542699 1.9317503 9462345
2.4641969 0.16198342 2.028338 9527624
4.1402254 0.26997232 3.380563 9396037
0 0 0 9593414
0 0 0 9922120
0 0 0 9725003
0 0 0 9986633
0 0 0 9790026
0 0 0 9658697
0 0 0 9790026
0 0 0 4136210
0 0 0 1181450
-4.0346217 0.30320343 3.380563 1509646
-4.0013905 0.30320343 3.380563 1312521
-3.9681594 0.30320343 3.380563 2889751
-3.9349284 0.30320343 3.380563 3545365
-3.9016974 0.30320343 3.380563 3545878
-3.8684664 0.30320343 3.380563 3479831
-4.1838932 0.33076736 3.687887 3610904
-4.1476407 0.33076736 3.687887 3545111
-4.1113887 0.33076736 3.687887 3545624
-4.0751367 0.33076736 3.687887 3611158
-4.0388846 0.33076736 3.687887 3676181
-4.0026326 0.33076736 3.687887 3676694
-3.9663804 0.33076736 3.687887 3743000
-4.3231416 0.36384413 4.0566759 3545622
-3.8938763 0.33076736 3.687887 3611158
-3.8576241 0.33076736 3.687887 3479830
-3.821372 0.33076736 3.687887 3414037
-4.1636324 0.36384413 4.0566759 3282451
-4.123755 0.36384413 4.0566759 2362636
-4.0838776 0.36384413 4.0566759 1180680
-4.4933338 0.40427125 4.5074177 1378060
-4.4490256 0.40427125 4.5074177 2232595
-4.4047174 0.40427125 4.5074177 983045
-4.3604093 0.40427125 4.5074177 786951
-4.3161011 0.40427125 4.5074177 786696
-4.2717929 0.40427125 4.5074177 786696
-3.8047364 0.36384413 4.0566759 786696
-3.7648592 0.36384413 4.0566759 721161
-3.3863468 0.33076736 3.687887 1049098
-3.3500948 0.33076736 3.687887 984077
-3.6452272 0.36384413 4.0566759 1114634
-3.60535 0.36384413 4.0566759 1049352
-3.5654726 0.36384413 4.0566759 918537
-3.5255952 0.36384413 4.0566759 984330
-3.485718 0.36384413 4.0566759 918536
-3.4458406 0.36384413 4.0566759 721673
-3.4059634 0.36384413 4.0566759 917767
-3.366086 0.36384413 4.0566759 655880
-3.6957874 0.40427125 4.5074177 655882
-3.6514795 0.40427125 4.5074177 589831
-3.6071713 0.40427125 4.5074177 786950
-3.5628631 0.40427125 4.5074177 1049352
-3.5185549 0.40427125 4.5074177 1246474
-3.474247 0.40427125 4.5074177 1246731
-3.858681 0.45480514 5.0708447 1114891
-3.8088343 0.45480514 5.0708447 984329
-3.7589877 0.45480514 5.0708447 918282
-3.709141 0.45480514 5.0708447 918536
-3.6592944 0.45480514 5.0708447 984074
-3.2083981 0.40427125 4.5074177 852489
-2.847681 0.36384413 4.0566759 787466
-2.8078039 0.36384413 4.0566759 852746
-3.0754738 0.40427125 4.5074177 918282
-3.0311658 0.40427125 4.5074177 852489
-2.6881719 0.36384413 4.0566759 918282
-2.6482944 0.36384413 4.0566759 786698
-2.6084173 0.36384413 4.0566759 852233
-2.5685399 0.36384413 4.0566759 984075
-2.8096251 0.40427125 4.5074177 786953
-2.765317 0.40427125 4.5074177 853260
-2.721009 0.40427125 4.5074177 2954778
-3.0112882 0.45480514 5.0708447 4990765
-2.9614415 0.45480514 5.0708447 9001023
-2.9115949 0.45480514 5.0708447 9723713
-3.2705696 0.5197773 5.7952509 10249796
-3.2136018 0.5197773 5.7952509 10118721
-2.7620552 0.45480514 5.0708447 9921344
-3.0996668 0.5197773 5.7952509 9986882
-3.0426991 0.5197773 5.7952509 10249026
-2.9857316 0.5197773 5.7952509 10052417
-2.9287641 0.5197773 5.7952509 10184515
-2.8717964 0.5197773 5.7952509 10118723
-2.8148289 0.5197773 5.7952509 9592127
-2.7578614 0.5197773 5.7952509 9789762
-2.7008936 0.5197773 5.7952509 9724483
-2.3134353 0.45480514 5.0708447 9856069
-2.2635887 0.45480514 5.0708447 8081201
-2.2137423 0.45480514 5.0708447 10185031
-2.1638956 0.45480514 5.0708447 9395005
-1.8791547 0.40427125 4.5074177 10184774
-1.6513619 0.36384413 4.0566759 10117953
-1.2396035 0.27988011 3.1205199 10118467
-1.4287338 0.33076736 3.687887 1837060
-1.5317299 0.36384413 4.0566759 983818
-1.4918526 0.36384413 4.0566759 721674
-1.6133059 0.40427125 4.5074177 655625
-1.5689979 0.40427125 4.5074177 918540
-1.5246897 0.40427125 4.5074177 918282
-1.4803816 0.40427125 4.5074177 1049869
-1.4360734 0.40427125 4.5074177 1050124
-0.26650825 0.077413641 0.86312246 1049612
-0.25802371 0.077413641 0.86312246 1246477
-0.24953917 0.077413641 0.86312246 1115661
-0.23603266 0.075800858 0.84514076 984587
-0.23257011 0.077413641 0.86312246 852489
-0.21941712 0.075800858 0.84514076 721674
-0.21110936 0.075800858 0.84514076 918282
-0.19866279 0.074253902 0.82789302 1114893
-0.18671407 0.072768822 0.81133515 2562591
-0.17873861 0.072768822 0.81133515 3023141
-0.17076315 0.072768822 0.81133515 3219491
-0.16278769 0.072768822 0.81133515 2628124
-0.15481222 0.072768822 0.81133515 852489
0 0 0 918282
-0.1388613 0.072768822 0.81133515 852489
-0.12347721 0.068649828 0.76541048 721673
-0.11818306 0.069970027 0.78012997 852491
-0.11051435 0.069970027 0.78012997 852491
-0.10486221 0.071341984 0.79542661 852489
-0.098983996 0.072768822 0.81133515 918284
-0.091008537 0.072768822 0.81133515 983307
-0.083033077 0.072768822 0.81133515 721673
-0.075057611 0.072768822 0.81133515 852489
-0.067082152 0.072768822 0.81133515 983561
-0.059106693 0.072768822 0.81133515 918282
-0.05113123 0.072768822 0.81133515 852746
-0.051375914 0.086629547 0.96587515 852489
0 0 0 852489
0 0 0 917769
0 0 0 1049098
0 0 0 984074
0 0 0 1049098
0 0 0 918536
0 0 0 1049352
0 0 0 1246474
0 0 0 1508876
0 0 0 1640461
0 0 0 1640459
0.16421801 0.22740257 2.5354223 1706254
0.18914132 0.22740257 2.5354223 1706252
0.21406464 0.22740257 2.5354223 1575438
0.22492984 0.21402594 2.3862798 1378059
0.24838707 0.21402594 2.3862798 1443852
0.28883457 0.22740257 2.5354223 1904146
0 0 0 5581598
0 0 0 5713183
0 0 0 5582111
0 0 0 4925213
1.3230438 0.72768825 8.1133518 5056285
0.70139921 0.36384413 4.0566759 4859163
0.7412765 0.36384413 4.0566759 4925471
0.7811538 0.36384413 4.0566759 5451294
0.68419254 0.30320343 3.380563 7160110
0.66223723 0.27988011 3.1205199 9986114
0.64341831 0.25988865 2.8976254 10643521
0.67190212 0.25988865 2.8976254 11826250
0.70038593 0.25988865 2.8976254 13864034
0.72886968 0.25988865 2.8976254 13471336
0.75735348 0.25988865 2.8976254 8276532
0.78583729 0.25988865 2.8976254 10052930
0.87696117 0.27988011 3.1205199 8736054
0.98327231 0.30320343 3.380563 1049352
1.0165035 0.30320343 3.380563 918280
0.96898574 0.27988011 3.1205199 918282
0.76444632 0.21402594 2.3862798 983305
0.78790355 0.21402594 2.3862798 852743
0.81136078 0.21402594 2.3862798 1312525
0.70959538 0.18192206 2.028338 1115403
0.66321272 0.16538368 1.8439435 1114890
0.68133873 0.16538368 1.8439435 984074
0.66905326 0.1581931 1.763772 984074
0.68639123 0.1581931 1.763772 787466
0.70372921 0.1581931 1.763772 917769
0.7897402 0.17325909 1.9317503 918283
0.84916592 0.18192206 2.028338 918282
0.86910456 0.18192206 2.028338 1509903
0.93583494 0.19149691 2.1350925 3021853
1.0099798 0.20213562 2.2537088 1771788
0.97781104 0.19149691 2.1350925 1049352
0.90367538 0.17325909 1.9317503 918282
0.88072526 0.16538368 1.8439435 786696
0.85977083 0.1581931 1.763772 655623
0.87710875 0.1581931 1.763772 721157
0.89444673 0.1581931 1.763772 852489
0.91178471 0.1581931 1.763772 786955
0.92912263 0.1581931 1.763772 852491
0.9464606 0.1581931 1.763772 787209
0.96379858 0.1581931 1.763772 721675
1.074578 0.17325909 1.9317503 852490
1.0935673 0.17325909 1.9317503 655883
1.2296677 0.19149691 2.1350925 656139
1.1315457 0.17325909 1.9317503 1640457
1.2080617 0.18192206 2.028338 7753018
1.2280003 0.18192206 2.028338 6832953
1.247939 0.18192206 2.028338 7293757
1.334608 0.19149691 2.1350925 8082754
1.3555961 0.19149691 2.1350925 7883580
1.3765841 0.19149691 2.1350925 6570551
1.3276936 0.18192206 2.028338 7884609
1.3476323 0.18192206 2.028338 8343361
1.3675709 0.18192206 2.028338 3676699
1.3875096 0.18192206 2.028338 3019543
1.4074482 0.18192206 2.028338 786696
1.4273869 0.18192206 2.028338 590089
1.4473255 0.18192206 2.028338 786696
1.3973943 0.17325909 1.9317503 590087
1.4163835 0.17325909 1.9317503 590088
1.4353727 0.17325909 1.9317503 655625
1.4543619 0.17325909 1.9317503 852489
1.4733511 0.17325909 1.9317503 852489
1.4923403 0.17325909 1.9317503 918282
1.5113295 0.17325909 1.9317503 2299421
1.5303187 0.17325909 1.9317503 3811623
1.5493079 0.17325909 1.9317503 4140846
1.568297 0.17325909 1.9317503 3680810
1.515137 0.16538368 1.8439435 3747119
1.4665993 0.1581931 1.763772 3484462
1.4839373 0.1581931 1.763772 1839386
1.4387221 0.15160172 1.6902815 1049868
1.5186132 0.1581931 1.763772 721673
1.6057671 0.16538368 1.8439435 852489
1.7012215 0.17325909 1.9317503 852489
1.9012855 0.19149691 2.1350925 983305
1.9222735 0.19149691 2.1350925 852489
1.6782713 0.16538368 1.8439435 984075
1.5550309 0.15160172 1.6902815 852490
1.5087806 0.14553764 1.6226703 852491
1.5247315 0.14553764 1.6226703 852491
1.6048776 0.15160172 1.6902815 787210
1.7689016 0.16538368 1.8439435 786953
1.8721242 0.17325909 1.9317503 852489
1.5885353 0.14553764 1.6226703 918282
1.4856354 0.13475709 1.5024725 984075
1.4468188 0.12994432 1.4488127 918282
1.4610606 0.12994432 1.4488127 984329
1.4753026 0.12994432 1.4488127 1180938
1.6041249 0.13994005 1.5602599 1049352
1.6194624 0.13994005 1.5602599 984329
1.7001917 0.14553764 1.6226703 1115915
1.7876486 0.15160172 1.6902815 3742753
1.8042641 0.15160172 1.6902815 3942433
1.9000483 0.1581931 1.763772 3022360
1.9173863 0.1581931 1.763772 1575185
1.9347242 0.1581931 1.763772 4730399
1.9520621 0.1581931 1.763772 7620399
2.0589182 0.16538368 1.8439435 8212279
2.1759512 0.17325909 1.9317503 8475965
2.1949403 0.17325909 1.9317503 8541757
2.2139297 0.17325909 1.9317503 8673085
2.2329187 0.17325909 1.9317503 9198916
2.2519081 0.17325909 1.9317503 9592642
2.2708972 0.17325909 1.9317503 9855305
2.2898865 0.17325909 1.9317503 9462344
2.3088756 0.17325909 1.9317503 9264965
2.3278649 0.17325909 1.9317503 9067846
2.4641969 0.18192206 2.028338 9002309
3.8217468 0.27988011 3.1205199 9002308
0 0 0 9593673
0 0 0 9921610
0 0 0 9462858
0 0 0 9658440
0 0 0 9659466
0 0 0 9593673
0 0 0 9527622
0 0 0 4201744
0 0 0 1050119
-4.0346217 0.33643451 3.380563 1312270
-4.0013905 0.33643451 3.380563 1378060
-3.9681594 0.33643451 3.380563 2757397
-3.9349284 0.33643451 3.380563 3347989
-3.9016974 0.33643451 3.380563 3217429
-3.8684664 0.33643451 3.380563 3414292
-4.1838932 0.36701947 3.687887 3480598
-4.1476407 0.36701947 3.687887 3611414
-4.1113887 0.36701947 3.687887 3545623
-4.0751367 0.36701947 3.687887 3349272
-4.0388846 0.36701947 3.687887 3744027
-4.0026326 0.36701947 3.687887 3744027
-3.9663804 0.36701947 3.687887 3809052
-4.3231416 0.40372145 4.0566759 3545879
-4.2832642 0.40372145 4.0566759 3480085
-4.2433867 0.40372145 4.0566759 3611671
-3.821372 0.36701947 3.687887 3611415
-4.1636324 0.40372145 4.0566759 3348501
-4.5819497 0.44857937 4.5074177 2428944
-4.5376415 0.44857937 4.5074177 1180681
-4.4933338 0.44857937 4.5074177 1312780
-4.4490256 0.44857937 4.5074177 2232338
-4.955307 0.50465178 5.0708447 1180169
-4.3604093 0.44857937 4.5074177 852490
-4.3161011 0.44857937 4.5074177 853002
-4.2717929 0.44857937 4.5074177 1049868
-3.8047364 0.40372145 4.0566759 918282
-3.7648592 0.40372145 4.0566759 853002
-3.3863468 0.36701947 3.687887 918282
-3.6851046 0.40372145 4.0566759 1050123
-3.6452272 0.40372145 4.0566759 1115661
-3.60535 0.40372145 4.0566759 1115402
-3.5654726 0.40372145 4.0566759 918536
-3.5255952 0.40372145 4.0566759 1050122
-3.485718 0.40372145 4.0566759 1115915
-3.4458406 0.40372145 4.0566759 1246731
-3.4059634 0.40372145 4.0566759 918282
-3.366086 0.40372145 4.0566759 655878
-3.6957874 0.44857937 4.5074177 655880
-3.6514795 0.44857937 4.5074177 786696
-3.6071713 0.44857937 4.5074177 786696
-3.5628631 0.44857937 4.5074177 786696
-3.5185549 0.44857937 4.5074177 983560
-3.474247 0.44857937 4.5074177 984328
-3.4299388 0.44857937 4.5074177 1049608
-3.3856306 0.44857937 4.5074177 1115146
-3.3413227 0.44857937 4.5074177 983305
-3.2970145 0.44857937 4.5074177 984329
-3.2527063 0.44857937 4.5074177 1050122
-2.8875585 0.40372145 4.0566759 983305
-2.847681 0.40372145 4.0566759 984075
-3.119782 0.44857937 4.5074177 852743
-3.0754738 0.44857937 4.5074177 918282
-3.0311658 0.44857937 4.5074177 918280
-2.6881719 0.40372145 4.0566759 852489
-2.6482944 0.40372145 4.0566759 655880
-2.6084173 0.40372145 4.0566759 786950
-2.8539333 0.44857937 4.5074177 852489
-2.8096251 0.44857937 4.5074177 721418
-2.765317 0.44857937 4.5074177 984075
-2.721009 0.44857937 4.5074177 2955029
-3.0112882 0.50465178 5.0708447 4925734
-2.9614415 0.50465178 5.0708447 8671801
-2.9115949 0.50465178 5.0708447 9329725
-2.8617485 0.50465178 5.0708447 9789505
-2.8119018 0.50465178 5.0708447 9855297
-2.7620552 0.50465178 5.0708447 9855297
-3.0996668 0.57674485 5.7952509 9920833
-3.0426991 0.57674485 5.7952509 9920577
-2.9857316 0.57674485 5.7952509 9855551
-2.9287641 0.57674485 5.7952509 10052418
-2.8717964 0.57674485 5.7952509 9724735
-2.4629753 0.50465178 5.0708447 9526332
-2.7578614 0.57674485 5.7952509 9790017
-2.7008936 0.57674485 5.7952509 9395518
-2.3134353 0.50465178 5.0708447 9396034
-2.2635887 0.50465178 5.0708447 9264447
-2.2137423 0.50465178 5.0708447 9856067
-2.1638956 0.50465178 5.0708447 8935996
-1.6912392 0.40372145 4.0566759 10117958
-1.1795441 0.28837243 2.8976254 8870204
-1.2396035 0.31055495 3.1205199 7356969
-1.2089287 0.31055495 3.1205199 1181708
-1.3924817 0.36701947 3.687887 918282
-1.4918526 0.40372145 4.0566759 852489
-1.6133059 0.44857937 4.5074177 590089
-1.5689979 0.44857937 4.5074177 919052
-1.1435173 0.33643451 3.380563 852490
-0.95167381 0.28837243 2.8976254 1180940
-0.27499276 0.085898168 0.86312246 984075
-0.26650825 0.085898168 0.86312246 853259
-0.2526482 0.084108628 0.84514076 853002
-0.24434045 0.084108628 0.84514076 1312524
-0.23603266 0.084108628 0.84514076 853002
-0.22772489 0.084108628 0.84514076 786955
-0.21941712 0.084108628 0.84514076 721163
-0.20680101 0.082392126 0.82789302 853261
-0.19866279 0.082392126 0.82789302 1643031
-0.18671407 0.080744281 0.81133515 2497565
-0.17523393 0.079161063 0.79542661 2890528
-0.16741484 0.079161063 0.79542661 2890015
-0.15959577 0.079161063 0.79542661 2825503
-0.14885791 0.077638738 0.78012997 1380116
-0.1411892 0.077638738 0.78012997 721673
-0.13100122 0.076173849 0.76541048 590602
-0.12347721 0.076173849 0.76541048 786696
-0.11595318 0.076173849 0.76541048 721673
-0.10842916 0.076173849 0.76541048 786698
-0.10284563 0.077638738 0.78012997 983305
-0.097043134 0.079161063 0.79542661 787466
-0.087508209 0.077638738 0.78012997 852489
-0.079839498 0.077638738 0.78012997 787466
-0.073585898 0.079161063 0.79542661 852489
-0.065766819 0.079161063 0.79542661 852743
-0.059106693 0.080744281 0.81133515 852489
-0.06087051 0.096124142 0.96587515 918025
0 0 0 918282
0 0 0 852489
0 0 0 852489
0 0 0 918282
0 0 0 918282
-0.0052878466 0.13023272 1.3086051 786696
0.0075758002 0.13023272 1.3086051 852489
0 0 0 918536
0 0 0 1115145
0 0 0 1378060
0 0 0 1378317
0.13929468 0.25232589 2.5354223 1378059
0.13828884 0.21248496 2.1350925 1574668
0.17801537 0.23748319 2.3862798 1640461
0.2014726 0.23748319 2.3862798 1443853
0.22492984 0.23748319 2.3862798 1312524
0.24838707 0.23748319 2.3862798 1312267
0.30809021 0.2691476 2.7044504 1443852
0.38616356 0.31055495 3.1205199 4990492
0 0 0 5582370
0 0 0 6568490
0 0 0 7684656
0.55126822 0.33643451 3.380563 8276530
0.5844993 0.33643451 3.380563 8341807
0.57021266 0.31055495 3.1205199 8407856
0.60088754 0.31055495 3.1205199 8538929
0.63156235 0.31055495 3.1205199 8998964
0.66223723 0.31055495 3.1205199 8932914
0.64341831 0.28837243 2.8976254 8604722
0.67190212 0.28837243 2.8976254 8539190
0.70038593 0.28837243 2.8976254 8079154
0.72886968 0.28837243 2.8976254 7684914
0.70686322 0.2691476 2.7044504 7881777
0.73344809 0.2691476 2.7044504 9983801
0.76003295 0.2691476 2.7044504 6304287
0.90763605 0.31055495 3.1205199 1115147
0.93831086 0.31055495 3.1205199 852489
0.96898574 0.31055495 3.1205199 786696
0.44812369 0.13921428 1.3988537 983562
0.46187449 0.13921428 1.3988537 1575696
0.55172533 0.16148856 1.6226703 1837839
0.56767625 0.16148856 1.6226703 1837582
0.58362716 0.16148856 1.6226703 1903375
0.62456053 0.16821726 1.6902815 1706509
0.64117604 0.16821726 1.6902815 1575438
0.71759081 0.18350974 1.8439435 1509643
0.73571688 0.18350974 1.8439435 1443852
0.82922727 0.20186073 2.028338 1246473
0.89385885 0.21248496 2.1350925 918282
0.9148469 0.21248496 2.1350925 918282
0.93583494 0.21248496 2.1350925 1180681
1.0099798 0.22428969 2.2537088 983306
0.97781104 0.21248496 2.1350925 1114891
0.82509488 0.17553104 1.763772 852489
0.8073315 0.16821726 1.6902815 590089
0.79098916 0.16148856 1.6226703 984075
0.80694008 0.16148856 1.6226703 2956317
0.85717809 0.16821726 1.6902815 2890522
0.87379366 0.16821726 1.6902815 2824219
0.92912263 0.17553104 1.763772 2495769
0.9464606 0.17553104 1.763772 2101269
1.0555888 0.19224828 1.9317503 1246732
1.074578 0.19224828 1.9317503 918282
1.2086797 0.21248496 2.1350925 787211
1.2296677 0.21248496 2.1350925 786698
1.188123 0.20186073 2.028338 1640459
1.2080617 0.20186073 2.028338 7160112
1.2280003 0.20186073 2.028338 6243128
1.247939 0.20186073 2.028338 7095868
1.334608 0.21248496 2.1350925 7688773
1.2878163 0.20186073 2.028338 7689027
1.307755 0.20186073 2.028338 7425599
1.3276936 0.20186073 2.028338 7097149
1.3476323 0.20186073 2.028338 6964284
1.3675709 0.20186073 2.028338 3414040
1.3875096 0.20186073 2.028338 3217176
1.4074482 0.20186073 2.028338 852489
1.4273869 0.20186073 2.028338 720903
1.4473255 0.20186073 2.028338 655624
1.3973943 0.19224828 1.9317503 851976
1.4163835 0.19224828 1.9317503 721416
1.5071415 0.20186073 2.028338 655625
1.5270802 0.20186073 2.028338 721416
1.5470188 0.20186073 2.028338 786698
1.6494288 0.21248496 2.1350925 852489
1.5868961 0.20186073 2.028338 2824731
1.5303187 0.19224828 1.9317503 6898739
1.5493079 0.19224828 1.9317503 7160882
1.568297 0.19224828 1.9317503 8147005
1.5872862 0.19224828 1.9317503 8344893
1.533263 0.18350974 1.8439435 7884604
1.551389 0.18350974 1.8439435 7032378
1.5012753 0.17553104 1.763772 4006430
1.5876411 0.18350974 1.8439435 787213
1.6057671 0.18350974 1.8439435 852489
1.7012215 0.19224828 1.9317503 852489
1.7202107 0.19224828 1.9317503 918025
1.7391998 0.19224828 1.9317503 786696
1.605303 0.17553104 1.763772 852489
1.5550309 0.16821726 1.6902815 852489
1.5087806 0.16148856 1.6226703 918282
1.5247315 0.16148856 1.6226703 852489
1.5406824 0.16148856 1.6226703 852489
1.5566334 0.16148856 1.6226703 1049355
1.5121003 0.15527748 1.5602599 1049612
1.470866 0.14952646 1.5024725 919052
1.4856354 0.14952646 1.5024725 918282
1.4468188 0.14418621 1.4488127 655880
1.4610606 0.14418621 1.4488127 786696
1.652339 0.16148856 1.6226703 918282
1.6682899 0.16148856 1.6226703 852489
1.6842408 0.16148856 1.6226703 918282
1.7001917 0.16148856 1.6226703 1246731
1.7876486 0.16821726 1.6902815 6307635
1.8827103 0.17553104 1.763772 8279869
1.9000483 0.17553104 1.763772 7688518
1.9173863 0.17553104 1.763772 1904403
1.8541107 0.16821726 1.6902815 2362884
1.8707262 0.16821726 1.6902815 8805955
1.8873417 0.16821726 1.6902815 8739907
2.0770445 0.18350974 1.8439435 8148288
2.1949403 0.19224828 1.9317503 7950909
2.2139297 0.19224828 1.9317503 7687224
2.2329187 0.19224828 1.9317503 7818810
2.2519081 0.19224828 1.9317503 7885373
2.2708972 0.19224828 1.9317503 8608580
2.2898865 0.19224828 1.9317503 9133125
2.3088756 0.19224828 1.9317503 8543047
2.4442582 0.20186073 2.028338 8608836
2.4641969 0.20186073 2.028338 8673858
3.8217468 0.31055495 3.1205199 8870979
0 0 0 9397321
0 0 0 9461577
0 0 0 9723978
0 0 0 9461834
0 0 0 9461833
0 0 0 9330504
0 0 0 9396297
0 0 0 4267535
0 0 0 1115398
-4.0346217 0.36966559 3.380563 1378062
-4.0013905 0.36966559 3.380563 1509902
-3.9681594 0.36966559 3.380563 3152155
-3.9349284 0.36966559 3.380563 3611674
-3.9016974 0.36966559 3.380563 3677464
-3.8684664 0.36966559 3.380563 3677464
-4.1838932 0.40327156 3.687887 3546648
-4.1476407 0.40327156 3.687887 3743257
-4.1113887 0.40327156 3.687887 3611158
-4.0751367 0.40327156 3.687887 3283479
-4.0388846 0.40327156 3.687887 3217686
-4.0026326 0.40327156 3.687887 3349526
-3.9663804 0.40327156 3.687887 3611671
-4.3231416 0.44359875 4.0566759 3611415
-4.2832642 0.44359875 4.0566759 3479830
-4.2433867 0.44359875 4.0566759 3479573
-4.2035093 0.44359875 4.0566759 3348244
-4.6262579 0.4928875 4.5074177 3151380
-4.5819497 0.4928875 4.5074177 2297360
-5.104847 0.55449843 5.0708447 1049096
-5.0550003 0.55449843 5.0708447 1180939
-5.0051537 0.55449843 5.0708447 1246990
-4.955307 0.55449843 5.0708447 852489
-4.9054604 0.55449843 5.0708447 1049098
-4.8556137 0.55449843 5.0708447 918282
-4.2717929 0.4928875 4.5074177 918282
-3.8047364 0.44359875 4.0566759 1049098
-3.7648592 0.44359875 4.0566759 853259
-3.7249818 0.44359875 4.0566759 1049611
-3.6851046 0.44359875 4.0566759 1115658
-3.6452272 0.44359875 4.0566759 1180938
-4.0059443 0.4928875 4.5074177 1115401
-3.9616363 0.4928875 4.5074177 918536
-3.5255952 0.44359875 4.0566759 918536
-3.485718 0.44359875 4.0566759 1115145
-3.4458406 0.44359875 4.0566759 1049352
-3.4059634 0.44359875 4.0566759 1115145
-3.7400956 0.4928875 4.5074177 918537
-3.6957874 0.4928875 4.5074177 852489
-3.6514795 0.4928875 4.5074177 655880
-3.6071713 0.4928875 4.5074177 655880
-3.5628631 0.4928875 4.5074177 786953
-3.5185549 0.4928875 4.5074177 1246475
-3.474247 0.4928875 4.5074177 1115145
-3.4299388 0.4928875 4.5074177 917766
-3.3856306 0.4928875 4.5074177 721674
-3.3413227 0.4928875 4.5074177 918282
-3.2970145 0.4928875 4.5074177 852489
-3.2527063 0.4928875 4.5074177 852489
-3.2083981 0.4928875 4.5074177 983559
-3.1640902 0.4928875 4.5074177 984329
-3.119782 0.4928875 4.5074177 984075
-3.0754738 0.4928875 4.5074177 918282
-3.0311658 0.4928875 4.5074177 984075
-2.9868577 0.4928875 4.5074177 1246731
-2.9425495 0.4928875 4.5074177 918282
-2.8982413 0.4928875 4.5074177 1050122
-2.8539333 0.4928875 4.5074177 1246731
-2.8096251 0.4928875 4.5074177 1246476
-2.765317 0.4928875 4.5074177 1247247
-2.721009 0.4928875 4.5074177 2888722
-3.0112882 0.55449843 5.0708447 3548191
-2.9614415 0.55449843 5.0708447 8014902
-2.9115949 0.55449843 5.0708447 8409142
-3.2705696 0.63371247 5.7952509 9067070
-3.2136018 0.63371247 5.7952509 9461313
-3.1566343 0.63371247 5.7952509 9855297
-3.0996668 0.63371247 5.7952509 9264189
-3.0426991 0.63371247 5.7952509 7621680
-2.9857316 0.63371247 5.7952509 9001793
-2.5626686 0.55449843 5.0708447 9723458
-2.5128219 0.55449843 5.0708447 8934713
-2.4629753 0.55449843 5.0708447 7884085
-2.4131286 0.55449843 5.0708447 7489071
-2.363282 0.55449843 5.0708447 7094571
-2.3134353 0.55449843 5.0708447 6701099
-2.2635887 0.55449843 5.0708447 8804419
-2.2137423 0.55449843 5.0708447 6964783
-2.4730234 0.63371247 5.7952509 6438704
-2.114049 0.55449843 5.0708447 7163192
-1.1795441 0.31685624 2.8976254 6965558
-1.1510603 0.31685624 2.8976254 3545353
-1.2089287 0.3412298 3.1205199 1115661
-1.2764416 0.36966559 3.380563 655882
-1.2432104 0.36966559 3.380563 918283
-1.2099794 0.36966559 3.380563 787211
-1.0862292 0.3412298 3.1205199 787209
-0.65343839 0.21123749 1.9317503 853258
-0.28347731 0.094382703 0.86312246 1115404
-0.26926374 0.092416398 0.84514076 984075
-0.26095599 0.092416398 0.84514076 787467
-0.2526482 0.092416398 0.84514076 1049869
-0.24434045 0.092416398 0.84514076 1181454
-0.23603266 0.092416398 0.84514076 590348
-0.22772489 0.092416398 0.84514076 655624
-0.21941712 0.092416398 0.84514076 721674
-0.20680101 0.090530351 0.82789302 1181455
-0.19866279 0.090530351 0.82789302 2168346
-0.19052456 0.090530351 0.82789302 2824735
-0.17523393 0.086980142 0.79542661 2562333
-0.16741484 0.086980142 0.79542661 2168602
-0.15959577 0.086980142 0.79542661 2825503
-0.14885791 0.085307449 0.78012997 2102035
-0.13852525 0.08369787 0.76541048 786696
-0.12857528 0.082147911 0.75123626 655882
-0.12119059 0.082147911 0.75123626 852491
-0.11173671 0.080654308 0.73757738 786698
-0.10642122 0.082147911 0.75123626 787468
-0.10090514 0.08369787 0.76541048 787468
-0.09517692 0.085307449 0.78012997 852743
-0.087508209 0.085307449 0.78012997 918282
-0.079839498 0.085307449 0.78012997 918282
-0.073585898 0.086980142 0.79542661 786696
-0.067082152 0.088719748 0.81133515 787209
-0.072081327 0.10819481 0.98943311 852489
-0.067277938 0.11673651 1.0675462 852489
-0.061651099 0.1267425 1.1590502 918025
-0.050257586 0.1267425 1.1590502 918024
0 0 0 852490
0 0 0 1049099
0 0 0 1049354
0 0 0 786696
0 0 0 918282
0 0 0 918282
0 0 0 1049098
0 0 0 1312267
0 0 0 1246474
0.11730079 0.23347302 2.1350925 1180681
0.12511848 0.21123749 1.9317503 1115145
0.17801537 0.26094043 2.3862798 1312013
0.2014726 0.26094043 2.3862798 1246730
0.22492984 0.26094043 2.3862798 1049098
0.26391128 0.27724922 2.5354223 918282
0.35548872 0.3412298 3.1205199 1180680
0 0 0 4073509
0 0 0 7159340
0 0 0 7685423
0 0 0 7882287
0.50886297 0.3412298 3.1205199 8013613
0.53953785 0.3412298 3.1205199 8080177
0.57021266 0.3412298 3.1205199 8210734
0.55796695 0.31685624 2.8976254 8407601
0.58645076 0.31685624 2.8976254 8604721
0.61493456 0.31685624 2.8976254 8999476
0.64341831 0.31685624 2.8976254 9262647
0.67190212 0.31685624 2.8976254 9787448
0.6536935 0.29573247 2.7044504 9852987
0.68027836 0.29573247 2.7044504 9722682
0.70686322 0.29573247 2.7044504 9590587
0.73344809 0.29573247 2.7044504 9590585
0.71253097 0.27724922 2.5354223 2098952
0.69407457 0.26094043 2.3862798 1115145
0.7175318 0.26094043 2.3862798 918279
0.4198938 0.14786623 1.3522252 786952
0.43318623 0.14786623 1.3522252 852231
0.44647866 0.14786623 1.3522252 1049353
0.47562528 0.15296507 1.3988537 984072
0.48937607 0.15296507 1.3988537 852488
0.56118 0.1706149 1.5602599 852489
0.59957808 0.1774395 1.6226703 852743
0.64117604 0.1848328 1.6902815 1049352
0.71759081 0.20163578 1.8439435 1049098
0.770751 0.21123749 1.9317503 983815
0.7897402 0.21123749 1.9317503 786950
0.89385885 0.23347302 2.1350925 852489
0.9148469 0.23347302 2.1350925 852489
0.93583494 0.23347302 2.1350925 917769
0.90898186 0.22179937 2.028338 918282
0.84447318 0.20163578 1.8439435 918282
0.75908732 0.1774395 1.6226703 917766
0.77503824 0.1774395 1.6226703 524296
0.76056653 0.1706149 1.5602599 1378063
0.77590394 0.1706149 1.5602599 4596507
0.822891 0.1774395 1.6226703 4597019
0.87379366 0.1848328 1.6902815 4596764
0.92912263 0.19286901 1.763772 4137501
0.98948157 0.20163578 1.8439435 2297875
1.0555888 0.21123749 1.9317503 2495769
1.074578 0.21123749 1.9317503 2298647
1.2086797 0.23347302 2.1350925 3086876
1.2296677 0.23347302 2.1350925 3217690
1.188123 0.22179937 2.028338 2560016
1.2080617 0.22179937 2.028338 4137754
1.2280003 0.22179937 2.028338 4596763
1.247939 0.22179937 2.028338 4531490
1.2678777 0.22179937 2.028338 4793367
1.2878163 0.22179937 2.028338 4924953
1.307755 0.22179937 2.028338 4662556
1.3276936 0.22179937 2.028338 5057314
1.3476323 0.22179937 2.028338 5190183
1.3675709 0.22179937 2.028338 3085587
1.3875096 0.22179937 2.028338 2954003
1.4074482 0.22179937 2.028338 1574925
1.4273869 0.22179937 2.028338 1378574
1.4473255 0.22179937 2.028338 1444366
1.4672642 0.22179937 2.028338 1444879
1.4872029 0.22179937 2.028338 1247501
1.5071415 0.22179937 2.028338 1115661
1.5270802 0.22179937 2.028338 1247247
1.6284407 0.23347302 2.1350925 1049868
1.6494288 0.23347302 2.1350925 1115661
1.6704168 0.23347302 2.1350925 2627352
1.5303187 0.21123749 1.9317503 6175277
1.4788848 0.20163578 1.8439435 7557952
1.4970108 0.20163578 1.8439435 6241586
1.515137 0.20163578 1.8439435 6701109
1.533263 0.20163578 1.8439435 6897969
1.551389 0.20163578 1.8439435 6833208
1.5695151 0.20163578 1.8439435 4598319
1.5186132 0.19286901 1.763772 983567
1.5359511 0.19286901 1.763772 721673
1.6238931 0.20163578 1.8439435 852489
1.5706271 0.19286901 1.763772 786696
1.5217998 0.1848328 1.6902815 918282
1.605303 0.19286901 1.763772 918282
1.5550309 0.1848328 1.6902815 984075
1.4507507 0.1706149 1.5602599 984329
1.4660881 0.1706149 1.5602599 918536
1.4814255 0.1706149 1.5602599 721927
1.496763 0.1706149 1.5602599 721672
1.5121003 0.1706149 1.5602599 852746
1.470866 0.16429582 1.5024725 918282
1.4856354 0.16429582 1.5024725 918282
1.5004047 0.16429582 1.5024725 852488
1.5151742 0.16429582 1.5024725 852744
1.5299435 0.16429582 1.5024725 983305
1.6041249 0.1706149 1.5602599 852489
1.6842408 0.1774395 1.6226703 1049098
1.7710329 0.1848328 1.6902815 1180681
