# .PCD v0.7 - Point Cloud Data file format
VERSION 0.7
FIELDS x y z rgb
SIZE 4 4 4 4
TYPE F F F U
COUNT 1 1 1 1
WIDTH 1285
HEIGHT 1
VIEWPOINT 0 0 0 1 0 0 0
POINTS 1285
DATA ascii
-2.5128219 0.50465178 5.0708447 9198139
0 0 0 8738104
0 0 0 9001533
0 0 0 8409652
0 0 0 2033412
0 0 0 1115404
-0.4319497 0.098468639 0.98943311 721675
-0.42222351 0.098468639 0.98943311 787981
-0.41249734 0.098468639 0.98943311 918539
-0.40277117 0.098468639 0.98943311 787210
-0.35032272 0.087765522 0.88188601 786953
-0.31432143 0.080744281 0.81133515 720905
-0.30033919 0.079161063 0.79542661 721161
-0.29252011 0.079161063 0.79542661 917769
-0.28470105 0.079161063 0.79542661 918282
-0.28241959 0.080744281 0.81133515 984075
-0.27444413 0.080744281 0.81133515 984075
-0.25621989 0.077638738 0.78012997 852489
-0.24386151 0.076173849 0.76541048 918282
-0.2363375 0.076173849 0.76541048 721675
-0.22881347 0.076173849 0.76541048 1115661
-0.22128946 0.076173849 0.76541048 655880
-0.20980683 0.074763231 0.75123626 721674
-0.20242214 0.074763231 0.75123626 918285
-0.19149131 0.073403895 0.73757738 1970457
-0.18424089 0.073403895 0.73757738 2759712
-0.17382993 0.072093107 0.72440636 2036503
-0.16670898 0.072093107 0.72440636 2627356
-0.15958804 0.072093107 0.72440636 2759710
-0.15246709 0.072093107 0.72440636 2496538
-0.14534613 0.072093107 0.72440636 2430745
-0.1382252 0.072093107 0.72440636 1180938
-0.13348795 0.073403895 0.73757738 722188
-0.12857528 0.074763231 0.75123626 721675
-0.11898712 0.073403895 0.73757738 655882
-0.1097414 0.072093107 0.72440636 721675
-0.10262046 0.072093107 0.72440636 721675
-0.093824089 0.070828319 0.71169752 852489
-0.086828068 0.070828319 0.71169752 721673
-0.079832047 0.070828319 0.71169752 984077
-0.074136674 0.072093107 0.72440636 852489
-0.069497794 0.074763231 0.75123626 852489
-0.062113106 0.074763231 0.75123626 918023
-0.05277383 0.072093107 0.72440636 721416
-0.044851959 0.070828319 0.71169752 786698
-0.037203249 0.069607139 0.69942683 720904
-0.030327851 0.069607139 0.69942683 655367
-0.023452453 0.069607139 0.69942683 721417
-0.016867884 0.070828319 0.71169752 786696
-0.0097016599 0.069607139 0.69942683 918282
-0.0028262627 0.069607139 0.69942683 983305
0.004120172 0.070828319 0.71169752 983305
0.011314694 0.072093107 0.72440636 1049352
0.019118443 0.074763231 0.75123626 1115145
0 0 0 1246474
0 0 0 1378317
0 0 0 1443852
0 0 0 1378059
0 0 0 1509645
0 0 0 1443853
0 0 0 1378317
0 0 0 1575438
0 0 0 4267548
0 0 0 4596252
0 0 0 5384736
0 0 0 6371113
0.69071621 0.44857937 4.5074177 6963502
0.82690233 0.50465178 5.0708447 7488045
0.87674892 0.50465178 5.0708447 7816236
1.482553 0.8074429 8.1133518 7816238
1.3019229 0.67286903 6.761126 7882029
0.91225678 0.44857937 4.5074177 8276784
0.57393891 0.2691476 2.7044504 8078635
0.60052377 0.2691476 2.7044504 7948338
0.58791435 0.25232589 2.5354223 7817267
0.61283767 0.25232589 2.5354223 7750191
0.637761 0.25232589 2.5354223 7225390
0.70686322 0.2691476 2.7044504 7224877
0.73344809 0.2691476 2.7044504 8605491
0.76003295 0.2691476 2.7044504 5318936
0.90763605 0.31055495 3.1205199 1049609
0.93831086 0.31055495 3.1205199 655880
0.54768759 0.17553104 1.763772 655880
0.49983031 0.15527748 1.5602599 852489
0.47837001 0.14418621 1.4488127 1510160
0.55172533 0.16148856 1.6226703 1837583
0.56767625 0.16148856 1.6226703 1640973
0.58362716 0.16148856 1.6226703 1772303
0.59957808 0.16148856 1.6226703 1641229
0.64117604 0.16821726 1.6902815 1444109
0.71759081 0.18350974 1.8439435 1443852
0.73571688 0.18350974 1.8439435 1312524
0.75384295 0.18350974 1.8439435 1180938
0.77196896 0.18350974 1.8439435 721673
0.9148469 0.21248496 2.1350925 918282
0.98782581 0.22428969 2.2537088 918282
1.0693904 0.23748319 2.3862798 918283
1.0928476 0.23748319 2.3862798 918282
0.82509488 0.17553104 1.763772 655882
0.84243286 0.17553104 1.763772 590089
0.79098916 0.16148856 1.6226703 1049611
0.84056258 0.16821726 1.6902815 2891294
0.89444673 0.17553104 1.763772 2824730
0.95322943 0.18350974 1.8439435 2692634
1.0176105 0.19224828 1.9317503 2495512
1.0365998 0.19224828 1.9317503 1838354
1.1083684 0.20186073 2.028338 1246475
1.2536745 0.22428969 2.2537088 852490
1.2086797 0.21248496 2.1350925 918540
1.2296677 0.21248496 2.1350925 786698
1.2506558 0.21248496 2.1350925 1574923
1.2716439 0.21248496 2.1350925 6765872
1.2926319 0.21248496 2.1350925 6504245
1.31362 0.21248496 2.1350925 6439737
1.334608 0.21248496 2.1350925 7424574
1.2878163 0.20186073 2.028338 7294274
1.307755 0.20186073 2.028338 6965311
1.3276936 0.20186073 2.028338 6505530
1.3476323 0.20186073 2.028338 6503997
1.3675709 0.20186073 2.028338 3414042
1.3214376 0.19224828 1.9317503 3085850
1.4074482 0.20186073 2.028338 786698
1.4273869 0.20186073 2.028338 655626
1.4473255 0.20186073 2.028338 590089
1.4672642 0.20186073 2.028338 590089
1.4163835 0.19224828 1.9317503 721417
1.4353727 0.19224828 1.9317503 590087
1.4543619 0.19224828 1.9317503 786439
1.4733511 0.19224828 1.9317503 786698
1.5669575 0.20186073 2.028338 918284
1.5113295 0.19224828 1.9317503 2824733
1.5303187 0.19224828 1.9317503 6372910
1.5493079 0.19224828 1.9317503 6569778
1.568297 0.19224828 1.9317503 7490617
1.5872862 0.19224828 1.9317503 7819321
1.533263 0.18350974 1.8439435 7359288
1.551389 0.18350974 1.8439435 6765874
1.5695151 0.18350974 1.8439435 3284251
1.6632431 0.19224828 1.9317503 918029
1.6822323 0.19224828 1.9317503 786697
1.7862827 0.20186073 2.028338 852489
1.7202107 0.19224828 1.9317503 721417
1.7391998 0.19224828 1.9317503 721416
1.758189 0.19224828 1.9317503 786696
2.0733747 0.22428969 2.2537088 786696
2.2187951 0.23748319 2.3862798 918282
2.2422523 0.23748319 2.3862798 852489
1.8341458 0.19224828 1.9317503 787209
1.6919928 0.17553104 1.763772 918282
1.5725844 0.16148856 1.6226703 918282
1.5885353 0.16148856 1.6226703 984076
1.5427752 0.15527748 1.5602599 918284
1.6879553 0.16821726 1.6902815 786696
1.7045708 0.16821726 1.6902815 918282
1.7211864 0.16821726 1.6902815 852489
1.7378019 0.16821726 1.6902815 852489
1.7544174 0.16821726 1.6902815 1114891
1.7710329 0.16821726 1.6902815 1246731
1.7876486 0.16821726 1.6902815 6503987
1.8827103 0.17553104 1.763772 7885114
1.9000483 0.17553104 1.763772 7096128
2.0045402 0.18350974 1.8439435 1707283
1.9347242 0.17553104 1.763772 2822664
1.9520621 0.17553104 1.763772 8280383
1.9694002 0.17553104 1.763772 7951677
2.1759512 0.19224828 1.9317503 7754045
2.3046875 0.20186073 2.028338 7621690
2.3246262 0.20186073 2.028338 7358261
2.2329187 0.19224828 1.9317503 7424054
2.3645036 0.20186073 2.028338 7818812
2.3844423 0.20186073 2.028338 7885627
2.4043808 0.20186073 2.028338 8607297
2.4243195 0.20186073 2.028338 8082752
2.7158425 0.22428969 2.2537088 8147006
2.899055 0.23748319 2.3862798 8278590
3.8217468 0.31055495 3.1205199 8410689
0 0 0 8344897
0 0 0 8542531
0 0 0 8739908
0 0 0 8410944
0 0 0 8410946
0 0 0 8345154
0 0 0 8476740
0 0 0 3676429
0 0 0 1050119
-3.7242663 0.3412298 3.1205199 1246477
-3.6935916 0.3412298 3.1205199 1378830
-3.9681594 0.36966559 3.380563 2758423
-3.9349284 0.36966559 3.380563 3349015
-4.2563972 0.40327156 3.687887 3480085
-4.2201452 0.40327156 3.687887 3545878
-4.6022825 0.44359875 4.0566759 3283222
-5.0693393 0.4928875 4.5074177 3545878
-5.0250311 0.4928875 4.5074177 3414040
-4.4826508 0.44359875 4.0566759 3086874
-4.4427733 0.44359875 4.0566759 3151895
-4.8921065 0.4928875 4.5074177 3348245
-4.8477983 0.4928875 4.5074177 3414038
-4.8034906 0.4928875 4.5074177 3348500
-4.7591825 0.4928875 4.5074177 3348757
-4.2433867 0.44359875 4.0566759 3282708
-4.2035093 0.44359875 4.0566759 3150865
-4.6262579 0.4928875 4.5074177 2757393
-4.5819497 0.4928875 4.5074177 1903630
-5.104847 0.55449843 5.0708447 983816
-4.4933338 0.4928875 4.5074177 1115402
-4.4490256 0.4928875 4.5074177 1115915
-4.955307 0.55449843 5.0708447 787720
-4.9054604 0.55449843 5.0708447 918536
-4.8556137 0.55449843 5.0708447 918282
-4.2717929 0.4928875 4.5074177 918282
-4.7559204 0.55449843 5.0708447 1049098
-4.7060738 0.55449843 5.0708447 1049868
-5.3214021 0.63371247 5.7952509 1049868
-4.0945606 0.4928875 4.5074177 1114890
-4.0502524 0.4928875 4.5074177 1115658
-4.0059443 0.4928875 4.5074177 984072
-3.9616363 0.4928875 4.5074177 984072
-3.9173281 0.4928875 4.5074177 918536
-3.8730199 0.4928875 4.5074177 1049352
-3.8287117 0.4928875 4.5074177 918282
-3.7844038 0.4928875 4.5074177 1114891
-3.366086 0.44359875 4.0566759 983562
-3.3262088 0.44359875 4.0566759 786696
-3.2863314 0.44359875 4.0566759 786696
-3.2464542 0.44359875 4.0566759 655880
-3.2065768 0.44359875 4.0566759 721160
-3.1666996 0.44359875 4.0566759 1049609
-3.1268222 0.44359875 4.0566759 1049352
-3.0869448 0.44359875 4.0566759 983559
-3.0470676 0.44359875 4.0566759 655882
-3.3413227 0.4928875 4.5074177 787209
-3.2970145 0.4928875 4.5074177 787208
-3.2527063 0.4928875 4.5074177 918280
-3.2083981 0.4928875 4.5074177 786954
-3.1640902 0.4928875 4.5074177 1049352
-3.119782 0.4928875 4.5074177 787209
-3.0754738 0.4928875 4.5074177 918536
-3.0311658 0.4928875 4.5074177 918281
-2.9868577 0.4928875 4.5074177 984329
-2.9425495 0.4928875 4.5074177 918536
-2.8982413 0.4928875 4.5074177 984329
-2.8539333 0.4928875 4.5074177 1246477
-2.8096251 0.4928875 4.5074177 984075
-2.765317 0.4928875 4.5074177 984845
-2.721009 0.4928875 4.5074177 2888980
-3.0112882 0.55449843 5.0708447 3482399
-2.9614415 0.55449843 5.0708447 7489077
-2.9115949 0.55449843 5.0708447 7884085
-3.2705696 0.63371247 5.7952509 8475448
-3.2136018 0.63371247 5.7952509 8934713
-2.7620552 0.55449843 5.0708447 9001276
-2.7122085 0.55449843 5.0708447 8607033
-2.6623619 0.55449843 5.0708447 7029291
-2.6125152 0.55449843 5.0708447 8212537
-2.5626686 0.55449843 5.0708447 9001023
-2.5128219 0.55449843 5.0708447 8145971
-3.283967 0.73933119 6.761126 7161134
0 0 0 6831914
0 0 0 5716264
0 0 0 1246477
0 0 0 1246477
-0.4319497 0.10819481 0.98943311 853259
-0.39343554 0.10081789 0.92197174 852489
-0.40267596 0.10561875 0.96587515 721675
-0.35135356 0.094382703 0.86312246 786698
-0.31597736 0.086980142 0.79542661 655624
-0.30815828 0.086980142 0.79542661 655880
-0.29456344 0.085307449 0.78012997 590602
-0.28689474 0.085307449 0.78012997 984075
-0.27922603 0.085307449 0.78012997 918282
-0.27688196 0.086980142 0.79542661 918283
-0.27444413 0.088719748 0.81133515 918794
-0.25621989 0.085307449 0.78012997 983562
-0.24855117 0.085307449 0.78012997 787468
-0.2363375 0.08369787 0.76541048 852748
-0.22881347 0.08369787 0.76541048 984075
-0.21719152 0.082147911 0.75123626 720905
-0.20980683 0.082147911 0.75123626 721673
-0.20242214 0.082147911 0.75123626 1049870
-0.19149131 0.080654308 0.73757738 2167575
-0.18424089 0.080654308 0.73757738 2431261
-0.17382993 0.079214059 0.72440636 2562590
-0.16670898 0.079214059 0.72440636 2431002
-0.15958804 0.079214059 0.72440636 2495770
-0.15246709 0.079214059 0.72440636 2364955
-0.14534613 0.079214059 0.72440636 2693147
-0.1382252 0.079214059 0.72440636 1444880
-0.13348795 0.080654308 0.73757738 786698
-0.1239833 0.079214059 0.72440636 918282
-0.11481214 0.077824339 0.71169752 655882
-0.10781612 0.077824339 0.71169752 786696
-0.10082011 0.077824339 0.71169752 787468
-0.093824089 0.077824339 0.71169752 721675
-0.086828068 0.077824339 0.71169752 721673
-0.078455634 0.076482534 0.69942683 852489
-0.071580231 0.076482534 0.69942683 721675
-0.064704835 0.076482534 0.69942683 590089
-0.058843996 0.077824339 0.71169752 720905
-0.050954044 0.076482534 0.69942683 590089
-0.044078644 0.076482534 0.69942683 655625
-0.037203249 0.076482534 0.69942683 720904
-0.030327851 0.076482534 0.69942683 786438
-0.023054956 0.07518623 0.68757218 852490
-0.016296091 0.07518623 0.68757218 852489
-0.0097016599 0.076482534 0.69942683 787466
-0.0028262627 0.076482534 0.69942683 983562
0.004120172 0.077824339 0.71169752 1114891
0.011314694 0.079214059 0.72440636 918282
0.01843564 0.079214059 0.72440636 1180427
0.027003186 0.08369787 0.76541048 1312524
0 0 0 984329
0 0 0 984329
0 0 0 1246474
0 0 0 1246731
0 0 0 1443852
0 0 0 1378316
0 0 0 1378317
0 0 0 5780262
0 0 0 6304804
0 0 0 6764584
0 0 0 7159594
0.69071621 0.4928875 4.5074177 7356203
0.73502433 0.4928875 4.5074177 7488043
0.77933246 0.4928875 4.5074177 7619114
0.82364053 0.4928875 4.5074177 7685163
0.86794865 0.4928875 4.5074177 7882027
0.74639189 0.40327156 3.687887 8210737
0.57393891 0.29573247 2.7044504 8472881
0.60052377 0.29573247 2.7044504 8671543
0.62710863 0.29573247 2.7044504 8998707
0.61283767 0.27724922 2.5354223 9261879
0.68027836 0.29573247 2.7044504 9065270
0.70686322 0.29573247 2.7044504 9130040
0.73344809 0.29573247 2.7044504 8868407
0.71253097 0.27724922 2.5354223 1837065
0.65551496 0.24644375 2.2537088 1114890
0.87128866 0.31685624 2.8976254 852489
0.50387257 0.1774395 1.6226703 852746
0.44812369 0.15296507 1.3988537 786696
0.46187449 0.15296507 1.3988537 983816
0.49261189 0.15842812 1.4488127 983560
0.56767625 0.1774395 1.6226703 852746
0.58362716 0.1774395 1.6226703 852743
0.59957808 0.1774395 1.6226703 918280
0.64117604 0.1848328 1.6902815 1114888
0.68639123 0.19286901 1.763772 918282
0.73571688 0.20163578 1.8439435 787209
0.75384295 0.20163578 1.8439435 786696
0.89385885 0.23347302 2.1350925 655880
0.9148469 0.23347302 2.1350925 786696
0.80822104 0.20163578 1.8439435 852745
0.75748485 0.1848328 1.6902815 852489
0.77410042 0.1848328 1.6902815 984075
0.75908732 0.1774395 1.6226703 786952
0.77503824 0.1774395 1.6226703 590089
0.79098916 0.1774395 1.6226703 1312783
0.80694008 0.1774395 1.6226703 4071964
0.822891 0.1774395 1.6226703 4072219
0.91178471 0.19286901 1.763772 4071708
0.9713555 0.20163578 1.8439435 4071965
1.0365998 0.21123749 1.9317503 2100751
1.1083684 0.22179937 2.028338 2363927
1.1876916 0.23347302 2.1350925 2167061
1.2086797 0.23347302 2.1350925 2955803
1.2296677 0.23347302 2.1350925 2955034
1.2506558 0.23347302 2.1350925 2297616
1.2716439 0.23347302 2.1350925 3612439
1.2926319 0.23347302 2.1350925 3940121
1.31362 0.23347302 2.1350925 4203041
1.2678777 0.22179937 2.028338 4398871
1.2878163 0.22179937 2.028338 4530972
1.307755 0.22179937 2.028338 4268316
1.3276936 0.22179937 2.028338 4532512
1.3476323 0.22179937 2.028338 4729891
1.3675709 0.22179937 2.028338 2822931
1.3875096 0.22179937 2.028338 2691347
1.4074482 0.22179937 2.028338 1508877
1.4273869 0.22179937 2.028338 1444112
1.4473255 0.22179937 2.028338 1575952
1.4672642 0.22179937 2.028338 1444623
1.4872029 0.22179937 2.028338 1313039
1.5071415 0.22179937 2.028338 1050892
1.5270802 0.22179937 2.028338 1050638
1.4733511 0.21123749 1.9317503 1050125
1.5669575 0.22179937 2.028338 1180684
1.5113295 0.21123749 1.9317503 2430747
1.5303187 0.21123749 1.9317503 5650733
1.4788848 0.20163578 1.8439435 6703931
1.4970108 0.20163578 1.8439435 5847344
1.5872862 0.21123749 1.9317503 6241074
1.533263 0.20163578 1.8439435 6437679
1.551389 0.20163578 1.8439435 6176822
1.5695151 0.20163578 1.8439435 3744290
1.5876411 0.20163578 1.8439435 983822
1.6057671 0.20163578 1.8439435 852491
1.7012215 0.21123749 1.9317503 786954
1.7202107 0.21123749 1.9317503 655880
1.7391998 0.21123749 1.9317503 721673
1.6782713 0.20163578 1.8439435 918282
1.6963974 0.20163578 1.8439435 918282
2.0955288 0.24644375 2.2537088 787466
2.1176829 0.24644375 2.2537088 918282
1.8341458 0.21123749 1.9317503 786953
1.6214931 0.1848328 1.6902815 656137
1.5725844 0.1774395 1.6226703 655881
1.5885353 0.1774395 1.6226703 786954
1.6713398 0.1848328 1.6902815 786953
1.6879553 0.1848328 1.6902815 852489
1.7045708 0.1848328 1.6902815 787209
1.7211864 0.1848328 1.6902815 852489
1.6682899 0.1774395 1.6226703 786696
1.6842408 0.1774395 1.6226703 917512
1.7001917 0.1774395 1.6226703 1114891
1.7876486 0.1848328 1.6902815 3806997
1.8827103 0.19286901 1.763772 3875345
1.9000483 0.19286901 1.763772 6897710
1.9173863 0.19286901 1.763772 2953232
1.8541107 0.1848328 1.6902815 3415060
1.8707262 0.1848328 1.6902815 8213050
1.8873417 0.1848328 1.6902815 8804158
2.1759512 0.21123749 1.9317503 8607041
2.1949403 0.21123749 1.9317503 8738629
2.2139297 0.21123749 1.9317503 8081471
2.2329187 0.21123749 1.9317503 7291700
2.2519081 0.21123749 1.9317503 7029812
2.3844423 0.22179937 2.028338 7030324
2.4043808 0.22179937 2.028338 7424309
2.5519152 0.23347302 2.1350925 7555640
2.7158425 0.24644375 2.2537088 7621433
3.080246 0.27724922 2.5354223 7818811
3.8217468 0.3412298 3.1205199 8016188
5.5646091 0.4928875 4.5074177 8345408
0 0 0 8411201
0 0 0 8739394
0 0 0 8672578
0 0 0 8870213
0 0 0 8673090
0 0 0 8541505
0 0 0 3873808
0 0 0 1180935
-4.0346217 0.40289667 3.380563 1115661
-4.0013905 0.40289667 3.380563 1180937
-3.9681594 0.40289667 3.380563 2757654
-3.9349284 0.40289667 3.380563 2888723
-4.2563972 0.43952367 3.687887 2888722
-4.2201452 0.43952367 3.687887 2954515
-4.1838932 0.43952367 3.687887 2954516
-4.5624051 0.48347604 4.0566759 2888466
-4.5225282 0.48347604 4.0566759 3019794
-4.4826508 0.48347604 4.0566759 3019537
-4.9364147 0.53719562 4.5074177 3282452
-4.8921065 0.53719562 4.5074177 3151636
-4.8477983 0.53719562 4.5074177 3216659
-4.8034906 0.53719562 4.5074177 3216659
-4.2832642 0.48347604 4.0566759 3216659
-4.2433867 0.48347604 4.0566759 3282452
-4.6705661 0.53719562 4.5074177 2954259
-4.6262579 0.53719562 4.5074177 2757652
-5.1546931 0.60434502 5.0708447 2100752
-5.8341103 0.69068003 5.7952509 983819
-4.4933338 0.53719562 4.5074177 787210
-5.0051537 0.60434502 5.0708447 984329
-4.955307 0.60434502 5.0708447 918792
-4.9054604 0.60434502 5.0708447 1049098
-4.8556137 0.60434502 5.0708447 984075
-4.8057671 0.60434502 5.0708447 1246731
-4.7559204 0.60434502 5.0708447 1049868
-4.7060738 0.60434502 5.0708447 853259
-4.6562271 0.60434502 5.0708447 1049868
-4.0945606 0.53719562 4.5074177 918282
-4.0502524 0.53719562 4.5074177 852744
-4.0059443 0.53719562 4.5074177 786953
-3.9616363 0.53719562 4.5074177 852489
-3.9173281 0.53719562 4.5074177 918282
-3.485718 0.48347604 4.0566759 984075
-3.8287117 0.53719562 4.5074177 1181197
-3.7844038 0.53719562 4.5074177 1115660
-3.7400956 0.53719562 4.5074177 1049610
-3.3262088 0.48347604 4.0566759 918282
-3.2863314 0.48347604 4.0566759 918282
-3.2464542 0.48347604 4.0566759 918536
-3.2065768 0.48347604 4.0566759 786953
-3.1666996 0.48347604 4.0566759 1246731
-3.1268222 0.48347604 4.0566759 1180680
-3.0869448 0.48347604 4.0566759 918536
-3.0470676 0.48347604 4.0566759 852489
-3.3413227 0.53719562 4.5074177 1115145
-3.2970145 0.53719562 4.5074177 1115144
-3.2527063 0.53719562 4.5074177 1180938
-3.2083981 0.53719562 4.5074177 983818
-3.1640902 0.53719562 4.5074177 1378318
-3.119782 0.53719562 4.5074177 1575438
-3.0754738 0.53719562 4.5074177 1378574
-3.0311658 0.53719562 4.5074177 1247244
-2.9868577 0.53719562 4.5074177 1379087
-2.9425495 0.53719562 4.5074177 1313295
-2.8982413 0.53719562 4.5074177 1378833
-2.8539333 0.53719562 4.5074177 1378317
-2.8096251 0.53719562 4.5074177 1444109
-2.765317 0.53719562 4.5074177 1115915
-2.721009 0.53719562 4.5074177 2166805
-3.0112882 0.60434502 5.0708447 4662561
-2.9614415 0.60434502 5.0708447 6569517
-2.9115949 0.60434502 5.0708447 6699558
-3.2705696 0.69068003 5.7952509 6107937
-3.2136018 0.69068003 5.7952509 5778974
-3.1566343 0.69068003 5.7952509 5318938
-3.0996668 0.69068003 5.7952509 4267540
-2.6623619 0.60434502 5.0708447 3544590
-2.6125152 0.60434502 5.0708447 4465692
-2.5626686 0.60434502 5.0708447 7096120
-2.8717964 0.69068003 5.7952509 8344125
0 0 0 8277816
0 0 0 8080694
0 0 0 5714715
0 0 0 1049868
0 0 0 984075
-0.39355415 0.10743912 0.90148348 918282
-0.38469252 0.10743912 0.90148348 852489
-0.36766067 0.10510349 0.88188601 786696
-0.34403369 0.10072417 0.84514076 720905
-0.30990088 0.09297616 0.78012997 589832
-0.30223218 0.09297616 0.78012997 786698
-0.28900564 0.091221891 0.76541048 655880
-0.28689474 0.09297616 0.78012997 984076
-0.27922603 0.09297616 0.78012997 984075
-0.27688196 0.094799221 0.79542661 984075
-0.2638886 0.09297616 0.78012997 984075
-0.25621989 0.09297616 0.78012997 853004
-0.24855117 0.09297616 0.78012997 918282
-0.2363375 0.091221891 0.76541048 918284
-0.22881347 0.091221891 0.76541048 852232
-0.21719152 0.089532599 0.75123626 655880
-0.20599215 0.087904729 0.73757738 852491
-0.20242214 0.089532599 0.75123626 786698
-0.19149131 0.087904729 0.73757738 1640978
-0.18424089 0.087904729 0.73757738 2234139
-0.17382993 0.086335003 0.72440636 2430747
-0.16670898 0.086335003 0.72440636 1838869
-0.15678826 0.08482036 0.71169752 2693404
-0.14979224 0.08482036 0.71169752 2496540
-0.14279622 0.08482036 0.71169752 2168603
-0.1358002 0.08482036 0.71169752 590089
-0.13110425 0.086335003 0.72440636 655882
-0.12180816 0.08482036 0.71169752 852489
-0.11481214 0.08482036 0.71169752 655880
-0.10781612 0.08482036 0.71169752 918282
-0.099081822 0.08335793 0.69942683 918282
-0.092206426 0.08335793 0.69942683 918284
-0.08533103 0.08335793 0.69942683 786696
-0.078455634 0.08335793 0.69942683 786696
-0.071580231 0.08335793 0.69942683 721673
-0.064704835 0.08335793 0.69942683 655368
-0.05782944 0.08335793 0.69942683 655625
-0.050090417 0.081945091 0.68757218 852491
-0.043331552 0.081945091 0.68757218 786696
-0.036572687 0.081945091 0.68757218 786696
-0.029316923 0.080579333 0.67611259 786696
-0.022670705 0.080579333 0.67611259 786698
-0.016296091 0.081945091 0.68757218 918283
-0.0097016599 0.08335793 0.69942683 918282
-0.0028262627 0.08335793 0.69942683 984075
0.0040491344 0.08335793 0.69942683 1114891
0.011116191 0.08482036 0.71169752 1049098
0.01843564 0.086335003 0.72440636 1049352
0.027003186 0.091221891 0.76541048 1180684
0 0 0 1246474
0 0 0 1180681
0 0 0 1180938
0 0 0 1378060
0 0 0 1180938
0 0 0 1180937
0 0 0 1246731
0 0 0 4334879
0 0 0 4990746
0 0 0 5646621
0 0 0 6435362
0.77705568 0.60434502 5.0708447 6961191
0.82690233 0.60434502 5.0708447 7225130
0.77933246 0.53719562 4.5074177 7685164
0.82364053 0.53719562 4.5074177 7882031
0.7811538 0.48347604 4.0566759 8210994
0.68419254 0.40289667 3.380563 8341809
0.57393891 0.32231733 2.7044504 8538930
0.60052377 0.32231733 2.7044504 8868151
0.62710863 0.32231733 2.7044504 8999223
0.6536935 0.32231733 2.7044504 8933943
0.637761 0.30217251 2.5354223 8604465
0.66268432 0.30217251 2.5354223 8801328
0.64716011 0.28439766 2.3862798 8078122
0.63336086 0.26859781 2.2537088 1311497
0.62101412 0.25446108 2.1350925 983560
0.53034961 0.21020697 1.763772 852489
0.48449287 0.18595232 1.5602599 918281
0.44812369 0.16671586 1.3988537 918025
0.46187449 0.16671586 1.3988537 918024
0.47562528 0.16671586 1.3988537 1049352
0.56767625 0.19339041 1.6226703 787209
0.58362716 0.19339041 1.6226703 918025
0.62456053 0.20144834 1.6902815 852489
0.64117604 0.20144834 1.6902815 918282
0.68639123 0.21020697 1.763772 918282
0.67440712 0.20144834 1.6902815 983818
0.75384295 0.21976183 1.8439435 852489
0.80872941 0.23022668 1.9317503 852491
0.79009503 0.21976183 1.8439435 852489
0.71123457 0.19339041 1.6226703 1115403
0.69921684 0.18595232 1.5602599 1640974
0.71455425 0.18595232 1.5602599 1705741
0.72989166 0.18595232 1.5602599 786696
0.77503824 0.19339041 1.6226703 589831
0.79098916 0.19339041 1.6226703 2167575
0.77590394 0.18595232 1.5602599 4268058
0.79124135 0.18595232 1.5602599 4070936
0.83884192 0.19339041 1.6226703 4070937
0.92912263 0.21020697 1.763772 3808538
1.0365998 0.23022668 1.9317503 3152409
1.0555888 0.23022668 1.9317503 2035730
1.1283071 0.24173802 2.028338 2034702
1.2086797 0.25446108 2.1350925 2034703
1.2296677 0.25446108 2.1350925 1968911
1.2506558 0.25446108 2.1350925 1771529
1.2716439 0.25446108 2.1350925 2297358
1.2926319 0.25446108 2.1350925 3479831
1.31362 0.25446108 2.1350925 3676951
1.2678777 0.24173802 2.028338 3743003
1.2878163 0.24173802 2.028338 3676951
1.307755 0.24173802 2.028338 3742743
1.3276936 0.24173802 2.028338 3939609
1.3476323 0.24173802 2.028338 3742742
1.3675709 0.24173802 2.028338 2560017
1.3875096 0.24173802 2.028338 2428689
1.4074482 0.24173802 2.028338 2034962
1.4273869 0.24173802 2.028338 1904146
1.4473255 0.24173802 2.028338 2232081
1.4672642 0.24173802 2.028338 2362897
1.4872029 0.24173802 2.028338 2626323
1.5071415 0.24173802 2.028338 2888725
1.5270802 0.24173802 2.028338 2691862
1.4733511 0.23022668 1.9317503 2757654
1.4923403 0.23022668 1.9317503 2627606
1.5113295 0.23022668 1.9317503 2954774
1.4607588 0.21976183 1.8439435 4662818
1.4788848 0.21976183 1.8439435 4399130
1.4970108 0.21976183 1.8439435 4466979
1.515137 0.21976183 1.8439435 5649451
1.533263 0.21976183 1.8439435 5517097
1.551389 0.21976183 1.8439435 4333599
1.5695151 0.21976183 1.8439435 2560278
1.5876411 0.21976183 1.8439435 1575442
1.5359511 0.21020697 1.763772 1313294
1.6238931 0.21976183 1.8439435 1575696
1.6420193 0.21976183 1.8439435 1904658
1.6601453 0.21976183 1.8439435 2035989
1.6782713 0.21976183 1.8439435 1970196
1.622641 0.21020697 1.763772 1772818
1.6399789 0.21020697 1.763772 1641489
1.588262 0.20144834 1.6902815 1640975
1.6048776 0.20144834 1.6902815 1378318
1.5566334 0.19339041 1.6226703 1181453
1.5725844 0.19339041 1.6226703 918798
1.5885353 0.19339041 1.6226703 853007
1.6713398 0.20144834 1.6902815 853261
1.6879553 0.20144834 1.6902815 918539
1.7045708 0.20144834 1.6902815 984075
1.7211864 0.20144834 1.6902815 852489
1.7378019 0.20144834 1.6902815 1049868
1.6842408 0.19339041 1.6226703 786696
1.7001917 0.19339041 1.6226703 917766
1.7876486 0.20144834 1.6902815 2889495
1.8827103 0.21020697 1.763772 2953999
1.9000483 0.21020697 1.763772 5781804
1.9173863 0.21020697 1.763772 6110770
1.8541107 0.20144834 1.6902815 6110766
1.9520621 0.21020697 1.763772 6307371
1.9694002 0.21020697 1.763772 6240297
2.0770445 0.21976183 1.8439435 6239530
2.1949403 0.23022668 1.9317503 6108200
2.2139297 0.23022668 1.9317503 5977128
2.2329187 0.23022668 1.9317503 5846315
2.2519081 0.23022668 1.9317503 5978155
2.2708972 0.23022668 1.9317503 6503983
2.4043808 0.24173802 2.028338 6832689
2.4243195 0.24173802 2.028338 7292727
2.7158425 0.26859781 2.2537088 7227705
2.899055 0.28439766 2.3862798 7425340
3.8217468 0.37190464 3.1205199 7425337
5.5646091 0.53719562 4.5074177 7754302
0 0 0 8148032
0 0 0 8672579
0 0 0 8476483
0 0 0 8410947
0 0 0 8345154
0 0 0 8475457
0 0 0 3808012
0 0 0 1312003
-4.0346217 0.43612778 3.380563 1180938
-4.0013905 0.43612778 3.380563 1247501
-3.9681594 0.43612778 3.380563 2954521
-3.9349284 0.43612778 3.380563 3020053
-4.2563972 0.47577575 3.687887 2954515
-4.2201452 0.47577575 3.687887 3020307
-4.1838932 0.47577575 3.687887 3020052
-4.5624051 0.52335334 4.0566759 3020052
-4.5225282 0.52335334 4.0566759 3085843
-4.9807229 0.58150375 4.5074177 3348247
-4.9364147 0.58150375 4.5074177 3282452
-4.8921065 0.58150375 4.5074177 3151637
-4.8477983 0.58150375 4.5074177 3217430
-4.8034906 0.58150375 4.5074177 3216916
-4.7591825 0.58150375 4.5074177 3020050
-4.7148743 0.58150375 4.5074177 3348245
-4.6705661 0.58150375 4.5074177 3020050
-4.6262579 0.58150375 4.5074177 2954516
-5.1546931 0.65419167 5.0708447 2691091
-5.8341103 0.74764758 5.7952509 721931
-5.0550003 0.65419167 5.0708447 721675
-5.0051537 0.65419167 5.0708447 1050122
-4.955307 0.65419167 5.0708447 1050122
-4.9054604 0.65419167 5.0708447 918282
-4.8556137 0.65419167 5.0708447 918282
-4.2717929 0.58150375 4.5074177 1049353
-4.2274847 0.58150375 4.5074177 721674
-4.183177 0.58150375 4.5074177 721674
-4.1388688 0.58150375 4.5074177 721675
-4.0945606 0.58150375 4.5074177 720903
-4.0502524 0.58150375 4.5074177 852231
-4.0059443 0.58150375 4.5074177 1115146
-3.5654726 0.52335334 4.0566759 1180938
-3.2050865 0.47577575 3.687887 984075
-3.1688342 0.47577575 3.687887 1049868
-3.4458406 0.52335334 4.0566759 1115145
-3.7844038 0.58150375 4.5074177 1246987
-3.366086 0.52335334 4.0566759 1181453
-3.3262088 0.52335334 4.0566759 1181451
-3.2863314 0.52335334 4.0566759 918281
-3.2464542 0.52335334 4.0566759 1050124
-3.2065768 0.52335334 4.0566759 1246988
-3.1666996 0.52335334 4.0566759 1575439
-3.1268222 0.52335334 4.0566759 1444109
-3.0869448 0.52335334 4.0566759 1312524
-3.3856306 0.58150375 4.5074177 1115145
-3.3413227 0.58150375 4.5074177 1180938
-3.709141 0.65419167 5.0708447 1049354
-3.6592944 0.65419167 5.0708447 721159
-3.2083981 0.58150375 4.5074177 786698
-3.1640902 0.58150375 4.5074177 918539
-3.119782 0.58150375 4.5074177 1444110
-3.0754738 0.58150375 4.5074177 1444110
-3.0311658 0.58150375 4.5074177 1313037
-3.3602147 0.65419167 5.0708447 1247501
-3.3103681 0.65419167 5.0708447 1115916
-3.2605214 0.65419167 5.0708447 1246477
-3.2106748 0.65419167 5.0708447 984075
-3.1608281 0.65419167 5.0708447 1115661
-3.1109815 0.65419167 5.0708447 655880
-3.0611348 0.65419167 5.0708447 1115661
-3.0112882 0.65419167 5.0708447 1771788
-2.9614415 0.65419167 5.0708447 2625294
-2.9115949 0.65419167 5.0708447 3084817
-3.2705696 0.74764758 5.7952509 3282452
-3.2136018 0.74764758 5.7952509 3413779
-3.1566343 0.74764758 5.7952509 3348244
-2.7122085 0.65419167 5.0708447 3282965
-2.6623619 0.65419167 5.0708447 3413782
-2.6125152 0.65419167 5.0708447 3216917
-2.5626686 0.65419167 5.0708447 3479574
-2.5128219 0.65419167 5.0708447 3676180
-2.8148289 0.74764758 5.7952509 5451042
0 0 0 7490099
0 0 0 1967878
0 0 0 984075
0 0 0 984075
-0.39355415 0.11630074 0.90148348 787209
-0.37632966 0.11377246 0.88188601 786696
-0.35234147 0.10903195 0.84514076 655882
-0.31756958 0.10064487 0.78012997 721673
-0.30990088 0.10064487 0.78012997 720904
-0.29652965 0.098745905 0.76541048 655882
-0.28900564 0.098745905 0.76541048 852489
-0.28148162 0.098745905 0.76541048 853004
-0.27395758 0.098745905 0.76541048 918539
-0.2715573 0.10064487 0.78012997 1049868
-0.2638886 0.10064487 0.78012997 983819
-0.25621989 0.10064487 0.78012997 852746
-0.24386151 0.098745905 0.76541048 852489
-0.2363375 0.098745905 0.76541048 787466
-0.22457621 0.096917287 0.75123626 918282
-0.21719152 0.096917287 0.75123626 655882
-0.20599215 0.09515515 0.73757738 655882
-0.19874173 0.09515515 0.73757738 787213
-0.19149131 0.09515515 0.73757738 2233884
-0.18424089 0.09515515 0.73757738 2234138
-0.17382993 0.093455948 0.72440636 2036248
-0.16670898 0.093455948 0.72440636 2430747
-0.15678826 0.091816381 0.71169752 2233368
-0.14979224 0.091816381 0.71169752 2034963
-0.14279622 0.091816381 0.71169752 1773075
-0.13345881 0.090233333 0.69942683 655628
-0.12658341 0.090233333 0.69942683 721675
-0.11970802 0.090233333 0.69942683 918284
-0.11283262 0.090233333 0.69942683 1378833
-0.10595722 0.090233333 0.69942683 721675
-0.099081822 0.090233333 0.69942683 983305
-0.090643607 0.08870396 0.68757218 787466
-0.083884746 0.08870396 0.68757218 721418
-0.075840443 0.087225549 0.67611259 1050638
-0.069194227 0.087225549 0.67611259 786696
-0.063608147 0.08870396 0.68757218 720905
-0.05782944 0.090233333 0.69942683 655368
-0.050090417 0.08870396 0.68757218 655882
-0.043331552 0.08870396 0.68757218 786696
-0.03596314 0.087225549 0.67611259 786697
-0.029316923 0.087225549 0.67611259 590086
-0.022670705 0.087225549 0.67611259 852490
-0.016296091 0.08870396 0.68757218 1049355
-0.0097016599 0.090233333 0.69942683 1049098
-0.0028262627 0.090233333 0.69942683 984329
0.0040491344 0.090233333 0.69942683 1114891
0.011116191 0.091816381 0.71169752 984075
0.018112209 0.091816381 0.71169752 984329
0.025108228 0.091816381 0.71169752 984075
0 0 0 1115145
0 0 0 1049098
0 0 0 1180681
0 0 0 917766
0 0 0 1049352
0 0 0 1180681
0 0 0 1378059
0 0 0 1903633
0 0 0 2559501
0 0 0 3084047
0 0 0 3611671
0 0 0 5780011
0.94503123 0.74764758 5.7952509 8667440
0.77933246 0.58150375 4.5074177 11028782
0.7412765 0.52335334 4.0566759 11486764
0.65096146 0.43612778 3.380563 11748907
0.63156235 0.40257949 3.1205199 11880234
0.57393891 0.3489022 2.7044504 12143152
0.60052377 0.3489022 2.7044504 12077613
0.62710863 0.3489022 2.7044504 12078381
0.61283767 0.32709584 2.5354223 12012590
0.637761 0.32709584 2.5354223 12012593
0.66268432 0.32709584 2.5354223 11816239
0.61120683 0.29075187 2.2537088 11684400
0.60002607 0.27544913 2.1350925 10700851
0.53633034 0.23788787 1.8439435 10176565
0.55445641 0.23788787 1.8439435 9258548
0.50387257 0.20934133 1.6226703 8799800
0.44812369 0.18046667 1.3988537 7421234
0.44647866 0.1744511 1.3522252 6568240
0.47562528 0.18046667 1.3988537 5386540
0.56767625 0.20934133 1.6226703 4468011
0.58362716 0.20934133 1.6226703 3876647
0.62456053 0.21806389 1.6902815 3218976
0.64117604 0.21806389 1.6902815 3087390
0.68639123 0.22754492 1.763772 2626839
0.73571688 0.23788787 1.8439435 1838609
0.7897402 0.24921587 1.9317503 2232598
0.84916592 0.26167667 2.028338 2101008
0.86910456 0.26167667 2.028338 1443082
0.71123457 0.20934133 1.6226703 2166033
0.67331988 0.19383457 1.5024725 1641231
0.68808925 0.19383457 1.5024725 1312266
0.72989166 0.20128974 1.5602599 786696
0.77503824 0.20934133 1.6226703 786695
0.79098916 0.20934133 1.6226703 3414810
0.77590394 0.20128974 1.5602599 4465435
0.79124135 0.20128974 1.5602599 4464921
0.83884192 0.20934133 1.6226703 4596250
0.85479283 0.20934133 1.6226703 4268570
0.98948157 0.23788787 1.8439435 4596250
1.0555888 0.24921587 1.9317503 4399386
1.074578 0.24921587 1.9317503 4333339
1.1482457 0.26167667 2.028338 3808794
1.1681844 0.26167667 2.028338 2363667
1.188123 0.26167667 2.028338 1509129
1.2716439 0.27544913 2.1350925 1706252
1.2926319 0.27544913 2.1350925 3875359
1.31362 0.27544913 2.1350925 3414292
1.2678777 0.26167667 2.028338 2888720
1.2264916 0.24921587 1.9317503 3216914
1.2454808 0.24921587 1.9317503 3414036
1.26447 0.24921587 1.9317503 3414805
1.3476323 0.26167667 2.028338 3546134
1.3675709 0.26167667 2.028338 3085073
1.3875096 0.26167667 2.028338 2624781
1.4074482 0.26167667 2.028338 2033932
1.4273869 0.26167667 2.028338 2362897
1.4473255 0.26167667 2.028338 2888723
1.4672642 0.26167667 2.028338 3216661
1.4872029 0.26167667 2.028338 3086102
1.5071415 0.26167667 2.028338 3086102
1.5270802 0.26167667 2.028338 2888723
1.4733511 0.24921587 1.9317503 2888723
1.4923403 0.24921587 1.9317503 2954773
1.5113295 0.24921587 1.9317503 3283223
1.4607588 0.23788787 1.8439435 4005661
1.4788848 0.23788787 1.8439435 4071967
1.4970108 0.23788787 1.8439435 3874330
1.4492614 0.22754492 1.763772 4138015
1.533263 0.23788787 1.8439435 4137502
1.551389 0.23788787 1.8439435 4005917
1.5695151 0.23788787 1.8439435 3414810
1.5876411 0.23788787 1.8439435 3282454
1.5359511 0.22754492 1.763772 3282709
1.5532892 0.22754492 1.763772 3348503
1.5706271 0.22754492 1.763772 3282968
1.587965 0.22754492 1.763772 3217688
1.605303 0.22754492 1.763772 3020823
1.5550309 0.21806389 1.6902815 2889238
1.5087806 0.20934133 1.6226703 2890265
1.5247315 0.20934133 1.6226703 3021081
1.5406824 0.20934133 1.6226703 3086872
1.5566334 0.20934133 1.6226703 3152408
1.5121003 0.20128974 1.5602599 3151638
1.5274378 0.20128974 1.5602599 2954773
1.6044862 0.20934133 1.6226703 2889495
1.6879553 0.21806389 1.6902815 2889496
1.6363881 0.20934133 1.6226703 2823960
1.7211864 0.21806389 1.6902815 2758680
1.6682899 0.20934133 1.6226703 2824217
1.7544174 0.21806389 1.6902815 2824475
1.7710329 0.21806389 1.6902815 2956059
1.8653724 0.22754492 1.763772 3745059
1.8827103 0.22754492 1.763772 4007713
1.9000483 0.22754492 1.763772 3152152
1.9173863 0.22754492 1.763772 3086103
1.9347242 0.22754492 1.763772 3349273
1.9520621 0.22754492 1.763772 3941405
1.9694002 0.22754492 1.763772 5322281
2.0770445 0.23788787 1.8439435 6109998
2.0951705 0.23788787 1.8439435 6043694
2.1132965 0.23788787 1.8439435 6437682
2.2329187 0.24921587 1.9317503 6373171
2.2519081 0.24921587 1.9317503 6307121
2.2708972 0.24921587 1.9317503 5846572
2.2898865 0.24921587 1.9317503 5912617
2.4243195 0.26167667 2.028338 6438704
2.5729032 0.27544913 2.1350925 6570290
2.899055 0.30785489 2.3862798 6767668
3.5487647 0.37382379 2.8976254 7162167
5.5646091 0.58150375 4.5074177 7556410
0 0 0 7950396
0 0 0 8082754
0 0 0 8279103
0 0 0 8279359
0 0 0 8279617
0 0 0 8344640
0 0 0 3808012
0 0 0 1246723
-4.0346217 0.46935886 3.380563 1115915
-4.0013905 0.46935886 3.380563 1444110
-3.9681594 0.46935886 3.380563 2888471
-3.9349284 0.46935886 3.380563 3085589
-4.2563972 0.51202786 3.687887 3217173
-4.2201452 0.51202786 3.687887 3282965
-4.6022825 0.56323069 4.0566759 3217429
-4.5624051 0.56323069 4.0566759 3348245
-5.0250311 0.62581187 4.5074177 3479831
-4.9807229 0.62581187 4.5074177 3414038
-4.9364147 0.62581187 4.5074177 3479831
-4.8921065 0.62581187 4.5074177 3349017
-4.8477983 0.62581187 4.5074177 3349017
-4.8034906 0.62581187 4.5074177 3283222
-4.7591825 0.62581187 4.5074177 3283222
-4.7148743 0.62581187 4.5074177 3086100
-4.6705661 0.62581187 4.5074177 3217429
-4.6262579 0.62581187 4.5074177 2823185
-5.1546931 0.70403832 5.0708447 2297617
-5.104847 0.70403832 5.0708447 984845
-5.0550003 0.70403832 5.0708447 918282
-5.0051537 0.70403832 5.0708447 852489
-4.955307 0.70403832 5.0708447 786696
-4.9054604 0.70403832 5.0708447 852489
-4.8556137 0.70403832 5.0708447 918536
-4.2717929 0.62581187 4.5074177 852489
-4.2274847 0.62581187 4.5074177 918282
-3.7648592 0.56323069 4.0566759 984075
-3.3863468 0.51202786 3.687887 853004
-3.6851046 0.56323069 4.0566759 918282
-4.0502524 0.62581187 4.5074177 1181195
-3.60535 0.56323069 4.0566759 1050122
-3.2413385 0.51202786 3.687887 1115915
-3.5255952 0.56323069 4.0566759 1246473
-3.485718 0.56323069 4.0566759 1115915
-3.4458406 0.56323069 4.0566759 1312524
-3.4059634 0.56323069 4.0566759 1180938
-3.366086 0.56323069 4.0566759 1312267
-3.3262088 0.56323069 4.0566759 1180938
-3.2863314 0.56323069 4.0566759 918282
-3.2464542 0.56323069 4.0566759 1049868
-3.2065768 0.56323069 4.0566759 1378318
-3.1666996 0.56323069 4.0566759 1707281
-3.1268222 0.56323069 4.0566759 1838608
-3.0869448 0.56323069 4.0566759 1838351
-3.3856306 0.62581187 4.5074177 917766
-3.3413227 0.62581187 4.5074177 720903
-3.709141 0.70403832 5.0708447 590088
-3.6592944 0.70403832 5.0708447 721159
-3.6094477 0.70403832 5.0708447 720905
-3.1640902 0.62581187 4.5074177 655625
-3.119782 0.62581187 4.5074177 1115915
-3.0754738 0.62581187 4.5074177 1246730
-3.4100614 0.70403832 5.0708447 786696
-3.3602147 0.70403832 5.0708447 721160
-3.3103681 0.70403832 5.0708447 786695
-3.2605214 0.70403832 5.0708447 721416
-3.6693425 0.8046152 5.7952509 721159
-3.612375 0.8046152 5.7952509 590087
-3.5554073 0.8046152 5.7952509 655623
-3.0611348 0.70403832 5.0708447 852489
-3.0112882 0.70403832 5.0708447 1180937
-2.9614415 0.70403832 5.0708447 1443853
-2.9115949 0.70403832 5.0708447 1969167
-2.8617485 0.70403832 5.0708447 2954516
-2.8119018 0.70403832 5.0708447 2954000
-2.7620552 0.70403832 5.0708447 2822673
-2.7122085 0.70403832 5.0708447 2888466
-2.6623619 0.70403832 5.0708447 2691344
-2.6125152 0.70403832 5.0708447 2954259
-2.5626686 0.70403832 5.0708447 3216659
-2.8717964 0.8046152 5.7952509 3479318
-3.283967 0.93871772 6.761126 5452842
0 0 0 5714467
0 0 0 1115916
0 0 0 852489
-0.40241578 0.12516236 0.90148348 918282
-0.38499862 0.12244144 0.88188601 852488
-0.36064926 0.11733972 0.84514076 720903
-0.33824784 0.11264613 0.81133515 721161
-0.31756958 0.10831359 0.78012997 786698
-0.30405366 0.10626993 0.76541048 655369
-0.29103836 0.10430197 0.75123626 655624
-0.28900564 0.10626993 0.76541048 786698
-0.28148162 0.10626993 0.76541048 918284
-0.27395758 0.10626993 0.76541048 984076
-0.26643357 0.10626993 0.76541048 1049612
-0.25890955 0.10626993 0.76541048 918540
-0.25138554 0.10626993 0.76541048 786953
-0.24386151 0.10626993 0.76541048 852489
-0.2363375 0.10626993 0.76541048 852748
-0.22049299 0.10240557 0.73757738 656137
-0.21324256 0.10240557 0.73757738 852489
-0.20231372 0.1005769 0.72440636 655882
-0.19519277 0.1005769 0.72440636 721675
-0.18807182 0.1005769 0.72440636 1051154
-0.18095088 0.1005769 0.72440636 1838871
-0.17382993 0.1005769 0.72440636 2364955
-0.16378428 0.098812394 0.71169752 2299675
-0.15678826 0.098812394 0.71169752 2365468
-0.14979224 0.098812394 0.71169752 2299161
-0.1403342 0.097108729 0.69942683 2299418
-0.13345881 0.097108729 0.69942683 1050122
-0.12658341 0.097108729 0.69942683 919054
-0.11970802 0.097108729 0.69942683 2431521
-0.11283262 0.097108729 0.69942683 2957091
-0.10595722 0.097108729 0.69942683 2167830
-0.099081822 0.097108729 0.69942683 721675
-0.090643607 0.095462821 0.68757218 655880
-0.082486659 0.093871772 0.67611259 1577238
-0.075840443 0.093871772 0.67611259 2693404
-0.069194227 0.093871772 0.67611259 2496027
-0.063608147 0.095462821 0.68757218 851975
-0.05782944 0.097108729 0.69942683 590089
-0.050090417 0.095462821 0.68757218 721419
-0.042609356 0.093871772 0.67611259 786952
-0.03596314 0.093871772 0.67611259 720903
-0.029316923 0.093871772 0.67611259 851976
-0.022670705 0.093871772 0.67611259 918282
-0.016296091 0.095462821 0.68757218 1115661
-0.0097016599 0.097108729 0.69942683 1049098
-0.0028758463 0.098812394 0.71169752 1115145
0.0040491344 0.097108729 0.69942683 1049095
0.011116191 0.098812394 0.71169752 1049098
0.018112209 0.098812394 0.71169752 1114891
0.026021253 0.10240557 0.73757738 1049352
0 0 0 1115145
0 0 0 983305
0 0 0 1049868
0 0 0 852489
0 0 0 984077
0 0 0 1246477
0 0 0 1510419
0 0 0 3613736
0 0 0 7224115
0 0 0 10108722
0 0 0 11289390
0 0 0 11747883
0.94503123 0.8046152 5.7952509 12011305
0.77933246 0.62581187 4.5074177 12404521
0.57021266 0.43325436 3.1205199 12600875
0.60088754 0.43325436 3.1205199 12470058
0.54735404 0.37548709 2.7044504 12142891
0.57393891 0.37548709 2.7044504 12273709
0.60052377 0.37548709 2.7044504 12602926
0.62710863 0.37548709 2.7044504 12601643
0.61283767 0.35201916 2.5354223 12601643
0.60024565 0.33131215 2.3862798 12601902
0.62370288 0.33131215 2.3862798 12340272
0.57903802 0.29643717 2.1350925 12471343
0.57002479 0.28161535 2.028338 12405808
0.53633034 0.25601393 1.8439435 12143150
0.55445641 0.25601393 1.8439435 11946797
0.52486724 0.23467943 1.6902815 11815214
0.54148281 0.23467943 1.6902815 11487019
0.44647866 0.18774354 1.3522252 11421484
0.47562528 0.19421746 1.3988537 11158057
0.54584259 0.21662718 1.5602599 11420715
0.58362716 0.22529225 1.6226703 11485994
0.62456053 0.23467943 1.6902815 11420713
0.64117604 0.23467943 1.6902815 11223851
0.75176179 0.26820505 1.9317503 11159339
0.770751 0.26820505 1.9317503 11028525
0.82922727 0.28161535 2.028338 11290927
0.84916592 0.28161535 2.028338 11224880
0.86910456 0.28161535 2.028338 11028016
0.6585505 0.20860395 1.5024725 10174766
0.67331988 0.20860395 1.5024725 9322544
0.68808925 0.20860395 1.5024725 8075823
0.75908732 0.22529225 1.6226703 6434086
0.77503824 0.22529225 1.6226703 5120801
0.76056653 0.21662718 1.5602599 6565926
0.77590394 0.21662718 1.5602599 5976357
0.822891 0.22529225 1.6226703 5385252
0.83884192 0.22529225 1.6226703 4859422
0.85479283 0.22529225 1.6226703 4925730
0.90702474 0.23467943 1.6902815 4596765
1.0076076 0.25601393 1.8439435 4334363
1.074578 0.26820505 1.9317503 4268570
1.1482457 0.28161535 2.028338 4006168
1.1681844 0.28161535 2.028338 4268316
1.188123 0.28161535 2.028338 4267800
1.2080617 0.28161535 2.028338 4597020
1.2280003 0.28161535 2.028338 4991265
1.1885133 0.26820505 1.9317503 5056799
1.2075025 0.26820505 1.9317503 4991265
1.170742 0.25601393 1.8439435 4859424
1.188868 0.25601393 1.8439435 4793632
1.26447 0.26820505 1.9317503 4859937
1.3476323 0.28161535 2.028338 4794659
1.3675709 0.28161535 2.028338 4136984
1.3875096 0.28161535 2.028338 3874331
1.4074482 0.28161535 2.028338 3677212
1.4273869 0.28161535 2.028338 3939869
1.4473255 0.28161535 2.028338 4137500
1.4672642 0.28161535 2.028338 4005915
1.4872029 0.28161535 2.028338 4071705
1.5071415 0.28161535 2.028338 4005915
1.4543619 0.26820505 1.9317503 4071964
1.4733511 0.26820505 1.9317503 3808795
1.4923403 0.26820505 1.9317503 4005916
1.4426327 0.25601393 1.8439435 4334109
1.4607588 0.25601393 1.8439435 4926500
1.4788848 0.25601393 1.8439435 4991522
1.4970108 0.25601393 1.8439435 4269086
1.4492614 0.24488288 1.763772 4465695
1.4665993 0.24488288 1.763772 4662558
1.4839373 0.24488288 1.763772 4662045
1.5695151 0.25601393 1.8439435 3743001
1.5876411 0.25601393 1.8439435 3480345
1.6057671 0.25601393 1.8439435 3217174
1.5532892 0.24488288 1.763772 3348245
1.5706271 0.24488288 1.763772 3151638
1.587965 0.24488288 1.763772 3217688
1.5384154 0.23467943 1.6902815 3151895
1.4928297 0.22529225 1.6226703 3086102
1.5087806 0.22529225 1.6226703 3020311
1.5247315 0.22529225 1.6226703 3217431
1.5406824 0.22529225 1.6226703 3151638
1.5566334 0.22529225 1.6226703 3151638
1.5121003 0.21662718 1.5602599 3217431
1.5274378 0.21662718 1.5602599 3283224
1.5427752 0.21662718 1.5602599 3283481
1.6204371 0.22529225 1.6226703 3348761
1.6363881 0.22529225 1.6226703 3414296
1.652339 0.22529225 1.6226703 3479831
1.6682899 0.22529225 1.6226703 3414806
1.7544174 0.23467943 1.6902815 3480342
1.7710329 0.23467943 1.6902815 3874583
1.8653724 0.24488288 1.763772 4926241
1.8827103 0.24488288 1.763772 5517605
1.9000483 0.24488288 1.763772 5254691
1.9173863 0.24488288 1.763772 4794914
1.9347242 0.24488288 1.763772 4795172
1.9520621 0.24488288 1.763772 5123881
1.9694002 0.24488288 1.763772 5518382
1.9867381 0.24488288 1.763772 6306091
2.0951705 0.25601393 1.8439435 6108714
2.1132965 0.25601393 1.8439435 5978155
2.1314225 0.25601393 1.8439435 6240813
2.2519081 0.26820505 1.9317503 6306606
2.2708972 0.26820505 1.9317503 6175793
2.2898865 0.26820505 1.9317503 6175795
2.3088756 0.26820505 1.9317503 5715756
2.4442582 0.28161535 2.028338 5913134
2.899055 0.33131215 2.3862798 6175792
3.3121803 0.37548709 2.7044504 6438963
0 0 0 7096632
0 0 0 7424824
0 0 0 7949883
0 0 0 8015418
0 0 0 8344382
0 0 0 8081212
0 0 0 7950400
0 0 0 3742993
0 0 0 1246209
-4.0346217 0.50258994 3.380563 1181454
-4.0013905 0.50258994 3.380563 1444110
-3.9681594 0.50258994 3.380563 2757655
-3.9349284 0.50258994 3.380563 3217431
-4.2563972 0.54827994 3.687887 3217431
-4.6421599 0.60310799 4.0566759 3283223
-4.6022825 0.60310799 4.0566759 3349015
-4.5624051 0.60310799 4.0566759 3283222
-5.0250311 0.67011994 4.5074177 3414808
-4.9807229 0.67011994 4.5074177 3414293
-4.9364147 0.67011994 4.5074177 3545365
-4.8921065 0.67011994 4.5074177 3413781
-4.8477983 0.67011994 4.5074177 3348245
-4.8034906 0.67011994 4.5074177 3151893
-4.7591825 0.67011994 4.5074177 3217429
-4.7148743 0.67011994 4.5074177 3085843
-4.2035093 0.60310799 4.0566759 2757137
-4.1636324 0.60310799 4.0566759 2363151
-4.5819497 0.67011994 4.5074177 1180681
-5.104847 0.75388491 5.0708447 852489
-5.777143 0.86158276 5.7952509 852491
-5.0051537 0.75388491 5.0708447 852491
-4.955307 0.75388491 5.0708447 853003
-4.3604093 0.67011994 4.5074177 918283
-4.3161011 0.67011994 4.5074177 984075
-4.2717929 0.67011994 4.5074177 918282
-4.2274847 0.67011994 4.5074177 984075
-3.7648592 0.60310799 4.0566759 1115145
-3.7249818 0.60310799 4.0566759 1049098
-3.6851046 0.60310799 4.0566759 983819
-3.6452272 0.60310799 4.0566759 918282
-3.60535 0.60310799 4.0566759 1115661
-3.2413385 0.54827994 3.687887 1050122
-3.5255952 0.60310799 4.0566759 1115145
-3.485718 0.60310799 4.0566759 1180683
-3.4458406 0.60310799 4.0566759 1180939
-3.4059634 0.60310799 4.0566759 1312524
-3.0600781 0.54827994 3.687887 1312524
-3.3262088 0.60310799 4.0566759 1180938
-3.2863314 0.60310799 4.0566759 917766
-3.2464542 0.60310799 4.0566759 852491
-3.2065768 0.60310799 4.0566759 1707028
-3.1666996 0.60310799 4.0566759 1970194
-3.474247 0.67011994 4.5074177 1904658
-3.4299388 0.67011994 4.5074177 1969680
-3.3856306 0.67011994 4.5074177 1838608
-3.3413227 0.67011994 4.5074177 1509388
-3.2970145 0.67011994 4.5074177 1378831
-3.6592944 0.75388491 5.0708447 852230
-4.125083 0.86158276 5.7952509 786696
-3.5596011 0.75388491 5.0708447 720903
-3.119782 0.67011994 4.5074177 721673
-3.0754738 0.67011994 4.5074177 852489
-3.4100614 0.75388491 5.0708447 655880
-3.3602147 0.75388491 5.0708447 918284
-3.7832778 0.86158276 5.7952509 918796
-3.72631 0.86158276 5.7952509 1050638
-3.6693425 0.86158276 5.7952509 918538
-3.612375 0.86158276 5.7952509 918025
-3.5554073 0.86158276 5.7952509 1181195
-3.0611348 0.75388491 5.0708447 1707023
-3.0112882 0.75388491 5.0708447 1114889
-2.9614415 0.75388491 5.0708447 1312267
-2.9115949 0.75388491 5.0708447 1772045
-2.8617485 0.75388491 5.0708447 2757139
-2.8119018 0.75388491 5.0708447 3414038
-2.7620552 0.75388491 5.0708447 3348756
-2.7122085 0.75388491 5.0708447 2824985
-2.6623619 0.75388491 5.0708447 3285025
-2.6125152 0.75388491 5.0708447 4138528
-2.5626686 0.75388491 5.0708447 4334624
-3.3504291 1.0051799 6.761126 4729378
-3.283967 1.0051799 6.761126 5123106
0 0 0 2757138
0 0 0 984588
0 0 0 852489
