# .PCD v0.7 - Point Cloud Data file format
VERSION 0.7
FIELDS x y z rgb
SIZE 4 4 4 4
TYPE F F F U
COUNT 1 1 1 1
WIDTH 1241
HEIGHT 1
VIEWPOINT 0 0 0 1 0 0 0
POINTS 1241
DATA ascii
1.7326494 0.78166932 1.8439435 9319204
1.6048776 0.7165302 1.6902815 9515298
2.4322398 1.0747952 2.5354223 9318946
1.5725844 0.68786901 1.6226703 9450274
1.5885353 0.68786901 1.6226703 9449505
1.6044862 0.68786901 1.6226703 9253668
1.8414057 0.78166932 1.8439435 9253924
1.8595318 0.78166932 1.8439435 9188387
1.7211864 0.7165302 1.6902815 9187362
1.7378019 0.7165302 1.6902815 9187875
2.3392234 0.95537364 2.2537088 9516840
0 0 0 9516837
2.0430269 0.81889164 1.9317503 9582119
2.7063961 1.0747952 2.5354223 9516840
3.9728284 1.5633386 3.687887 9713190
6.2999835 2.4566748 5.7952509 9582631
7.4164429 2.8661208 6.761126 9516581
0 0 0 9582374
0 0 0 9713190
1.3439699 0.505786 1.1931399 9517094
1.0243056 0.38214943 0.90148348 9714215
1.0331671 0.38214943 0.90148348 9517864
0 0 0 9583657
0 0 0 9584427
0 0 0 9452842
0 0 0 9584171
0 0 0 9583913
0 0 0 9518377
0 0 0 9452071
0 0 0 7877410
0 0 0 5777949
0 0 0 5581600
0 0 0 5975845
0 0 0 5449504
0 0 0 5186846
0 0 0 4924189
0 0 0 4531488
0 0 0 2166548
0 0 0 2758681
-0.79369611 0.28845078 0.66502881 4533031
-0.80027813 0.29325828 0.67611259 4268571
-0.78062159 0.28845078 0.66502881 3679776
-0.7869857 0.29325828 0.67611259 5123365
-0.78033948 0.29325828 0.67611259 7287590
-0.77369326 0.29325828 0.67611259 8073764
-0.76704705 0.29325828 0.67611259 8401443
-0.78662151 0.30337065 0.69942683 8728866
-0.79342592 0.30869296 0.71169752 8991267
-0.78642994 0.30869296 0.71169752 8728094
-0.79335231 0.31420532 0.72440636 8793887
-0.83073503 0.33199051 0.76541048 8990753
-0.82321101 0.33199051 0.76541048 8793630
-0.815687 0.33199051 0.76541048 9056032
-0.77877522 0.31991813 0.73757738 8990496
-0.75774759 0.31420532 0.72440636 8859681
-0.75062662 0.31420532 0.72440636 8858910
-0.73046178 0.30869296 0.71169752 9253152
-0.67602539 0.28845078 0.66502881 8925472
-0.65868992 0.28379834 0.65430254 8991266
-0.66295081 0.28845078 0.66502881 9253666
-0.65641356 0.28845078 0.66502881 9450018
-0.70790094 0.31420532 0.72440636 9450018
-0.70078003 0.31420532 0.72440636 9449505
-0.77689815 0.35190997 0.81133515 9515296
-0.78461504 0.35909179 0.82789302 9777698
-0.74602669 0.34500974 0.79542661 9843234
-0.75297177 0.35190997 0.81133515 10367777
-0.70282668 0.33199051 0.76541048 10105890
-0.65805435 0.31420532 0.72440636 10106146
-0.65093338 0.31420532 0.72440636 10171938
-0.66765738 0.32584256 0.75123626 10171681
-0.69911224 0.34500974 0.79542661 10040610
-0.69129318 0.34500974 0.79542661 10236702
-0.68347406 0.34500974 0.79542661 10040866
-0.67565501 0.34500974 0.79542661 10041380
-0.68119264 0.35190997 0.81133515 10040865
-0.67321718 0.35190997 0.81133515 10041378
-0.67881811 0.35909179 0.82789302 10500131
-0.68465233 0.36657286 0.84514076 10499874
-0.69073486 0.37437227 0.86312246 10369058
-0.69708186 0.38251081 0.88188601 10368545
-0.70371097 0.39101106 0.90148348 10433825
-0.76263952 0.42915848 0.98943311 10303008
-0.75291336 0.42915848 0.98943311 10565154
-0.76176691 0.43988746 1.014169 10434596
-0.79136586 0.46303943 1.0675462 10369062
-0.82425362 0.48876384 1.1268544 10631460
-0.83641016 0.50272852 1.1590502 10631204
-1.1550233 0.70381993 1.6226703 10696742
-1.1865337 0.73314571 1.6902815 10565154
0 0 0 10696738
0 0 0 10697252
-1.299071 0.83788085 1.9317503 10565409
-1.2800817 0.83788085 1.9317503 10893859
-1.2610925 0.83788085 1.9317503 10565408
-1.3042086 0.87977493 2.028338 11024676
-1.2842699 0.87977493 2.028338 11024675
-1.330875 0.92607886 2.1350925 10959140
-1.4639913 1.0350293 2.3862798 10762019
-1.5305674 1.0997186 2.5354223 10827812
-1.5056441 1.0997186 2.5354223 10828069
-1.3936195 1.0350293 2.3862798 10959395
-1.3701624 1.0350293 2.3862798 10958882
-1.3467051 1.0350293 2.3862798 10762531
-1.3232479 1.0350293 2.3862798 10827552
-1.2997906 1.0350293 2.3862798 10696738
-1.2763333 1.0350293 2.3862798 10958882
-1.0649447 0.87977493 2.028338 11024675
-1.0450062 0.87977493 2.028338 10958882
-1.2813343 1.0997186 2.5354223 10959138
-1.256411 1.0997186 2.5354223 11024675
-1.1590472 1.0350293 2.3862798 11483173
-1.13559 1.0350293 2.3862798 11287334
-1.1121327 1.0350293 2.3862798 11286564
-0.97407806 0.92607886 2.1350925 10958880
-0.50301975 0.48876384 1.1268544 11024933
-0.44274846 0.43988746 1.014169 11024675
-0.42222351 0.42915848 0.98943311 11089955
-0.37583092 0.39101106 0.90148348 11155746
-0.36696929 0.39101106 0.90148348 11024675
-0.35810766 0.39101106 0.90148348 10958882
-0.34924603 0.39101106 0.90148348 11024162
-0.34038442 0.39101106 0.90148348 11155747
-0.33152279 0.39101106 0.90148348 11220769
-0.32266116 0.39101106 0.90148348 11287332
-0.31379956 0.39101106 0.90148348 11155744
-0.28587931 0.36657286 0.84514076 11156260
-0.27190682 0.35909179 0.82789302 11156259
-0.26376858 0.35909179 0.82789302 11024417
-0.25563037 0.35909179 0.82789302 10958626
-0.2425423 0.35190997 0.81133515 11285792
-0.22996747 0.34500974 0.79542661 11351585
-0.21787633 0.33837497 0.78012997 11089183
-0.2186159 0.35190997 0.81133515 10893089
-0.21064045 0.35190997 0.81133515 11023390
-0.20266499 0.35190997 0.81133515 10892062
-0.18720147 0.33837497 0.78012997 10892574
-0.17953277 0.33837497 0.78012997 11154977
-0.17186405 0.33837497 0.78012997 11154977
-0.17076315 0.35190997 0.81133515 10957855
-0.16610989 0.35909179 0.82789302 10695710
-0.15797167 0.35909179 0.82789302 10827294
-0.14983343 0.35909179 0.82789302 10433822
-0.1416952 0.35909179 0.82789302 10695710
-0.13355698 0.35909179 0.82789302 10630433
-0.12541875 0.35909179 0.82789302 10499101
-0.11728053 0.35909179 0.82789302 10760990
-0.1091423 0.35909179 0.82789302 10892574
-0.10310832 0.36657286 0.84514076 11089439
-0.094800554 0.36657286 0.84514076 10958112
-0.086492784 0.36657286 0.84514076 11154978
-0.07984852 0.37437227 0.86312246 11154975
-0.069877237 0.36657286 0.84514076 11417378
-0.064246401 0.38251081 0.88188601 11351842
-0.055577423 0.38251081 0.88188601 11088926
-0.046908442 0.38251081 0.88188601 11286564
-0.039089229 0.39101106 0.90148348 11154976
-0.031633545 0.40919763 0.94341296 10891804
-0.023450471 0.42915848 0.98943311 11089183
-0.012788552 0.39989766 0.92197174 11024675
-0.003725528 0.39989766 0.92197174 11089185
0.0053374954 0.39989766 0.92197174 10958369
0.014735416 0.40919763 0.94341296 10892576
0.022942131 0.39101106 0.90148348 10958882
0.029816018 0.36657286 0.84514076 11286560
0.03812379 0.36657286 0.84514076 10696480
0.054358903 0.42915848 0.98943311 10695969
0 0 0 10892831
0.079638451 0.46303943 1.0675462 11089183
0.1007363 0.51751465 1.1931399 10958110
0.11587294 0.53319687 1.2292956 11089696
0.1456062 0.60674131 1.3988537 10958368
0.15935701 0.60674131 1.3988537 11023390
0.1731078 0.60674131 1.3988537 11351841
0.18685859 0.60674131 1.3988537 11155233
0.24240302 0.73314571 1.6902815 11089698
0.25901857 0.73314571 1.6902815 11024160
0.27563411 0.73314571 1.6902815 11220771
0.29224965 0.73314571 1.6902815 11154976
0.30886519 0.73314571 1.6902815 11090468
0.35506988 0.79979533 1.8439435 11024675
0.39096716 0.83788085 1.9317503 11089953
0.39132199 0.79979533 1.8439435 11155490
0.50043648 0.97752768 2.2537088 11286306
0.55333114 1.0350293 2.3862798 11286048
0.57678843 1.0350293 2.3862798 11155234
0.425174 0.73314571 1.6902815 11156004
0.42411795 0.70381993 1.6226703 11221539
0.44006887 0.70381993 1.6226703 11483171
0.42224056 0.65168512 1.5024725 11417378
0.40687129 0.60674131 1.3988537 11548450
0.39348519 0.56759667 1.3086051 11418148
0.39365044 0.54985929 1.2677112 11352098
0.39380565 0.53319687 1.2292956 11417891
0.40588969 0.53319687 1.2292956 11483170
0.41797373 0.53319687 1.2292956 11286819
0.43005773 0.53319687 1.2292956 11483169
0.44214177 0.53319687 1.2292956 11483169
0.46842039 0.54985929 1.2677112 11155746
0.49639437 0.56759667 1.3086051 11352355
0.50925803 0.56759667 1.3086051 11155746
0.52212167 0.56759667 1.3086051 11221797
0.66338181 0.70381993 1.6226703 10827042
0.67933273 0.70381993 1.6226703 10564383
0.69528365 0.70381993 1.6226703 10828321
0.71123457 0.70381993 1.6226703 10565154
0.72718549 0.70381993 1.6226703 10827296
0.74313641 0.70381993 1.6226703 10696225
0.72989166 0.67674994 1.5602599 10696480
0.69199842 0.62841064 1.4488127 10630433
0.7062403 0.62841064 1.4488127 10827043
0.72048217 0.62841064 1.4488127 10827553
0.7347241 0.62841064 1.4488127 10630691
0.74896598 0.62841064 1.4488127 10630433
0.76320785 0.62841064 1.4488127 10499361
0.77744979 0.62841064 1.4488127 10630947
0.79169166 0.62841064 1.4488127 10565668
0.77814275 0.60674131 1.3988537 10106402
0.82017547 0.62841064 1.4488127 9975587
0.77878952 0.58651656 1.3522252 9646881
0.81939512 0.60674131 1.3988537 9712161
0.83314592 0.60674131 1.3988537 10106146
0.87714303 0.62841064 1.4488127 10433568
0.89138496 0.62841064 1.4488127 10499363
0.93916857 0.65168512 1.5024725 10434081
0.95393795 0.65168512 1.5024725 10367777
0.93411064 0.62841064 1.4488127 10302241
0.91565067 0.60674131 1.3988537 10302497
0.96259439 0.62841064 1.4488127 10302497
0.97683632 0.62841064 1.4488127 10302498
0.9910782 0.62841064 1.4488127 10302499
1.0053201 0.62841064 1.4488127 10433570
1.019562 0.62841064 1.4488127 10302240
1.0338038 0.62841064 1.4488127 10236704
1.0480458 0.62841064 1.4488127 10106145
1.0622877 0.62841064 1.4488127 10170398
1.0765295 0.62841064 1.4488127 9974817
1.0907714 0.62841064 1.4488127 9909792
1.0669094 0.60674131 1.3988537 10040095
1.0806602 0.60674131 1.3988537 9974818
1.1334971 0.62841064 1.4488127 9778211
1.1477391 0.62841064 1.4488127 9712674
1.1619809 0.62841064 1.4488127 9909794
1.1762228 0.62841064 1.4488127 9843746
1.2345561 0.65168512 1.5024725 9712930
1.3492714 0.70381993 1.6226703 9581603
1.3652223 0.70381993 1.6226703 9647395
1.3811733 0.70381993 1.6226703 9385765
1.3433887 0.67674994 1.5602599 9647652
1.3587261 0.67674994 1.5602599 9712675
1.3740635 0.67674994 1.5602599 9712677
1.5051843 0.73314571 1.6902815 9515811
1.587965 0.76502162 1.763772 9646882
1.5384154 0.73314571 1.6902815 9450016
1.5550309 0.73314571 1.6902815 9581350
1.5716465 0.73314571 1.6902815 9713190
1.588262 0.73314571 1.6902815 9253922
1.5406824 0.70381993 1.6226703 9318948
1.5566334 0.70381993 1.6226703 9318690
1.5725844 0.70381993 1.6226703 9515809
1.5885353 0.70381993 1.6226703 9450018
1.6044862 0.70381993 1.6226703 9187362
1.6204371 0.70381993 1.6226703 9056289
1.7045708 0.73314571 1.6902815 9253920
1.7211864 0.73314571 1.6902815 9384226
1.7378019 0.73314571 1.6902815 9252899
1.7544174 0.73314571 1.6902815 9319202
1.8480344 0.76502162 1.763772 9253922
1.5322702 0.62841064 1.4488127 9581602
1.8827103 0.76502162 1.763772 9582374
2.0810053 0.83788085 1.9317503 9713445
4.0090804 1.5995907 3.687887 9648165
1.7114869 0.67674994 1.5602599 9713960
1.6628679 0.65168512 1.5024725 9714473
1.3322413 0.51751465 1.1931399 9845032
1.269305 0.48876384 1.1268544 9648167
1.2129934 0.46303943 1.0675462 9517092
1.0566483 0.39989766 0.92197174 9451560
0 0 0 9583145
0 0 0 9582886
0 0 0 9517606
0 0 0 9452328
0 0 0 9517096
0 0 0 9386279
0 0 0 9386278
0 0 0 8730408
0 0 0 7089956
0 0 0 5777952
0 0 0 5515807
0 0 0 5515551
0 0 0 5580576
0 0 0 5186590
0 0 0 4662045
0 0 0 5121315
0 0 0 6304038
-0.79369611 0.29498804 0.66502881 6631462
-0.88919795 0.33322725 0.75123626 7352099
-0.88181329 0.33322725 0.75123626 8204320
-0.77408433 0.29498804 0.66502881 8531743
-0.73156828 0.28116047 0.63385558 8663330
-0.73685074 0.28562334 0.64391679 8597535
-0.75447249 0.29498804 0.66502881 8860193
-0.76040083 0.2999045 0.67611259 8728094
-0.77974612 0.31024605 0.69942683 8990496
-0.78642994 0.31568897 0.71169752 8859680
-0.79335231 0.32132626 0.72440636 8990496
-0.81535107 0.33322725 0.75123626 8662303
-0.80796641 0.33322725 0.75123626 8924703
-0.80058169 0.33322725 0.75123626 8728096
-0.77877522 0.32716855 0.73757738 8990496
-0.75774759 0.32132626 0.72440636 8793629
-0.76427442 0.32716855 0.73757738 8859164
-0.75702399 0.32716855 0.73757738 9122336
-0.77806687 0.33951452 0.76541048 9121823
-0.68064618 0.2999045 0.67611259 9318432
-0.70947373 0.31568897 0.71169752 9187616
-0.70247769 0.31568897 0.71169752 9450016
-0.70790094 0.32132626 0.72440636 9646370
-0.74044681 0.33951452 0.76541048 9712675
-0.77689815 0.35988542 0.81133515 9646625
-0.76892269 0.35988542 0.81133515 10040356
-0.74602669 0.35282883 0.79542661 10172196
-0.76833856 0.36723003 0.82789302 10237732
-0.71634263 0.34604368 0.78012997 10171938
-0.65805435 0.32132626 0.72440636 10041378
-0.65093338 0.32132626 0.72440636 10106403
-0.66765738 0.33322725 0.75123626 10040610
-0.67273062 0.33951452 0.76541048 9778468
-0.69129318 0.35282883 0.79542661 10171679
-0.68347406 0.35282883 0.79542661 9909538
-0.70323277 0.36723003 0.82789302 9909795
-0.69509453 0.36723003 0.82789302 9843744
-0.68695635 0.36723003 0.82789302 10040608
-0.67881811 0.36723003 0.82789302 9909022
-0.67067987 0.36723003 0.82789302 10105888
-0.67634457 0.37488064 0.84514076 10434083
-0.68225032 0.38285682 0.86312246 10434083
-0.6884129 0.3911798 0.88188601 10499361
-0.69484931 0.39987269 0.90148348 10564640
-0.71789414 0.41847143 0.94341296 10368546
-0.72549224 0.428435 0.96587515 10630434
-0.71599764 0.428435 0.96587515 10631714
-0.80197644 0.48633164 1.0963988 10565922
-0.83641016 0.51412201 1.1590502 10499874
0 0 0 10630947
0 0 0 10564897
0 0 0 10959652
0 0 0 10762787
-1.299071 0.85687 1.9317503 10762530
-1.2800817 0.85687 1.9317503 10762787
-1.2610925 0.85687 1.9317503 10696994
-1.2421033 0.85687 1.9317503 11089953
-1.2842699 0.89971358 2.028338 10697253
-1.2643313 0.89971358 2.028338 10892835
-1.2443926 0.89971358 2.028338 10958628
-1.224454 0.89971358 2.028338 10696737
-1.1471574 0.85687 1.9317503 11090468
-1.1281682 0.85687 1.9317503 11024676
-1.164638 0.89971358 2.028338 11024675
-1.1446993 0.89971358 2.028338 10958882
-1.2497342 0.99968177 2.2537088 10696994
-1.2997906 1.0584865 2.3862798 10893859
-1.2763333 1.0584865 2.3862798 10893347
-1.0649447 0.89971358 2.028338 10828069
-1.0450062 0.89971358 2.028338 10696482
-1.0250674 0.89971358 2.028338 11090468
-1.1825044 1.0584865 2.3862798 10959395
-1.1590472 1.0584865 2.3862798 11024932
-1.0160542 0.9470669 2.1350925 11221539
-0.94531286 0.89971358 2.028338 11155748
-0.54433775 0.52924323 1.1931399 11090466
-0.50301975 0.49984089 1.1268544 11089953
-0.40249857 0.4089607 0.92197174 11155747
-0.38469252 0.39987269 0.90148348 11090211
-0.37583092 0.39987269 0.90148348 10892576
-0.36696929 0.39987269 0.90148348 10696737
-0.34286904 0.38285682 0.86312246 10893089
-0.34924603 0.39987269 0.90148348 11089953
-0.34038442 0.39987269 0.90148348 11023647
-0.33905742 0.4089607 0.92197174 11024161
-0.32266116 0.39987269 0.90148348 11221284
-0.31379956 0.39987269 0.90148348 11286562
-0.29196185 0.38285682 0.86312246 10959652
-0.27190682 0.36723003 0.82789302 11156259
-0.25849321 0.35988542 0.81133515 11155746
-0.25051776 0.35988542 0.81133515 11090210
-0.2425423 0.35988542 0.81133515 10893088
-0.22996747 0.35282883 0.79542661 11089954
-0.2221484 0.35282883 0.79542661 10761759
-0.21432932 0.35282883 0.79542661 10433568
-0.20651025 0.35282883 0.79542661 10498847
-0.20266499 0.35988542 0.81133515 10761249
-0.18720147 0.34604368 0.78012997 10826783
-0.17953277 0.34604368 0.78012997 10892574
-0.17186405 0.34604368 0.78012997 10761503
-0.17424811 0.36723003 0.82789302 10892576
-0.16610989 0.36723003 0.82789302 10695454
-0.15481222 0.35988542 0.81133515 10957856
-0.14683676 0.35988542 0.81133515 10564894
-0.1416952 0.36723003 0.82789302 10695710
-0.13355698 0.36723003 0.82789302 10630433
-0.12541875 0.36723003 0.82789302 10498847
-0.11728053 0.36723003 0.82789302 10762273
-0.1091423 0.36723003 0.82789302 10630430
-0.10100408 0.36723003 0.82789302 10957854
-0.094800554 0.37488064 0.84514076 10826782
-0.086492784 0.37488064 0.84514076 11154978
-0.078185014 0.37488064 0.84514076 11351585
-0.069877237 0.37488064 0.84514076 11089440
-0.061569467 0.37488064 0.84514076 11154978
-0.055577423 0.3911798 0.88188601 11089185
-0.046908442 0.3911798 0.88188601 11089696
-0.039089229 0.39987269 0.90148348 11154461
-0.030227607 0.39987269 0.90148348 11154718
-0.023450471 0.43888465 0.98943311 11220255
-0.012504362 0.39987269 0.90148348 11089440
-0.0036427386 0.39987269 0.90148348 10826525
0.0052188844 0.39987269 0.90148348 10827039
0.014400519 0.4089607 0.92197174 11351328
0.022942131 0.39987269 0.90148348 11089953
0.031803753 0.39987269 0.90148348 11089439
0.044632733 0.43888465 0.98943311 10958113
0.054358903 0.43888465 0.98943311 10893090
0.065687202 0.44985679 1.014169 10827039
0.075656533 0.44985679 1.014169 10827042
0.087821394 0.46139157 1.0401733 10827296
0.09804634 0.46139157 1.0401733 10958882
0.11412379 0.48633164 1.0963988 10827039
0.14004101 0.54528093 1.2292956 11220771
0.15687895 0.56232095 1.2677112 11155748
0.18685859 0.6204921 1.3988537 11089953
0.20060939 0.6204921 1.3988537 11154978
0.25901857 0.74976128 1.6902815 10893087
0.26460874 0.71977085 1.6226703 11220767
0.28055966 0.71977085 1.6226703 10958882
0.30886519 0.74976128 1.6902815 11220771
0.32548073 0.74976128 1.6902815 11154978
0.34209627 0.74976128 1.6902815 11221282
0.39132199 0.8179214 1.8439435 11089954
0.42894554 0.85687 1.9317503 11024417
0.44793475 0.85687 1.9317503 11090212
0.42632186 0.7823596 1.763772 11221541
0.425174 0.74976128 1.6902815 11221539
0.42411795 0.71977085 1.6226703 10893089
0.44006887 0.71977085 1.6226703 10893089
0.42224056 0.66645449 1.5024725 11024674
0.40687129 0.6204921 1.3988537 11417635
0.38118878 0.56232095 1.2677112 11352097
0.38172162 0.54528093 1.2292956 11221025
0.39380565 0.54528093 1.2292956 11483171
0.40588969 0.54528093 1.2292956 11155746
0.40568039 0.52924323 1.1931399 11418147
0.417409 0.52924323 1.1931399 11352353
0.44214177 0.54528093 1.2292956 11351842
0.46842039 0.56232095 1.2677112 11155746
0.48088205 0.56232095 1.2677112 11220770
0.49334371 0.56232095 1.2677112 11352355
0.50580537 0.56232095 1.2677112 11089955
0.5349853 0.58046037 1.3086051 11156259
0.54784894 0.58046037 1.3086051 10630431
0.56071264 0.58046037 1.3086051 10368030
0.59269542 0.59980899 1.3522252 10499619
0.64927274 0.64265251 1.4488127 10630176
0.66351461 0.64265251 1.4488127 10433568
0.67775649 0.64265251 1.4488127 10303265
0.66813642 0.6204921 1.3988537 10302752
0.68188721 0.6204921 1.3988537 10565412
0.695638 0.6204921 1.3988537 10630435
0.7347241 0.64265251 1.4488127 10630432
0.69903493 0.59980899 1.3522252 10762019
0.71232736 0.59980899 1.3522252 10696226
0.72561979 0.59980899 1.3522252 10761761
0.73891222 0.59980899 1.3522252 10630433
0.75220466 0.59980899 1.3522252 10564640
0.79189354 0.6204921 1.3988537 10367779
0.83441734 0.64265251 1.4488127 10565155
0.91394079 0.69208735 1.5602599 10236961
0.83314592 0.6204921 1.3988537 10105633
0.84689671 0.6204921 1.3988537 10105888
0.89138496 0.64265251 1.4488127 10170911
0.93916857 0.66645449 1.5024725 10302240
0.91986871 0.64265251 1.4488127 10301982
0.90189987 0.6204921 1.3988537 10105890
0.91565067 0.6204921 1.3988537 9909024
0.92940152 0.6204921 1.3988537 9974817
0.94315231 0.6204921 1.3988537 10237217
0.9910782 0.64265251 1.4488127 10301984
1.0053201 0.64265251 1.4488127 10170911
1.019562 0.64265251 1.4488127 10302242
1.0338038 0.64265251 1.4488127 10236448
1.0480458 0.64265251 1.4488127 10171681
1.0622877 0.64265251 1.4488127 10039584
1.0765295 0.64265251 1.4488127 9974050
1.0531586 0.6204921 1.3988537 10039842
1.0669094 0.6204921 1.3988537 9974816
1.0806602 0.6204921 1.3988537 9712415
1.1334971 0.64265251 1.4488127 9581089
1.1477391 0.64265251 1.4488127 9581089
1.1619809 0.64265251 1.4488127 9581091
1.1762228 0.64265251 1.4488127 9646368
1.2345561 0.66645449 1.5024725 9646884
1.2493254 0.66645449 1.5024725 9515811
1.3652223 0.71977085 1.6226703 9515555
1.3280512 0.69208735 1.5602599 9319202
1.3971242 0.71977085 1.6226703 9450788
1.3587261 0.69208735 1.5602599 9582374
1.429026 0.71977085 1.6226703 9779239
1.5051843 0.74976128 1.6902815 9450275
1.5217998 0.74976128 1.6902815 9319459
1.5384154 0.74976128 1.6902815 9319715
1.3822497 0.66645449 1.5024725 9450790
1.3471255 0.64265251 1.4488127 9516581
1.3613675 0.64265251 1.4488127 9385508
1.5406824 0.71977085 1.6226703 9253668
1.5566334 0.71977085 1.6226703 9253923
1.5121003 0.69208735 1.5602599 9319460
1.5274378 0.69208735 1.5602599 9384482
1.4325769 0.64265251 1.4488127 9253409
1.5581126 0.69208735 1.5602599 9253411
1.6363881 0.71977085 1.6226703 9253666
1.7211864 0.74976128 1.6902815 9318430
1.7378019 0.74976128 1.6902815 9383458
1.7544174 0.74976128 1.6902815 9318948
1.1185472 0.47353345 1.0675462 9122081
1.3407364 0.56232095 1.2677112 9318430
1.3531981 0.56232095 1.2677112 9057059
1.6185597 0.66645449 1.5024725 9057831
1.6333292 0.66645449 1.5024725 9450789
1.6480985 0.66645449 1.5024725 9384993
1.6034796 0.64265251 1.4488127 9451044
1.2582279 0.49984089 1.1268544 9714217
1.2349994 0.48633164 1.0963988 9648425
1.2129934 0.47353345 1.0675462 9451817
1.2234875 0.47353345 1.0675462 9058088
1.2673323 0.48633164 1.0963988 9255466
0 0 0 9386793
0 0 0 9780522
0 0 0 9780266
0 0 0 9517864
0 0 0 9386024
0 0 0 9189159
0 0 0 8926246
0 0 0 8270887
0 0 0 7418663
0 0 0 5909280
0 0 0 5516323
0 0 0 5843490
0 0 0 5515555
0 0 0 5055777
0 0 0 8336420
0 0 0 8598052
-1.0301162 0.39134136 0.86312246 8663330
-1.0216316 0.39134136 0.86312246 8663071
-1.0131471 0.39134136 0.86312246 8663071
-0.85852987 0.33441898 0.73757738 8597279
-0.70939952 0.27868247 0.61464781 8728608
-0.71417844 0.28296992 0.62410396 9056802
-0.75447249 0.30152532 0.66502881 8924959
-0.80042195 0.322685 0.71169752 8859164
-0.80759424 0.32844719 0.72440636 8859423
-0.80047327 0.32844719 0.72440636 8662301
-0.80777693 0.33441898 0.73757738 8728866
-0.83073503 0.34703854 0.76541048 8859682
-0.82321101 0.34703854 0.76541048 8924959
-0.80058169 0.34061193 0.75123626 9056287
-0.79319704 0.34061193 0.75123626 8924957
-0.78581238 0.34061193 0.75123626 9056543
-0.79311496 0.34703854 0.76541048 9056543
-0.78559089 0.34703854 0.76541048 9187362
-0.77806687 0.34703854 0.76541048 9186846
-0.77054286 0.34703854 0.76541048 9187616
-0.74888891 0.34061193 0.75123626 9253409
-0.74150425 0.34061193 0.75123626 9515809
-0.74797082 0.34703854 0.76541048 9515296
-0.76948392 0.36064792 0.79542661 10105890
-0.77689815 0.36786088 0.81133515 10105890
-0.76892269 0.36786088 0.81133515 10171939
-0.76094723 0.36786088 0.81133515 10106146
-0.75297177 0.36786088 0.81133515 10105889
-0.74499631 0.36786088 0.81133515 10040610
-0.73702085 0.36786088 0.81133515 10040610
-0.68777865 0.34703854 0.76541048 10105888
-0.68025464 0.34703854 0.76541048 10105890
-0.69911224 0.36064792 0.79542661 9974817
-0.67799908 0.35371238 0.78012997 9909280
-0.68347406 0.36064792 0.79542661 9646880
-0.6891681 0.36786088 0.81133515 9908511
-0.69509453 0.37536824 0.82789302 10040610
-0.68695635 0.37536824 0.82789302 9843747
-0.67881811 0.37536824 0.82789302 9974816
-0.67067987 0.37536824 0.82789302 10237218
-0.67634457 0.3831884 0.84514076 10302497
-0.66803682 0.3831884 0.84514076 10171681
-0.67376578 0.39134136 0.86312246 10434339
-0.67974389 0.39984876 0.88188601 10368547
-0.68598771 0.40873429 0.90148348 10237474
-0.72549224 0.4379296 0.96587515 10565667
-0.71599764 0.4379296 0.96587515 10565408
-0.72373486 0.44861084 0.98943311 10433823
-0.81317657 0.5109179 1.1268544 10893605
0 0 0 10696483
0 0 0 10499874
0 0 0 10499873
0 0 0 10828580
-1.299071 0.8758592 1.9317503 10631460
-1.2800817 0.8758592 1.9317503 10500644
-1.2610925 0.8758592 1.9317503 10696483
-1.3042086 0.91965222 2.028338 10565154
-1.2842699 0.91965222 2.028338 10696738
-1.2643313 0.91965222 2.028338 10630947
-1.2443926 0.91965222 2.028338 10565153
-1.224454 0.91965222 2.028338 10762787
-1.1471574 0.8758592 1.9317503 10762530
-1.1281682 0.8758592 1.9317503 10827812
-1.109179 0.8758592 1.9317503 10959138
-1.0901898 0.8758592 1.9317503 10696482
-1.2497342 1.0218358 2.2537088 10893602
-1.2275801 1.0218358 2.2537088 10827812
-1.2763333 1.0819438 2.3862798 11024675
-1.183272 1.0218358 2.2537088 11090468
-1.0450062 0.91965222 2.028338 10893346
-1.0250674 0.91965222 2.028338 10828066
-1.0580302 0.96805495 2.1350925 10959652
-1.0370423 0.96805495 2.1350925 10893859
-1.0160542 0.96805495 2.1350925 11024162
-0.90029788 0.8758592 1.9317503 11221283
-0.54433775 0.54097188 1.1931399 11089953
-0.50301975 0.5109179 1.1268544 11089955
-0.4319497 0.44861084 0.98943311 10827296
-0.39343554 0.41802371 0.92197174 11089955
-0.37583092 0.40873429 0.90148348 11024161
-0.36696929 0.40873429 0.90148348 10761503
-0.35810766 0.40873429 0.90148348 10959138
-0.34924603 0.40873429 0.90148348 10958882
-0.34812042 0.41802371 0.92197174 10827296
-0.33905742 0.41802371 0.92197174 10827809
-0.32999438 0.41802371 0.92197174 10958626
-0.31379956 0.40873429 0.90148348 10958881
-0.29196185 0.39134136 0.86312246 11089955
-0.27757153 0.3831884 0.84514076 11155746
-0.26376858 0.37536824 0.82789302 10959139
-0.25563037 0.37536824 0.82789302 10762533
-0.2425423 0.36786088 0.81133515 10762273
-0.22996747 0.36064792 0.79542661 10695969
-0.2221484 0.36064792 0.79542661 10695967
-0.21432932 0.36064792 0.79542661 10629919
-0.20651025 0.36064792 0.79542661 10630687
-0.19869116 0.36064792 0.79542661 10695456
-0.20280159 0.3831884 0.84514076 10827296
-0.19863197 0.39134136 0.86312246 10630687
-0.18238634 0.37536824 0.82789302 10761503
-0.17424811 0.37536824 0.82789302 10761246
-0.16610989 0.37536824 0.82789302 10564126
-0.15481222 0.36786088 0.81133515 10761249
-0.14683676 0.36786088 0.81133515 10760991
-0.1388613 0.36786088 0.81133515 10826526
-0.13088584 0.36786088 0.81133515 10564896
-0.12541875 0.37536824 0.82789302 10760990
-0.11728053 0.37536824 0.82789302 10761249
-0.1091423 0.37536824 0.82789302 10499101
-0.10100408 0.37536824 0.82789302 10826783
-0.094800554 0.3831884 0.84514076 10827039
-0.086492784 0.3831884 0.84514076 10827296
-0.078185014 0.3831884 0.84514076 10826783
-0.069877237 0.3831884 0.84514076 11023648
-0.061569467 0.3831884 0.84514076 10958367
-0.055577423 0.39984876 0.88188601 11154462
-0.047950853 0.40873429 0.90148348 11089953
-0.041881319 0.4379296 0.96587515 11351585
-0.030227607 0.40873429 0.90148348 11351585
-0.022359751 0.42774519 0.94341296 11023392
-0.012504362 0.40873429 0.90148348 11351583
-0.0036427386 0.40873429 0.90148348 11154976
0.0052188844 0.40873429 0.90148348 10893089
0.014080508 0.40873429 0.90148348 11024162
0.025180388 0.44861084 0.98943311 11024162
0.034906559 0.44861084 0.98943311 11154976
0.044632733 0.44861084 0.98943311 11351587
0.054358903 0.44861084 0.98943311 10892832
0.064085074 0.44861084 0.98943311 11089696
0.073811248 0.44861084 0.98943311 10957855
0.085625857 0.45982611 1.014169 10762019
0.09804634 0.47161654 1.0401733 10630432
0.11112054 0.48402748 1.0675462 10761502
0.12161456 0.48402748 1.0675462 11024675
0.14765078 0.54097188 1.1931399 10892574
0.18062997 0.61310142 1.3522252 11220769
0.20060939 0.63424289 1.3988537 11023390
0.23909406 0.70742476 1.5602599 10695710
0.25443149 0.70742476 1.5602599 11089953
0.29224965 0.76637679 1.6902815 11089954
0.35298878 0.8758592 1.9317503 11089698
0.32548073 0.76637679 1.6902815 11155747
0.35697001 0.79969752 1.763772 11023905
0.37430799 0.79969752 1.763772 11023391
0.42894554 0.8758592 1.9317503 10827042
0.44793475 0.8758592 1.9317503 10696994
0.46692392 0.8758592 1.9317503 11090468
0.44365981 0.79969752 1.763772 11156261
0.42411795 0.73572177 1.6226703 11221539
0.44006887 0.73572177 1.6226703 11089953
0.3931205 0.63424289 1.3988537 11089953
0.36872712 0.57478261 1.2677112 10892831
0.36963758 0.55736494 1.2292956 11024673
0.38172162 0.55736494 1.2292956 11483171
0.39380565 0.55736494 1.2292956 11220769
0.40588969 0.55736494 1.2292956 11220770
0.41797373 0.55736494 1.2292956 11549219
0.43005773 0.55736494 1.2292956 11221284
0.44214177 0.55736494 1.2292956 11417378
0.45422581 0.55736494 1.2292956 11155490
0.46630985 0.55736494 1.2292956 11155233
0.47839388 0.55736494 1.2292956 10827812
0.49047789 0.55736494 1.2292956 11089955
0.50256193 0.55736494 1.2292956 11155489
0.51464599 0.55736494 1.2292956 10696223
0.54319036 0.57478261 1.2677112 10433568
0.59269542 0.61310142 1.3522252 10433568
0.64927274 0.65689439 1.4488127 10433824
0.66351461 0.65689439 1.4488127 10433568
0.67775649 0.65689439 1.4488127 10040095
0.69199842 0.65689439 1.4488127 10040608
0.68188721 0.63424289 1.3988537 10236704
0.67245007 0.61310142 1.3522252 10565154
0.6857425 0.61310142 1.3522252 10433568
0.69903493 0.61310142 1.3522252 10302496
0.66780692 0.57478261 1.2677112 10564897
0.65965432 0.55736494 1.2292956 10564640
0.67173839 0.55736494 1.2292956 10564894
0.72794002 0.59332401 1.3086051 10630435
0.79189354 0.63424289 1.3988537 10695970
0.83441734 0.65689439 1.4488127 10499363
0.91394079 0.70742476 1.5602599 10695710
0.83314592 0.63424289 1.3988537 10629663
0.84689671 0.63424289 1.3988537 10301468
0.8606475 0.63424289 1.3988537 10301984
0.87439829 0.63424289 1.3988537 10301984
0.88814908 0.63424289 1.3988537 10301984
0.90189987 0.63424289 1.3988537 10236706
0.91565067 0.63424289 1.3988537 9777952
0.92940152 0.63424289 1.3988537 9711903
0.94315231 0.63424289 1.3988537 10171681
0.9910782 0.65689439 1.4488127 9974815
1.0053201 0.65689439 1.4488127 10171425
1.019562 0.65689439 1.4488127 10236193
1.0338038 0.65689439 1.4488127 10105888
1.0480458 0.65689439 1.4488127 9974817
1.0622877 0.65689439 1.4488127 9974562
1.0394078 0.63424289 1.3988537 9974306
1.0531586 0.63424289 1.3988537 9908257
1.0669094 0.63424289 1.3988537 9908511
1.0806602 0.63424289 1.3988537 9908769
1.1334971 0.65689439 1.4488127 9712419
1.1477391 0.65689439 1.4488127 9778208
1.1619809 0.65689439 1.4488127 9449503
1.2197866 0.68122387 1.5024725 9515041
1.3333205 0.73572177 1.6226703 9580575
1.3492714 0.73572177 1.6226703 9581091
1.3652223 0.73572177 1.6226703 9515811
1.3811733 0.73572177 1.6226703 9515810
1.3433887 0.70742476 1.5602599 9450017
1.4130751 0.73572177 1.6226703 9450018
1.429026 0.73572177 1.6226703 9581091
1.5051843 0.76637679 1.6902815 9319461
1.5217998 0.76637679 1.6902815 9319206
1.5384154 0.76637679 1.6902815 9384484
1.3328836 0.65689439 1.4488127 9318692
1.3471255 0.65689439 1.4488127 9187875
1.3613675 0.65689439 1.4488127 9451301
1.5406824 0.73572177 1.6226703 9516836
1.4413272 0.68122387 1.5024725 9515811
1.4560966 0.68122387 1.5024725 9516581
1.5274378 0.70742476 1.5602599 9451044
1.6044862 0.73572177 1.6226703 9319204
1.6204371 0.73572177 1.6226703 9384228
1.6363881 0.73572177 1.6226703 9319203
1.652339 0.73572177 1.6226703 9253408
1.6682899 0.73572177 1.6226703 9122081
1.2759399 0.55736494 1.2292956 9122082
1.1185472 0.48402748 1.0675462 9384483
1.2258161 0.52551556 1.1590502 9318947
1.2735982 0.54097188 1.1931399 9122080
1.3242761 0.55736494 1.2292956 9253922
1.3363601 0.55736494 1.2292956 9254435
1.5892377 0.65689439 1.4488127 9254178
1.2471509 0.5109179 1.1268544 9516580
1.2242217 0.49710929 1.0963988 9384995
1.2349994 0.49710929 1.0963988 9517352
1.2129934 0.48402748 1.0675462 9582374
1.2234875 0.48402748 1.0675462 9517351
1.2673323 0.49710929 1.0963988 9452330
1.3136131 0.5109179 1.1268544 9517610
0 0 0 9386794
0 0 0 9517865
0 0 0 9518122
0 0 0 9714473
0 0 0 9451560
0 0 0 9320743
0 0 0 9189671
0 0 0 8599076
0 0 0 7091241
0 0 0 5581348
0 0 0 5121312
0 0 0 5581088
0 0 0 5647394
0 0 0 8663073
0 0 0 8794659
-1.05251 0.40851775 0.88188601 8663330
-1.0216316 0.39982587 0.86312246 8531742
-0.93368459 0.368467 0.79542661 8531486
-0.85852987 0.34166938 0.73757738 8531487
-0.72031337 0.28910488 0.62410396 8793887
-0.76100981 0.30806258 0.66502881 8925473
-0.8683551 0.35456258 0.76541048 8925473
-0.87738562 0.36138111 0.78012997 8728095
-0.85330707 0.35456258 0.76541048 8859681
-0.86204821 0.36138111 0.78012997 8859424
-0.83825904 0.35456258 0.76541048 8858910
-0.84671074 0.36138111 0.78012997 8990751
-0.82321101 0.35456258 0.76541048 9319202
-0.80058169 0.34799662 0.75123626 9121821
-0.79319704 0.34799662 0.75123626 9056543
-0.80063897 0.35456258 0.76541048 9122079
-0.79311496 0.35456258 0.76541048 9253407
-0.80069846 0.36138111 0.78012997 9253922
-0.79302979 0.36138111 0.78012997 9450016
-0.78536105 0.36138111 0.78012997 9515297
-0.77769232 0.36138111 0.78012997 9581089
-0.77002364 0.36138111 0.78012997 10040610
-0.77730304 0.368467 0.79542661 10171939
-0.76948392 0.368467 0.79542661 9974816
-0.77689815 0.37583634 0.81133515 10106146
-0.76892269 0.37583634 0.81133515 10106403
-0.7764768 0.38350648 0.82789302 10106403
-0.76833856 0.38350648 0.82789302 10040095
-0.76020032 0.38350648 0.82789302 10040607
-0.75206214 0.38350648 0.82789302 9909022
-0.7439239 0.38350648 0.82789302 9712415
-0.73578566 0.38350648 0.82789302 9974817
-0.72764742 0.38350648 0.82789302 9975074
-0.71950924 0.38350648 0.82789302 9974816
-0.67033035 0.36138111 0.78012997 9974817
-0.6891681 0.37583634 0.81133515 9909024
-0.69509453 0.38350648 0.82789302 9975330
-0.68695635 0.38350648 0.82789302 10237475
-0.67881811 0.38350648 0.82789302 10106402
-0.67067987 0.38350648 0.82789302 10368290
-0.66254163 0.38350648 0.82789302 10368290
-0.66803682 0.39149618 0.84514076 10302497
-0.6884129 0.40851775 0.88188601 10106401
-0.67974389 0.40851775 0.88188601 10368288
-0.68598771 0.41759592 0.90148348 10368545
-0.72549224 0.4474242 0.96587515 10368289
-0.73346102 0.45833701 0.98943311 10237987
-0.72373486 0.45833701 0.98943311 10368288
-0.81317657 0.52199495 1.1268544 10631205
0 0 0 10565155
0 0 0 10696226
0 0 0 10827812
0 0 0 10434337
0 0 0 10500131
0 0 0 10762790
-1.3241472 0.93959087 2.028338 10696740
-1.3042086 0.93959087 2.028338 10696740
-1.2842699 0.93959087 2.028338 10631459
-1.2643313 0.93959087 2.028338 10893605
-1.3098869 0.989043 2.1350925 10827555
-1.224454 0.93959087 2.028338 10630947
-1.2045153 0.93959087 2.028338 10827812
-1.1281682 0.89484841 1.9317503 10630689
-1.164638 0.93959087 2.028338 10958882
-1.1446993 0.93959087 2.028338 10958882
-1.2497342 1.0439899 2.2537088 11024674
-1.2997906 1.105401 2.3862798 10762530
-1.3561043 1.1744885 2.5354223 10959139
-1.3311809 1.1744885 2.5354223 11024421
-1.3062576 1.1744885 2.5354223 11024162
-1.0250674 0.93959087 2.028338 10958884
-1.0051289 0.93959087 2.028338 10828066
-0.98519015 0.93959087 2.028338 11024932
-0.96525151 0.93959087 2.028338 11024673
-0.90029788 0.89484841 1.9317503 11155748
-0.80467319 0.8170355 1.763772 11155746
-0.48942459 0.50788695 1.0963988 10958883
-0.42166516 0.4474242 0.96587515 10828066
-0.39343554 0.42708674 0.92197174 11090725
-0.37583092 0.41759592 0.90148348 11154976
-0.36696929 0.41759592 0.90148348 11023390
-0.35810766 0.41759592 0.90148348 11089696
-0.34924603 0.41759592 0.90148348 10893089
-0.34812042 0.42708674 0.92197174 11154976
-0.33905742 0.42708674 0.92197174 10827294
-0.32999438 0.42708674 0.92197174 10893087
-0.31379956 0.41759592 0.90148348 10827296
-0.29196185 0.39982587 0.86312246 10958882
-0.28347731 0.39982587 0.86312246 10565154
-0.26926374 0.39149618 0.84514076 10761505
-0.25563037 0.38350648 0.82789302 10892576
-0.2425423 0.37583634 0.81133515 10828066
-0.22996747 0.368467 0.79542661 10893089
-0.2221484 0.368467 0.79542661 11024162
-0.21432932 0.368467 0.79542661 10564897
-0.20651025 0.368467 0.79542661 10564895
-0.20266499 0.37583634 0.81133515 10696224
-0.20711651 0.39982587 0.86312246 10761505
-0.20746008 0.41759592 0.90148348 10761504
-0.19428109 0.40851775 0.88188601 10433308
-0.16741484 0.368467 0.79542661 10630430
-0.16278769 0.37583634 0.81133515 10892576
-0.15481222 0.37583634 0.81133515 10564640
-0.14683676 0.37583634 0.81133515 10564640
-0.1388613 0.37583634 0.81133515 10957599
-0.13088584 0.37583634 0.81133515 10892319
-0.12541875 0.38350648 0.82789302 10761503
-0.11728053 0.38350648 0.82789302 10826013
-0.1091423 0.38350648 0.82789302 10629917
-0.10100408 0.38350648 0.82789302 10760988
-0.094800554 0.39149618 0.84514076 10893087
-0.088333055 0.39982587 0.86312246 10630689
-0.078185014 0.39149618 0.84514076 10695455
-0.069877237 0.39149618 0.84514076 10564897
-0.061569467 0.39149618 0.84514076 10827554
-0.056812476 0.41759592 0.90148348 10826783
-0.051375914 0.4474242 0.96587515 10958369
0 0 0 11024162
-0.030227607 0.41759592 0.90148348 11024160
-0.022892127 0.4474242 0.96587515 11286562
-0.012504362 0.41759592 0.90148348 11024160
-0.0036427386 0.41759592 0.90148348 11285794
0.0052188844 0.41759592 0.90148348 10958367
0.014080508 0.41759592 0.90148348 11023390
0.025180388 0.45833701 0.98943311 11154976
0.034906559 0.45833701 0.98943311 11089185
0.044632733 0.45833701 0.98943311 11089183
0.054358903 0.45833701 0.98943311 10957855
0.064085074 0.45833701 0.98943311 11089183
0.073811248 0.45833701 0.98943311 10826785
0.085625857 0.46979544 1.014169 10826783
0.095595188 0.46979544 1.014169 10761760
0.10827129 0.48184147 1.0401733 10565408
0.12490144 0.50788695 1.0963988 10828066
0.14765078 0.55270052 1.1931399 10761503
0.18685859 0.64799368 1.3988537 10762018
0 0 0 10827039
0 0 0 10761760
0 0 0 11090210
0 0 0 11089953
0 0 0 11024161
0.33963206 0.8170355 1.763772 10893088
0.37319595 0.85417348 1.8439435 11089697
0.39132199 0.85417348 1.8439435 11024162
0.42894554 0.89484841 1.9317503 11024162
0.49508578 0.989043 2.1350925 11089955
0.49027017 0.93959087 2.028338 11221028
0.48591313 0.89484841 1.9317503 11286564
0.44178954 0.78299236 1.6902815 11090468
0.45840508 0.78299236 1.6902815 11024418
0.3931205 0.64799368 1.3988537 10827296
0.35755357 0.56944895 1.2292956 10958882
0.36963758 0.56944895 1.2292956 11024675
0.38172162 0.56944895 1.2292956 10893089
0.39380565 0.56944895 1.2292956 10959395
0.37206557 0.52199495 1.1268544 11024675
0.40568039 0.55270052 1.1931399 11221026
0.43005773 0.56944895 1.2292956 11220771
0.42913762 0.55270052 1.1931399 11417378
0.44086626 0.55270052 1.1931399 11351585
0.45259488 0.55270052 1.1931399 11090468
0.47839388 0.56944895 1.2292956 10761762
0.47605211 0.55270052 1.1931399 10827554
0.50256193 0.56944895 1.2292956 10826782
0.51464599 0.56944895 1.2292956 10892576
0.54319036 0.58724427 1.2677112 9974304
0.59269542 0.62639385 1.3522252 9383453
0.64927274 0.67113632 1.4488127 9974817
0.66351461 0.67113632 1.4488127 10499105
0.67775649 0.67113632 1.4488127 10433568
0.66813642 0.64799368 1.3988537 10499363
0.68188721 0.64799368 1.3988537 10105890
0.63042194 0.58724427 1.2677112 10499104
0.6428836 0.58724427 1.2677112 10630175
0.65534526 0.58724427 1.2677112 10170911
0.66780692 0.58724427 1.2677112 10433826
0.65965432 0.56944895 1.2292956 10434083
0.65198141 0.55270052 1.1931399 10433826
0.68382239 0.56944895 1.2292956 10433570
0.74080366 0.60618764 1.3086051 10761249
0.83441734 0.67113632 1.4488127 10564642
0.91394079 0.72276223 1.5602599 10302496
0.96644932 0.75167269 1.6226703 10433569
0.98240024 0.75167269 1.6226703 10499104
0.8606475 0.64799368 1.3988537 10302497
0.87439829 0.64799368 1.3988537 10302495
0.88814908 0.64799368 1.3988537 10498847
0.90189987 0.64799368 1.3988537 10367778
0.91565067 0.64799368 1.3988537 10433570
0.92940152 0.64799368 1.3988537 10301984
0.97683632 0.67113632 1.4488127 10236704
0.9910782 0.67113632 1.4488127 10040097
1.0053201 0.67113632 1.4488127 10105888
1.019562 0.67113632 1.4488127 10170913
1.0338038 0.67113632 1.4488127 10039583
1.0480458 0.67113632 1.4488127 10105375
1.0622877 0.67113632 1.4488127 9777184
1.0394078 0.64799368 1.3988537 9908771
1.0531586 0.64799368 1.3988537 10171683
1.0669094 0.64799368 1.3988537 10039840
1.0806602 0.64799368 1.3988537 9711391
1.1334971 0.67113632 1.4488127 9580579
1.1477391 0.67113632 1.4488127 9712675
1.1619809 0.67113632 1.4488127 9515809
0.99800724 0.56944895 1.2292956 9384225
1.0416566 0.58724427 1.2677112 9450016
1.3492714 0.75167269 1.6226703 9712161
1.4221066 0.78299236 1.6902815 9712161
1.2788641 0.69599324 1.5024725 9515811
1.2936336 0.69599324 1.5024725 9515556
1.3587261 0.72276223 1.5602599 9318432
1.3740635 0.72276223 1.5602599 9450018
1.3379416 0.69599324 1.5024725 9121823
1.3527111 0.69599324 1.5024725 9318432
1.2731713 0.64799368 1.3988537 9581091
1.0976689 0.55270052 1.1931399 9450277
1.1093975 0.55270052 1.1931399 9187875
1.3613675 0.67113632 1.4488127 9253668
1.3756093 0.67113632 1.4488127 9516581
1.4413272 0.69599324 1.5024725 9384739
1.5121003 0.72276223 1.5602599 9188129
1.5274378 0.72276223 1.5602599 9123106
1.6044862 0.75167269 1.6226703 9319715
1.6204371 0.75167269 1.6226703 9253665
1.6363881 0.75167269 1.6226703 8991266
1.7960205 0.8170355 1.763772 9254692
1.6682899 0.75167269 1.6226703 9319715
1.2759399 0.56944895 1.2292956 9318948
1.1806887 0.52199495 1.1268544 9385253
1.2618695 0.55270052 1.1931399 9515809
1.2735982 0.55270052 1.1931399 9450019
1.3242761 0.56944895 1.2292956 9450790
1.3363601 0.56944895 1.2292956 9384738
1.6480985 0.69599324 1.5024725 9582887
2.8060894 1.1744885 2.5354223 9451301
1.2582279 0.52199495 1.1268544 9451301
1.2349994 0.50788695 1.0963988 9385508
1.245777 0.50788695 1.0963988 9648167
1.2565546 0.50788695 1.0963988 9648678
1.2673323 0.50788695 1.0963988 9714473
1.2781099 0.50788695 1.0963988 9452587
1.3246901 0.52199495 1.1268544 9255465
0 0 0 9583660
0 0 0 9649196
0 0 0 9649452
0 0 0 9583658
0 0 0 9517864
0 0 0 9452071
0 0 0 9648167
0 0 0 8468008
0 0 0 6565926
0 0 0 5383711
0 0 0 5121569
0 0 0 5581859
0 0 0 8663073
0 0 0 8663330
0 0 0 8597537
0 0 0 8728094
-0.97179419 0.39164469 0.82789302 8990496
-0.85852987 0.34891981 0.73757738 8924703
-0.85127944 0.34891981 0.73757738 8663071
-0.89272302 0.36904982 0.78012997 8596766
-0.88505435 0.36904982 0.78012997 8531487
-0.89458925 0.37628609 0.79542661 8662301
-0.86971688 0.36904982 0.78012997 8859680
-0.86204821 0.36904982 0.78012997 8793629
-0.85437948 0.36904982 0.78012997 8990238
-0.84671074 0.36904982 0.78012997 9187361
-0.82321101 0.36208659 0.76541048 9122082
-0.815687 0.36208659 0.76541048 9122080
-0.80816299 0.36208659 0.76541048 9187616
-0.81603593 0.36904982 0.78012997 9253409
-0.80836719 0.36904982 0.78012997 9253152
-0.80069846 0.36904982 0.78012997 9384224
-0.79302979 0.36904982 0.78012997 9383967
-0.78536105 0.36904982 0.78012997 9647395
-0.77769232 0.36904982 0.78012997 9843745
-0.7851221 0.37628609 0.79542661 10040610
-0.77730304 0.37628609 0.79542661 10040866
-0.76948392 0.37628609 0.79542661 9843231
-0.77689815 0.3838118 0.81133515 10105116
-0.76892269 0.3838118 0.81133515 10106145
-0.76094723 0.3838118 0.81133515 10040097
-0.75297177 0.3838118 0.81133515 10171681
-0.76020032 0.39164469 0.82789302 9842716
-0.75206214 0.39164469 0.82789302 9843229
-0.7439239 0.39164469 0.82789302 9908768
-0.73578566 0.39164469 0.82789302 9777694
-0.72764742 0.39164469 0.82789302 9843229
-0.71950924 0.39164469 0.82789302 9909024
-0.711371 0.39164469 0.82789302 9909023
-0.65015858 0.36208659 0.76541048 10040608
-0.69509453 0.39164469 0.82789302 10041123
-0.68695635 0.39164469 0.82789302 10040868
-0.67881811 0.39164469 0.82789302 10040608
-0.67067987 0.39164469 0.82789302 9909794
-0.67634457 0.39980394 0.84514076 10172196
-0.69708186 0.41718674 0.88188601 10106401
-0.6884129 0.41718674 0.88188601 10303010
-0.69484931 0.42645755 0.90148348 9975587
-0.68598771 0.42645755 0.90148348 10302495
-0.72549224 0.45691881 0.96587515 10302240
-0.73346102 0.46806318 0.98943311 10368802
-0.74182826 0.47976476 1.014169 10302497
-0.81317657 0.53307199 1.1268544 10303011
-0.87501758 0.58153301 1.2292956 10303265
0 0 0 10368289
0 0 0 10433826
0 0 0 10433568
0 0 0 10434081
0 0 0 10434594
0 0 0 10434081
0 0 0 10499876
-1.2842699 0.95952952 2.028338 10499876
-1.2643313 0.95952952 2.028338 10499618
-1.3098869 1.0100311 2.1350925 10762275
-1.2888989 1.0100311 2.1350925 10499361
-1.2045153 0.95952952 2.028338 10433568
-1.1845767 0.95952952 2.028338 10368288
-1.164638 0.95952952 2.028338 10695966
-1.1446993 0.95952952 2.028338 10565408
-1.2497342 1.066144 2.2537088 10499361
-1.6997262 1.4761993 3.1205199 10499616
-1.6690514 1.4761993 3.1205199 10696740
-1.6383766 1.4761993 3.1205199 10762530
-1.6077017 1.4761993 3.1205199 10630687
-1.5770268 1.4761993 3.1205199 10828066
-1.0580302 1.0100311 2.1350925 10828066
-0.98519015 0.95952952 2.028338 11024675
-1.0160542 1.0100311 2.1350925 11024419
-0.94531286 0.95952952 2.028338 10893605
-0.80467319 0.83437347 1.763772 10828068
-0.47654501 0.50501555 1.0675462 11025188
-0.42166516 0.45691881 0.96587515 10631202
-0.38469252 0.42645755 0.90148348 11089955
-0.37583092 0.42645755 0.90148348 10892574
-0.36696929 0.42645755 0.90148348 10630947
-0.35810766 0.42645755 0.90148348 10958882
-0.35718346 0.43614978 0.92197174 10827295
-0.34812042 0.43614978 0.92197174 11022877
-0.33905742 0.43614978 0.92197174 10826782
-0.32266116 0.42645755 0.90148348 10958112
-0.31379956 0.42645755 0.90148348 10695967
-0.30493793 0.42645755 0.90148348 10892322
-0.2960763 0.42645755 0.90148348 10893089
-0.28721467 0.42645755 0.90148348 10630687
-0.25563037 0.39164469 0.82789302 10761505
-0.24749213 0.39164469 0.82789302 10695710
-0.22996747 0.37628609 0.79542661 10564640
-0.21787633 0.36904982 0.78012997 10499101
-0.21432932 0.37628609 0.79542661 10630687
-0.20651025 0.37628609 0.79542661 10761504
-0.20680101 0.39164469 0.82789302 10433568
-0.20280159 0.39980394 0.84514076 10433826
-0.19863197 0.40831041 0.86312246 10564383
-0.17873861 0.3838118 0.81133515 10695711
-0.17076315 0.3838118 0.81133515 10630432
-0.16278769 0.3838118 0.81133515 10630174
-0.15481222 0.3838118 0.81133515 10761247
-0.14683676 0.3838118 0.81133515 10761248
-0.1388613 0.3838118 0.81133515 10826782
-0.13355698 0.39164469 0.82789302 11023390
-0.12541875 0.39164469 0.82789302 11219999
-0.11728053 0.39164469 0.82789302 11089185
-0.1091423 0.39164469 0.82789302 10761503
-0.10310832 0.39980394 0.84514076 10827295
-0.09681759 0.40831041 0.86312246 10565409
-0.088333055 0.40831041 0.86312246 10695967
-0.078185014 0.39980394 0.84514076 10498847
-0.069877237 0.39980394 0.84514076 10433311
-0.061569467 0.39980394 0.84514076 10827299
0 0 0 10630177
0 0 0 10695970
0 0 0 10761249
-0.030227607 0.42645755 0.90148348 10630430
-0.022892127 0.45691881 0.96587515 10892576
-0.012504362 0.42645755 0.90148348 11154976
-0.0036427386 0.42645755 0.90148348 11154978
0.0052188844 0.42645755 0.90148348 10892574
0.014400519 0.43614978 0.92197174 10892576
0.022942131 0.42645755 0.90148348 11286049
0.034906559 0.46806318 0.98943311 11089694
0.041589592 0.43614978 0.92197174 11023648
0.054358903 0.46806318 0.98943311 11089440
0.064085074 0.46806318 0.98943311 10892576
0.073811248 0.46806318 0.98943311 10827296
0.085625857 0.47976476 1.014169 10761503
0.10334614 0.5186646 1.0963988 10761247
0.11412379 0.5186646 1.0963988 10892833
0.12490144 0.5186646 1.0963988 10892832
0.14765078 0.5644291 1.1931399 10696740
0.19353212 0.68537819 1.4488127 10433824
0 0 0 10499615
0 0 0 10761501
0 0 0 10827296
0 0 0 10893089
0.61773038 1.5992157 3.380563 11088672
0.3905769 0.95952952 2.028338 10958624
0.39096716 0.91383761 1.9317503 11090468
0.40995637 0.91383761 1.9317503 10958882
0.47409773 1.0100311 2.1350925 11024417
0.52259058 1.066144 2.2537088 11024675
0.54474461 1.066144 2.2537088 11024162
0.51020885 0.95952952 2.028338 11417378
0.53014749 0.95952952 2.028338 10958368
0.45840508 0.79960787 1.6902815 11155748
0.3931205 0.66174448 1.3988537 11221539
0.38062155 0.61905128 1.3086051 11286562
0.36963758 0.58153301 1.2292956 11024675
0.38172162 0.58153301 1.2292956 11155747
0.39380565 0.58153301 1.2292956 11156004
0.37206557 0.53307199 1.1268544 10959650
0.39408952 0.54830259 1.1590502 10827812
0.43005773 0.58153301 1.2292956 10958882
0.44214177 0.58153301 1.2292956 10827296
0.44086626 0.5644291 1.1931399 10893089
0.45259488 0.5644291 1.1931399 10695969
0.46432349 0.5644291 1.1931399 10826529
0.47605211 0.5644291 1.1931399 10630432
0.50256193 0.58153301 1.2292956 10631201
0.5307287 0.59970593 1.2677112 10695456
0.5993824 0.66174448 1.3988537 10630434
0.57357627 0.61905128 1.3086051 10039070
0.58643991 0.61905128 1.3086051 10367777
0.64063483 0.66174448 1.3988537 10826529
0.67775649 0.68537819 1.4488127 10827555
0.69199842 0.68537819 1.4488127 10696481
0.73239738 0.71076262 1.5024725 10433568
0.63042194 0.59970593 1.2677112 10368290
0.6428836 0.59970593 1.2677112 10368290
0.69903493 0.63968629 1.3522252 10302496
0.73689038 0.66174448 1.3988537 10368290
0.75064117 0.66174448 1.3988537 10433826
0.76439196 0.66174448 1.3988537 10301984
