# .PCD v0.7 - Point Cloud Data file format
VERSION 0.7
FIELDS x y z rgb
SIZE 4 4 4 4
TYPE F F F U
COUNT 1 1 1 1
WIDTH 1320
HEIGHT 1
VIEWPOINT 0 0 0 1 0 0 0
POINTS 1320
DATA ascii
0 0 0 10040610
0 0 0 9974817
0 0 0 10302497
0 0 0 10040609
0 0 0 10433570
0 0 0 10171683
-5.7751169 4.3166456 8.1133518 10171682
-3.5596011 2.6979036 5.0708447 10236446
-3.5097547 2.6979036 5.0708447 10367775
-3.0754738 2.3981366 4.5074177 10171424
-3.0311658 2.3981366 4.5074177 10171425
-2.9868577 2.3981366 4.5074177 10106146
-2.9425495 2.3981366 4.5074177 10171424
-2.8982413 2.3981366 4.5074177 10367777
-2.335036 1.9621116 3.687887 10106146
-1.9451251 1.6602484 3.1205199 10039838
-1.9144502 1.6602484 3.1205199 10236704
-2.22628 1.9621116 3.687887 10237476
-2.1900277 1.9621116 3.687887 10303014
-1.8224256 1.6602484 3.1205199 10434081
-1.7917508 1.6602484 3.1205199 10499361
-1.761076 1.6602484 3.1205199 10369058
-1.7304012 1.6602484 3.1205199 10368544
-1.473096 1.4388819 2.7044504 10434082
-0.5292114 0.52642018 0.98943311 10434083
-0.50711656 0.51388639 0.96587515 10696226
-0.4354192 0.44965059 0.84514076 10630691
-0.42711142 0.44965059 0.84514076 10762273
-0.41025665 0.44047406 0.82789302 10696738
-0.40211841 0.44047406 0.82789302 10499361
-0.38610059 0.43166456 0.81133515 10434081
-0.37071091 0.42320055 0.79542661 10564897
-0.34919778 0.40723071 0.76541048 10696740
-0.34167376 0.40723071 0.76541048 10630689
-0.34057572 0.4150621 0.78012997 10630433
-0.33290702 0.4150621 0.78012997 10499361
-0.32523829 0.4150621 0.78012997 10499105
-0.31756958 0.4150621 0.78012997 10368034
-0.31597736 0.42320055 0.79542661 10433568
-0.30815828 0.42320055 0.79542661 10368032
-0.30033919 0.42320055 0.79542661 10564894
-0.29252011 0.42320055 0.79542661 10498847
-0.28470105 0.42320055 0.79542661 10301983
-0.27688196 0.42320055 0.79542661 10302496
-0.27444413 0.43166456 0.81133515 10301984
-0.26646867 0.43166456 0.81133515 10433570
-0.2534247 0.42320055 0.79542661 10630175
-0.25051776 0.43166456 0.81133515 10367520
-0.2425423 0.43166456 0.81133515 10236703
-0.22996747 0.42320055 0.79542661 10236190
-0.2221484 0.42320055 0.79542661 10367777
-0.21432932 0.42320055 0.79542661 10367775
-0.20651025 0.42320055 0.79542661 10498847
-0.19869116 0.42320055 0.79542661 10564640
-0.19087209 0.42320055 0.79542661 10433056
-0.17953277 0.4150621 0.78012997 10629919
-0.17186405 0.4150621 0.78012997 10367262
-0.16741484 0.42320055 0.79542661 10367776
-0.16278769 0.43166456 0.81133515 10564895
-0.15481222 0.43166456 0.81133515 10433054
-0.13852525 0.40723071 0.76541048 10433054
-0.13100122 0.40723071 0.76541048 10105118
-0.12347721 0.40723071 0.76541048 10236191
-0.11595318 0.40723071 0.76541048 10171168
-0.10842916 0.40723071 0.76541048 10039582
-0.10090514 0.40723071 0.76541048 10170911
-0.093381122 0.40723071 0.76541048 10236191
-0.084267162 0.39968941 0.75123626 10367775
-0.076882474 0.39968941 0.75123626 10564383
-0.072170787 0.4150621 0.78012997 10433312
-0.068451174 0.44047406 0.82789302 10498845
0 0 0 10760477
0 0 0 10498848
0 0 0 10171167
0 0 0 10301983
0 0 0 10433054
0 0 0 10235677
0 0 0 10236704
0 0 0 10170398
0 0 0 10236704
0.048740219 1.6602484 3.1205199 10170398
0.068826392 1.4388819 2.7044504 10039323
0.11008992 1.6602484 3.1205199 9974047
0.13071014 1.5416591 2.8976254 10236960
0.17143962 1.6602484 3.1205199 10433313
0.20211448 1.6602484 3.1205199 10630178
0.25218841 1.7986023 3.380563 10498590
0.28541949 1.7986023 3.380563 10695456
0.29413903 1.6602484 3.1205199 10498592
0.32481387 1.6602484 3.1205199 10695710
0.33009666 1.5416591 2.8976254 10892063
0.33467507 1.4388819 2.7044504 10761503
0.41683844 1.6602484 3.1205199 10760990
0.58176726 2.1583228 4.0566759 10892321
0 0 0 10629663
0.3891305 1.2696017 2.3862798 10827042
0.41258773 1.2696017 2.3862798 10761249
0.43604496 1.2696017 2.3862798 10761503
0.45950222 1.2696017 2.3862798 10695197
0.48295945 1.2696017 2.3862798 10761249
0.50641668 1.2696017 2.3862798 10827298
0.56299102 1.3489518 2.5354223 10564639
0.58791435 1.3489518 2.5354223 10696227
0.54474461 1.1990683 2.2537088 10433570
0.3924683 0.8301242 1.5602599 10563870
0.40780574 0.8301242 1.5602599 10630687
0.44006887 0.86332911 1.6226703 10958625
0.45601982 0.86332911 1.6226703 10762018
0.47197074 0.86332911 1.6226703 11550504
0.45177931 0.79937881 1.5024725 11485223
0.4198938 0.71944094 1.3522252 11551016
0.44812369 0.74424922 1.3988537 11221025
0.51516771 0.8301242 1.5602599 10958367
0 0 0 10499361
0 0 0 11024162
0 0 0 11090212
0 0 0 10695712
0.9617641 1.3489518 2.5354223 10499361
0.98668742 1.3489518 2.5354223 10565408
1.0116107 1.3489518 2.5354223 10564383
1.0365341 1.3489518 2.5354223 10695971
1.0614574 1.3489518 2.5354223 10827298
1.0863807 1.3489518 2.5354223 10695711
0.68387938 0.8301242 1.5602599 10696226
0.69921684 0.8301242 1.5602599 10498847
0.66351461 0.77082956 1.4488127 10302498
0.70285863 0.79937881 1.5024725 10695711
0.717628 0.79937881 1.5024725 10301984
0.76056653 0.8301242 1.5602599 10302497
0.74716675 0.79937881 1.5024725 10433570
0.76193613 0.79937881 1.5024725 10499361
0.7767055 0.79937881 1.5024725 10367775
0.76320785 0.77082956 1.4488127 10368290
0.75064117 0.74424922 1.3988537 10762019
0.76439196 0.74424922 1.3988537 10696226
0.80593354 0.77082956 1.4488127 10630690
0.82017547 0.77082956 1.4488127 10695456
0.83441734 0.77082956 1.4488127 10367777
0.84865928 0.77082956 1.4488127 10303267
0.86290115 0.77082956 1.4488127 10368033
0.90962988 0.79937881 1.5024725 10236704
0.92439926 0.79937881 1.5024725 10433312
0.93916857 0.79937881 1.5024725 10368290
0.95393795 0.79937881 1.5024725 10433055
0.96870732 0.79937881 1.5024725 10367777
0.9834767 0.79937881 1.5024725 10236706
1.7968428 1.4388819 2.7044504 10236706
0 0 0 10105120
0 0 0 10105633
0 0 0 9776671
0 0 0 10039073
2.0676076 1.5416591 2.8976254 9646112
2.0960915 1.5416591 2.8976254 9711391
1.982937 1.4388819 2.7044504 10104866
1.2057132 0.86332911 1.6226703 9777440
1.174677 0.8301242 1.5602599 9645598
1.1900145 0.8301242 1.5602599 9711391
1.2053518 0.8301242 1.5602599 9514782
1.2206893 0.8301242 1.5602599 9383710
1.2360268 0.8301242 1.5602599 9253665
1.2050173 0.79937881 1.5024725 9253155
1.1762228 0.77082956 1.4488127 9515041
1.1494142 0.74424922 1.3988537 9581347
1.163165 0.74424922 1.3988537 9253409
1.1769158 0.74424922 1.3988537 9253409
1.2331904 0.77082956 1.4488127 9253153
1.2474322 0.77082956 1.4488127 9317664
1.2616742 0.77082956 1.4488127 9251872
1.2759161 0.77082956 1.4488127 9317919
1.4449769 0.86332911 1.6226703 9252641
2.2826998 1.3489518 2.5354223 9252385
0 0 0 9252897
0 0 0 8990237
2.6942511 1.5416591 2.8976254 8990494
2.7227349 1.5416591 2.8976254 9055775
3.2097552 1.7986023 3.380563 9252385
3.5378032 1.9621116 3.687887 9187362
7.8629222 4.3166456 8.1133518 9055520
4.9641728 2.6979036 5.0708447 8924190
5.0140195 2.6979036 5.0708447 8925216
2.0255466 1.0791614 2.028338 8924961
1.5734501 0.8301242 1.5602599 8859682
1.652339 0.86332911 1.6226703 8925730
1.6682899 0.86332911 1.6226703 9253668
0 0 0 9319202
0 0 0 9385508
1.7161427 0.86332911 1.6226703 9319715
1.7320936 0.86332911 1.6226703 9385250
1.7480445 0.86332911 1.6226703 9385251
1.7639954 0.86332911 1.6226703 9385766
1.7799463 0.86332911 1.6226703 9385252
1.4030447 0.67447591 1.2677112 9648167
1.2582279 0.59953415 1.1268544 9582374
0.95197868 0.44965059 0.84514076 9516837
0.94068879 0.44047406 0.82789302 9517095
1.1339639 0.52642018 0.98943311 9320231
0 0 0 9254439
0 0 0 9319461
0 0 0 9582633
0 0 0 9517610
0 0 0 9320230
0 0 0 9254438
0 0 0 9189417
0 0 0 9254696
0 0 0 9189159
0 0 0 9254953
0 0 0 9582633
0 0 0 9582890
0 0 0 9320744
0 0 0 9254951
0 0 0 9387049
0 0 0 8728610
0 0 0 8728096
-2.0173109 0.91591668 1.6902815 8531742
-2.0006952 0.91591668 1.6902815 8925473
-1.9840797 0.91591668 1.6902815 9187360
-0.7869857 0.36636668 0.67611259 9056288
-0.76754707 0.36036068 0.66502881 9515296
-0.76100981 0.36036068 0.66502881 9449503
-0.74230361 0.35454839 0.65430254 9449504
-0.73587179 0.35454839 0.65430254 9515553
-0.74139798 0.36036068 0.66502881 9515809
-0.7471084 0.36636668 0.67611259 9318430
-0.77943391 0.38564914 0.71169752 9450016
-0.84671074 0.4227308 0.78012997 9449503
-0.83904207 0.4227308 0.78012997 9449503
-0.83137333 0.4227308 0.78012997 9581089
-0.8237046 0.4227308 0.78012997 9449759
-0.81603593 0.4227308 0.78012997 9516579
-0.76427442 0.39967275 0.73757738 9384479
-0.73046178 0.38564914 0.71169752 9319200
-0.74977356 0.39967275 0.73757738 9253152
-0.85080779 0.45795834 0.84514076 9384223
-0.80880004 0.43964002 0.81133515 9515553
-0.80082458 0.43964002 0.81133515 9581088
-0.79284912 0.43964002 0.81133515 9580833
-0.78487366 0.43964002 0.81133515 9580576
-0.77689815 0.43964002 0.81133515 9580830
-0.78461504 0.44861227 0.82789302 9909540
-0.7764768 0.44861227 0.82789302 9712415
-0.76833856 0.44861227 0.82789302 9974563
-0.76020032 0.44861227 0.82789302 9843231
-0.75206214 0.44861227 0.82789302 9777695
-0.7439239 0.44861227 0.82789302 9844001
-0.73578566 0.44861227 0.82789302 9974817
-0.72764742 0.44861227 0.82789302 9909282
-0.73449898 0.45795834 0.84514076 9712419
-0.72619122 0.45795834 0.84514076 9909024
-0.71788341 0.45795834 0.84514076 9777438
-0.7568807 0.48848891 0.90148348 9646880
0 0 0 9975073
-0.83155221 0.54955006 1.014169 9844001
-0.82158285 0.54955006 1.014169 9843747
-0.87742001 0.59410816 1.0963988 10040097
-0.97168988 0.66612124 1.2292956 9842975
0 0 0 10040354
0 0 0 9712161
0 0 0 10040354
0 0 0 10040610
0 0 0 10171940
0 0 0 10367519
-2.9274356 2.1982002 4.0566759 10237217
-3.2083981 2.4424448 4.5074177 10171679
-3.1640902 2.4424448 4.5074177 10368290
-3.5097547 2.74775 5.0708447 10171167
-3.0754738 2.4424448 4.5074177 9907739
-3.4100614 2.74775 5.0708447 10040095
-2.9868577 2.4424448 4.5074177 10040610
-2.9425495 2.4424448 4.5074177 10105889
-2.8982413 2.4424448 4.5074177 10302499
-1.9757999 1.6909232 3.1205199 10105888
-1.8061875 1.5701429 2.8976254 9909794
-1.7777036 1.5701429 2.8976254 10236961
-1.8837754 1.6909232 3.1205199 10236961
-1.7207361 1.5701429 2.8976254 10237474
-1.6922523 1.5701429 2.8976254 10237474
-1.6637685 1.5701429 2.8976254 10696996
-1.761076 1.6909232 3.1205199 10500644
-1.7304012 1.6909232 3.1205199 10499360
-1.2997906 1.2930589 2.3862798 10368288
-0.5292114 0.5361464 0.98943311 10368288
-0.44372696 0.45795834 0.84514076 10564897
-0.4265331 0.44861227 0.82789302 10433824
-0.42711142 0.45795834 0.84514076 10368288
-0.41880363 0.45795834 0.84514076 10565408
-0.39407605 0.43964002 0.81133515 10433570
-0.37853 0.43101963 0.79542661 10433568
-0.37071091 0.43101963 0.79542661 10695970
-0.34919778 0.41475472 0.76541048 10564640
-0.34167376 0.41475472 0.76541048 10499361
-0.34057572 0.4227308 0.78012997 10367775
-0.33290702 0.4227308 0.78012997 10367777
-0.33161551 0.43101963 0.79542661 10236704
-0.33027238 0.43964002 0.81133515 10433568
-0.32887441 0.44861227 0.82789302 10367775
-0.31432143 0.43964002 0.81133515 10302497
-0.30033919 0.43101963 0.79542661 10170654
-0.29252011 0.43101963 0.79542661 10105888
-0.28470105 0.43101963 0.79542661 10170909
-0.27688196 0.43101963 0.79542661 10498847
-0.27444413 0.43964002 0.81133515 10302240
-0.26646867 0.43964002 0.81133515 10629663
-0.2534247 0.43101963 0.79542661 10695456
-0.24560563 0.43101963 0.79542661 10367518
-0.23778656 0.43101963 0.79542661 10367520
-0.22996747 0.43101963 0.79542661 10301984
-0.2221484 0.43101963 0.79542661 10695456
-0.2186159 0.43964002 0.81133515 10499104
-0.20651025 0.43101963 0.79542661 10367519
-0.19869116 0.43101963 0.79542661 10236704
-0.19087209 0.43101963 0.79542661 10695710
-0.183053 0.43101963 0.79542661 10367775
-0.17523393 0.43101963 0.79542661 10433054
-0.16741484 0.43101963 0.79542661 10104605
-0.15959577 0.43101963 0.79542661 10236189
-0.15481222 0.43964002 0.81133515 10105118
-0.13852525 0.41475472 0.76541048 10170398
-0.13100122 0.41475472 0.76541048 10301984
-0.12347721 0.41475472 0.76541048 10236191
-0.11595318 0.41475472 0.76541048 10039325
-0.10842916 0.41475472 0.76541048 9973532
-0.10090514 0.41475472 0.76541048 10236447
-0.093381122 0.41475472 0.76541048 10104605
-0.085857108 0.41475472 0.76541048 10301984
-0.078333087 0.41475472 0.76541048 10301984
-0.073585898 0.43101963 0.79542661 10563870
-0.07453572 0.48848891 0.90148348 10695456
0 0 0 10695710
0 0 0 10433054
0 0 0 10564383
0 0 0 10301727
0 0 0 10301727
0 0 0 10170396
0 0 0 10105118
0 0 0 10039324
0 0 0 10367520
0.048740219 1.6909232 3.1205199 10170653
0.073742561 1.5701429 2.8976254 10236448
0.10222635 1.5701429 2.8976254 10170656
0.13071014 1.5701429 2.8976254 10236446
0.15919393 1.5701429 2.8976254 10433312
0.21895733 1.8318334 3.380563 10695715
0.25218841 1.8318334 3.380563 10367775
0.28541949 1.8318334 3.380563 10498847
0.3186506 1.8318334 3.380563 10564640
0.38387093 1.9983637 3.687887 10368029
0.30809021 1.4654667 2.7044504 10827042
0.3137579 1.373875 2.5354223 10761249
0.33868122 1.373875 2.5354223 10695456
0.36360452 1.373875 2.5354223 10695455
0.31082228 1.0991001 2.028338 10695456
0.36751217 1.2212224 2.2537088 10498849
0.41258773 1.2930589 2.3862798 10826786
0.43604496 1.2930589 2.3862798 10761503
0.45950222 1.2930589 2.3862798 10630430
0.48295945 1.2930589 2.3862798 10630176
0.53806776 1.373875 2.5354223 10564382
0.56299102 1.373875 2.5354223 10760992
0.62710863 1.4654667 2.7044504 10564640
0.61283767 1.373875 2.5354223 10695456
0.37793246 0.81414819 1.5024725 10498849
0.39270183 0.81414819 1.5024725 10827553
0.42314318 0.84546161 1.5602599 10696223
0.45601982 0.87928003 1.6226703 10761249
0.47197074 0.87928003 1.6226703 10696742
0.42062211 0.75800002 1.3988537 11156259
0.38172162 0.66612124 1.2292956 11222823
0.44812369 0.75800002 1.3988537 11157031
0.47837001 0.78507143 1.4488127 10828065
0 0 0 10564897
0 0 0 11024932
0 0 0 11156517
0 0 0 10893605
0 0 0 10499101
1.0524665 1.4654667 2.7044504 10564639
1.0116107 1.373875 2.5354223 10564386
1.0365341 1.373875 2.5354223 10367777
1.0614574 1.373875 2.5354223 10826786
1.0863807 1.373875 2.5354223 10564641
0.68387938 0.84546161 1.5602599 10368033
0.67331988 0.81414819 1.5024725 10302240
0.66351461 0.78507143 1.4488127 10433571
0.67775649 0.78507143 1.4488127 10564642
0.717628 0.81414819 1.5024725 10499363
0.73239738 0.81414819 1.5024725 10433828
0.74716675 0.81414819 1.5024725 10237219
0.76193613 0.81414819 1.5024725 10499105
0.7767055 0.81414819 1.5024725 10368290
0.76320785 0.78507143 1.4488127 10302241
0.75064117 0.75800002 1.3988537 10237217
0.76439196 0.75800002 1.3988537 10368290
0.80593354 0.78507143 1.4488127 10368290
0.82017547 0.78507143 1.4488127 10433056
0.86532176 0.81414819 1.5024725 10434083
0.88009113 0.81414819 1.5024725 10367777
0.86290115 0.78507143 1.4488127 10302497
0.90962988 0.81414819 1.5024725 10367777
0.92439926 0.81414819 1.5024725 10498848
0.93916857 0.81414819 1.5024725 10433568
0.95393795 0.81414819 1.5024725 10368290
0.96870732 0.81414819 1.5024725 10368291
0.9834767 0.81414819 1.5024725 10236706
1.5854496 1.2930589 2.3862798 10104863
0 0 0 10105888
0 0 0 10106401
0 0 0 9908767
2.039124 1.5701429 2.8976254 9580575
2.0676076 1.5701429 2.8976254 9908768
2.0960915 1.5701429 2.8976254 9448991
1.982937 1.4654667 2.7044504 9842464
1.0765295 0.78507143 1.4488127 9646113
1.0907714 0.78507143 1.4488127 9580319
1.1459398 0.81414819 1.5024725 9449503
1.2053518 0.84546161 1.5602599 9383710
1.2206893 0.84546161 1.5602599 9383968
1.2360268 0.84546161 1.5602599 9450018
1.1619809 0.78507143 1.4488127 9450018
1.1762228 0.78507143 1.4488127 9580575
1.1494142 0.75800002 1.3988537 9383712
1.163165 0.75800002 1.3988537 9188129
1.1769158 0.75800002 1.3988537 9187360
1.2788641 0.81414819 1.5024725 9383971
1.2474322 0.78507143 1.4488127 9318177
1.2616742 0.78507143 1.4488127 9252642
1.2759161 0.78507143 1.4488127 9121570
1.2901579 0.78507143 1.4488127 9318178
1.4609278 0.87928003 1.6226703 9383971
0 0 0 9252642
0 0 0 8662303
2.6942511 1.5701429 2.8976254 8990497
2.7227349 1.5701429 2.8976254 8990238
3.2097552 1.8318334 3.380563 8990496
7.7831674 4.3964005 8.1133518 9055776
7.8629222 4.3964005 8.1133518 8858910
4.9641728 2.74775 5.0708447 8858912
2.5070097 1.373875 2.5354223 8858653
1.5581126 0.84546161 1.5602599 8858910
1.5734501 0.84546161 1.5602599 8859680
1.652339 0.87928003 1.6226703 8793631
1.6682899 0.87928003 1.6226703 9450018
0 0 0 9252895
0 0 0 9319715
1.7876486 0.91591668 1.6902815 9451301
1.7320936 0.87928003 1.6226703 9451299
1.7480445 0.87928003 1.6226703 9451301
1.7639954 0.87928003 1.6226703 9386022
1.7114869 0.84546161 1.5602599 9582887
1.1815114 0.57847375 1.0675462 9452071
0.96374899 0.46770215 0.86312246 9582887
0.95197868 0.45795834 0.84514076 9845032
0.94068879 0.44861227 0.82789302 9713191
1.1623131 0.54955006 1.014169 9582633
0 0 0 9452071
0 0 0 9255208
0 0 0 9189415
0 0 0 9320231
0 0 0 9451047
0 0 0 9254183
0 0 0 9319975
0 0 0 9451048
0 0 0 9451819
0 0 0 9320231
0 0 0 9385254
0 0 0 9516840
0 0 0 9583147
0 0 0 9123624
0 0 0 9255210
0 0 0 8793632
0 0 0 8925473
-2.0173109 0.93253225 1.6902815 8925727
0 0 0 9057056
0 0 0 9121823
0 0 0 9122336
-0.78033948 0.3730129 0.67611259 9318432
-0.77369326 0.3730129 0.67611259 9318690
-0.76704705 0.3730129 0.67611259 9581089
-0.74793524 0.36689794 0.66502881 9384223
-0.74139798 0.36689794 0.66502881 9253152
-0.7471084 0.3730129 0.67611259 9383968
-0.77943391 0.39264518 0.71169752 9450017
-0.84671074 0.43039951 0.78012997 9384223
-0.83904207 0.43039951 0.78012997 9450017
-0.83137333 0.43039951 0.78012997 9515810
-0.8237046 0.43039951 0.78012997 9384223
-0.81603593 0.43039951 0.78012997 9384224
-0.8242175 0.43883872 0.79542661 9450018
-0.771043 0.41445878 0.75123626 9450018
-0.82475096 0.44761547 0.81133515 9253665
-0.85080779 0.46626613 0.84514076 9188129
-0.82530618 0.45675051 0.82789302 9187616
-0.81716794 0.45675051 0.82789302 9187616
-0.79284912 0.44761547 0.81133515 9580577
-0.80089146 0.45675051 0.82789302 9515296
-0.77689815 0.44761547 0.81133515 9580832
-0.78461504 0.45675051 0.82789302 9515298
-0.7764768 0.45675051 0.82789302 9777954
-0.78434557 0.46626613 0.84514076 9646625
-0.77603781 0.46626613 0.84514076 9449246
-0.76773006 0.46626613 0.84514076 9515296
-0.7439239 0.45675051 0.82789302 9712159
-0.73578566 0.45675051 0.82789302 9974815
-0.74280673 0.46626613 0.84514076 9581343
-0.73449898 0.46626613 0.84514076 9909024
-0.74164206 0.47618666 0.86312246 9712161
-0.73315752 0.47618666 0.86312246 9777438
-0.72467297 0.47618666 0.86312246 9712160
-0.73175776 0.48653856 0.88188601 10106403
-0.73915744 0.49735054 0.90148348 9777954
-0.80154425 0.54587257 0.98943311 9842977
-0.87742001 0.60488576 1.0963988 9909283
-0.97168988 0.67820525 1.2292956 10040097
0 0 0 10039839
0 0 0 9974815
0 0 0 9843231
0 0 0 10171681
0 0 0 10170911
0 0 0 10040608
-2.661305 2.0346158 3.687887 10237474
-2.8875585 2.2380776 4.0566759 10236959
-2.847681 2.2380776 4.0566759 10040095
-3.119782 2.4867527 4.5074177 10171168
-3.0754738 2.4867527 4.5074177 10236704
-3.0311658 2.4867527 4.5074177 9908766
-2.9868577 2.4867527 4.5074177 9974817
-2.9425495 2.4867527 4.5074177 10105890
-2.8982413 2.4867527 4.5074177 10105633
-1.9757999 1.721598 3.1205199 10171938
-1.5804141 1.3987983 2.5354223 10237217
-1.5554907 1.3987983 2.5354223 10105886
-1.5305674 1.3987983 2.5354223 10171683
-1.5056441 1.3987983 2.5354223 10105888
-1.6922523 1.5986267 2.8976254 10434081
-1.6637685 1.5986267 2.8976254 10434081
-1.6352848 1.5986267 2.8976254 10105886
-1.6068009 1.5986267 2.8976254 10302497
-1.2997906 1.3165162 2.3862798 10237474
-0.48217037 0.49735054 0.90148348 10367777
-0.44372696 0.46626613 0.84514076 10302497
-0.4354192 0.46626613 0.84514076 10302497
-0.42711142 0.46626613 0.84514076 10368033
-0.41025665 0.45675051 0.82789302 10302495
-0.39407605 0.44761547 0.81133515 10170911
-0.37125057 0.43039951 0.78012997 10236447
-0.37071091 0.43883872 0.79542661 10629920
-0.36289182 0.43883872 0.79542661 10367777
-0.35507274 0.43883872 0.79542661 10433568
-0.34725368 0.43883872 0.79542661 10433568
-0.33943459 0.43883872 0.79542661 10564901
-0.34515086 0.45675051 0.82789302 10302497
-0.33701262 0.45675051 0.82789302 10368033
-0.32887441 0.45675051 0.82789302 10105888
-0.31432143 0.44761547 0.81133515 10236191
-0.30634597 0.44761547 0.81133515 10236704
-0.29252011 0.43883872 0.79542661 10171681
-0.28470105 0.43883872 0.79542661 10170912
-0.27688196 0.43883872 0.79542661 10368292
-0.27444413 0.44761547 0.81133515 10040353
-0.27190682 0.45675051 0.82789302 10368290
-0.25849321 0.44761547 0.81133515 10433568
-0.25051776 0.44761547 0.81133515 10433311
-0.23778656 0.43883872 0.79542661 10367519
-0.22996747 0.43883872 0.79542661 10695456
-0.22659136 0.44761547 0.81133515 10563870
-0.2186159 0.44761547 0.81133515 10170911
-0.20651025 0.43883872 0.79542661 10367264
-0.19869116 0.43883872 0.79542661 10236448
-0.19087209 0.43883872 0.79542661 10301982
-0.183053 0.43883872 0.79542661 10432797
-0.17523393 0.43883872 0.79542661 10367261
-0.16741484 0.43883872 0.79542661 9776925
-0.15959577 0.43883872 0.79542661 9842718
-0.14885791 0.43039951 0.78012997 10039325
-0.13852525 0.42227873 0.76541048 10038812
-0.13100122 0.42227873 0.76541048 10104605
-0.12347721 0.42227873 0.76541048 10169884
-0.11818306 0.43039951 0.78012997 10301727
-0.11051435 0.43039951 0.78012997 9973789
-0.10090514 0.42227873 0.76541048 9973532
-0.093381122 0.42227873 0.76541048 9974046
-0.085857108 0.42227873 0.76541048 10104861
-0.079839498 0.43039951 0.78012997 10039325
-0.073585898 0.43883872 0.79542661 10236704
0 0 0 10170398
0 0 0 10170911
0 0 0 10170911
0 0 0 10433056
0 0 0 10301984
0 0 0 10301725
0 0 0 10367518
0 0 0 10170398
0 0 0 9842718
0 0 0 10170400
0.048740219 1.721598 3.1205199 10038810
0.073742561 1.5986267 2.8976254 10170398
0.10222635 1.5986267 2.8976254 9908252
0.13071014 1.5986267 2.8976254 10367005
0.15919393 1.5986267 2.8976254 10498334
0.21895733 1.8650645 3.380563 10367777
0.25218841 1.8650645 3.380563 10498847
0.31136674 2.0346158 3.687887 10236704
0.34761882 2.0346158 3.687887 10629663
0.38387093 2.0346158 3.687887 10301982
0.46213534 2.2380776 4.0566759 10696224
0.3137579 1.3987983 2.5354223 10564899
0.33868122 1.3987983 2.5354223 10629920
0.36360452 1.3987983 2.5354223 10827299
0.36567327 1.3165162 2.3862798 10564640
0.3891305 1.3165162 2.3862798 10498847
0.41258773 1.3165162 2.3862798 11023392
0.43604496 1.3165162 2.3862798 10696480
0.45950222 1.3165162 2.3862798 10827042
0.58645076 1.5986267 2.8976254 10761503
0.61493456 1.5986267 2.8976254 10564894
0.60052377 1.4920516 2.7044504 10892576
0.62710863 1.4920516 2.7044504 10892577
0.61283767 1.3987983 2.5354223 10695713
0.36443484 0.79931337 1.4488127 10433054
0.39270183 0.82891756 1.5024725 10695968
0.42314318 0.86079901 1.5602599 10564383
0.45601982 0.89523095 1.6226703 10695456
0.47197074 0.89523095 1.6226703 10761249
0.46915543 0.86079901 1.5602599 10433568
0.38172162 0.67820525 1.2292956 10564639
0.39380565 0.67820525 1.2292956 10630434
0.46187449 0.77175081 1.3988537 10565154
0.49261189 0.79931337 1.4488127 10433570
0 0 0 10434083
0 0 0 10696742
0 0 0 10434082
0 0 0 10433568
0 0 0 10499874
1.0116107 1.3987983 2.5354223 10367775
1.0365341 1.3987983 2.5354223 10433568
1.0614574 1.3987983 2.5354223 10433569
1.0863807 1.3987983 2.5354223 10301983
0.71123457 0.89523095 1.6226703 10301984
0.67331988 0.82891756 1.5024725 10302241
0.66351461 0.79931337 1.4488127 10499361
0.72989166 0.86079901 1.5602599 10367775
0.717628 0.82891756 1.5024725 10367519
0.73239738 0.82891756 1.5024725 10498849
0.74716675 0.82891756 1.5024725 10302241
0.79124135 0.86079901 1.5602599 10236704
0.74896598 0.79931337 1.4488127 10433055
0.76320785 0.79931337 1.4488127 10171425
0.77744979 0.79931337 1.4488127 10368290
0.76439196 0.77175081 1.3988537 10630693
0.80593354 0.79931337 1.4488127 10565154
0.82017547 0.79931337 1.4488127 10367777
0.86532176 0.82891756 1.5024725 10105890
0.88009113 0.82891756 1.5024725 10368290
0.89486051 0.82891756 1.5024725 10302497
0.90962988 0.82891756 1.5024725 10302241
0.92439926 0.82891756 1.5024725 10367777
0.93916857 0.82891756 1.5024725 10039583
0.95393795 0.82891756 1.5024725 10301984
0.96870732 0.82891756 1.5024725 10367777
1.0213027 0.86079901 1.5602599 10236704
0 0 0 10301984
0 0 0 10236449
0 0 0 10040097
2.1653049 1.721598 3.1205199 9974817
2.039124 1.5986267 2.8976254 10171683
2.0676076 1.5986267 2.8976254 10170911
2.0960915 1.5986267 2.8976254 9646368
2.2880044 1.721598 3.1205199 9973280
2.153059 1.5986267 2.8976254 9646369
1.9088501 1.3987983 2.5354223 9645855
1.1459398 0.82891756 1.5024725 9383710
1.2535659 0.89523095 1.6226703 9515296
1.2206893 0.86079901 1.5602599 9383966
1.2360268 0.86079901 1.5602599 9252384
1.1619809 0.79931337 1.4488127 9252385
1.1762228 0.79931337 1.4488127 9253155
1.1494142 0.77175081 1.3988537 9383458
1.163165 0.77175081 1.3988537 9187104
1.3127139 0.86079901 1.5602599 9384225
1.3280512 0.86079901 1.5602599 9318432
1.2936336 0.82891756 1.5024725 9448992
1.2616742 0.79931337 1.4488127 9056291
1.2759161 0.79931337 1.4488127 9122081
1.3379416 0.82891756 1.5024725 9186849
1.4609278 0.89523095 1.6226703 9055776
2.3076231 1.3987983 2.5354223 9253155
0 0 0 9449505
1.3471255 0.79931337 1.4488127 9121569
1.3613675 0.79931337 1.4488127 9252642
2.962851 1.721598 3.1205199 8990495
3.2429862 1.8650645 3.380563 9056288
3.2762172 1.8650645 3.380563 8990498
1.6547242 0.93253225 1.6902815 8859682
1.5427752 0.86079901 1.5602599 8858912
1.5581126 0.86079901 1.5602599 8924704
1.6363881 0.89523095 1.6226703 8793889
1.652339 0.89523095 1.6226703 8989983
1.6682899 0.89523095 1.6226703 8990753
1.7544174 0.93253225 1.6902815 8925216
1.7710329 0.93253225 1.6902815 9056289
1.7161427 0.89523095 1.6226703 9122082
1.6654747 0.86079901 1.5602599 9121826
1.680812 0.86079901 1.5602599 9188132
1.6961495 0.86079901 1.5602599 9319461
1.7114869 0.86079901 1.5602599 9451301
1.2471509 0.62168819 1.1268544 9517350
0.96374899 0.47618666 0.86312246 9517094
0.95197868 0.46626613 0.84514076 9778983
0.94068879 0.45675051 0.82789302 9648167
1.1623131 0.55951941 1.014169 9516584
0 0 0 9516581
0 0 0 9320744
0 0 0 9123365
0 0 0 9320488
0 0 0 9320231
0 0 0 9320231
0 0 0 9386025
0 0 0 9516840
0 0 0 9123624
0 0 0 9123622
0 0 0 9188389
0 0 0 9188644
0 0 0 9385508
0 0 0 9319715
0 0 0 9320232
0 0 0 8859682
0 0 0 8991007
-1.344874 0.63276523 1.1268544 9057057
-1.333797 0.63276523 1.1268544 9187872
-1.3227199 0.63276523 1.1268544 9187872
0 0 0 9122336
-0.76754707 0.3734352 0.66502881 9056546
-0.77369326 0.37965912 0.67611259 9187875
-0.78004789 0.38609403 0.68757218 9384223
-0.77328902 0.38609403 0.68757218 9253409
-0.75375462 0.37965912 0.67611259 9384736
-0.73486072 0.3734352 0.66502881 9450016
-0.74046218 0.37965912 0.67611259 9449503
-0.74625355 0.38609403 0.68757218 9383710
-0.83904207 0.43806824 0.78012997 9253409
-0.83137333 0.43806824 0.78012997 9384225
-0.8237046 0.43806824 0.78012997 9384225
-0.83203655 0.44665778 0.79542661 9449762
-0.85785908 0.46488872 0.82789302 9712677
-0.84972084 0.46488872 0.82789302 9384225
-0.82475096 0.45559093 0.81133515 9318430
-0.83344436 0.46488872 0.82789302 9187359
-0.80880004 0.45559093 0.81133515 9122336
-0.80082458 0.45559093 0.81133515 9253155
-0.79284912 0.45559093 0.81133515 9515041
-0.78487366 0.45559093 0.81133515 9450016
-0.79275328 0.46488872 0.82789302 9253409
-0.78461504 0.46488872 0.82789302 9450018
-0.79265338 0.47457388 0.84514076 9580576
-0.78434557 0.47457388 0.84514076 9318176
-0.79254925 0.48467121 0.86312246 9318432
-0.76773006 0.47457388 0.84514076 9711904
-0.7594223 0.47457388 0.84514076 9712415
-0.75111449 0.47457388 0.84514076 9449757
-0.74280673 0.47457388 0.84514076 9777954
-0.7501266 0.48467121 0.86312246 9711647
-0.74164206 0.48467121 0.86312246 9908769
-0.73315752 0.48467121 0.86312246 9909024
-0.72467297 0.48467121 0.86312246 9580829
-0.73175776 0.49520755 0.88188601 9777694
-0.73915744 0.50621217 0.90148348 9842977
-0.80154425 0.55559874 0.98943311 9909025
-0.95483941 0.66998667 1.1931399 9712929
0 0 0 9974302
0 0 0 9778208
0 0 0 9974817
0 0 0 10040609
0 0 0 9908511
0 0 0 10170911
0 0 0 10106401
-2.4395297 1.8982955 3.380563 10040608
-2.8875585 2.2779548 4.0566759 10171681
-3.1640902 2.5310609 4.5074177 10171939
-3.119782 2.5310609 4.5074177 10170913
-2.7679265 2.2779548 4.0566759 10040608
-2.7280493 2.2779548 4.0566759 9909023
-2.9868577 2.5310609 4.5074177 10302497
-2.9425495 2.5310609 4.5074177 10171426
-2.8982413 2.5310609 4.5074177 10236704
-2.1404498 1.8982955 3.380563 10040095
-1.9451251 1.752273 3.1205199 10040608
-1.7777036 1.6271105 2.8976254 10171680
-1.6326052 1.5186365 2.7044504 9909022
-1.6060203 1.5186365 2.7044504 10106401
-1.5794355 1.5186365 2.7044504 10303010
-1.6637685 1.6271105 2.8976254 10039839
-1.6352848 1.6271105 2.8976254 10236705
-1.7304012 1.752273 3.1205199 10171681
-1.5783172 1.6271105 2.8976254 10106145
-0.48217037 0.50621217 0.90148348 10302499
-0.46301943 0.49520755 0.88188601 10367777
-0.44468343 0.48467121 0.86312246 10368288
-0.43619889 0.48467121 0.86312246 10040095
-0.40205151 0.45559093 0.81133515 10040096
-0.3789193 0.43806824 0.78012997 10040351
-0.37125057 0.43806824 0.78012997 10040352
-0.36358187 0.43806824 0.78012997 10301984
-0.36289182 0.44665778 0.79542661 10433825
-0.36217421 0.45559093 0.81133515 10499104
-0.35419875 0.45559093 0.81133515 10367777
-0.34622329 0.45559093 0.81133515 10302496
-0.34515086 0.46488872 0.82789302 10302497
-0.33701262 0.46488872 0.82789302 10302497
-0.32229689 0.45559093 0.81133515 10236962
-0.31432143 0.45559093 0.81133515 9908254
-0.30634597 0.45559093 0.81133515 10236704
-0.29837051 0.45559093 0.81133515 10171168
-0.28470105 0.44665778 0.79542661 10302497
-0.27688196 0.44665778 0.79542661 10170912
-0.27444413 0.45559093 0.81133515 9973787
-0.27190682 0.46488872 0.82789302 9974559
-0.26376858 0.46488872 0.82789302 9909792
-0.25563037 0.46488872 0.82789302 10170911
-0.2425423 0.45559093 0.81133515 10301984
-0.23456684 0.45559093 0.81133515 10433311
-0.22659136 0.45559093 0.81133515 10301982
-0.2186159 0.45559093 0.81133515 10105118
-0.20651025 0.44665778 0.79542661 10367263
-0.19869116 0.44665778 0.79542661 10170654
-0.19087209 0.44665778 0.79542661 10170910
-0.183053 0.44665778 0.79542661 10039323
-0.17523393 0.44665778 0.79542661 9973274
-0.16741484 0.44665778 0.79542661 9973532
-0.15652663 0.43806824 0.78012997 9842461
-0.14885791 0.43806824 0.78012997 10170142
-0.13852525 0.42980278 0.76541048 9973534
-0.13100122 0.42980278 0.76541048 10236189
-0.12347721 0.42980278 0.76541048 10039325
-0.11595318 0.42980278 0.76541048 10038812
-0.11051435 0.43806824 0.78012997 9908509
-0.10090514 0.42980278 0.76541048 10104861
-0.093381122 0.42980278 0.76541048 10039582
-0.085857108 0.42980278 0.76541048 10039327
-0.079839498 0.43806824 0.78012997 9973533
-0.072170787 0.43806824 0.78012997 9776671
0 0 0 9842973
0 0 0 10235934
0 0 0 10236191
0 0 0 10301983
0 0 0 10039324
0 0 0 10170397
0 0 0 10104347
0 0 0 10170911
0 0 0 9842718
0 0 0 10039325
0.048740219 1.752273 3.1205199 10170911
0.073742561 1.6271105 2.8976254 9973532
0.10222635 1.6271105 2.8976254 10170653
0.13071014 1.6271105 2.8976254 10104861
0.15919393 1.6271105 2.8976254 9973789
0.21895733 1.8982955 3.380563 10170396
0.25218841 1.8982955 3.380563 10170655
0.31136674 2.070868 3.687887 10170652
0.34761882 2.070868 3.687887 10368032
0.38387093 2.070868 3.687887 10498848
0.35548872 1.752273 3.1205199 10368290
0.3137579 1.4237217 2.5354223 10367777
0.33868122 1.4237217 2.5354223 10630432
0.34221601 1.3399733 2.3862798 10564894
0.36567327 1.3399733 2.3862798 10828066
0.3891305 1.3399733 2.3862798 10761503
0.50099939 1.6271105 2.8976254 10958882
0.5294832 1.6271105 2.8976254 10826783
0.55796695 1.6271105 2.8976254 10761762
0.58645076 1.6271105 2.8976254 10761247
0.61493456 1.6271105 2.8976254 10301981
0.64341831 1.6271105 2.8976254 10630175
0.67190212 1.6271105 2.8976254 10564640
0.61283767 1.4237217 2.5354223 10630433
0.3924683 0.87613648 1.5602599 10761506
0.40780574 0.87613648 1.5602599 10695456
0.44006887 0.91118187 1.6226703 10695456
0.45601982 0.91118187 1.6226703 10564895
0.47197074 0.91118187 1.6226703 10695456
0.43564433 0.81355524 1.4488127 10630433
0.4343729 0.7855016 1.3988537 10564640
0.44812369 0.7855016 1.3988537 10170398
0.382696 0.65084422 1.1590502 10105888
0.47562528 0.7855016 1.3988537 10302241
0.50685376 0.81355524 1.4488127 10368034
0 0 0 10303267
0 0 0 10434083
0 0 0 10171426
0 0 0 10631462
1.0790514 1.5186365 2.7044504 10434339
1.1056362 1.5186365 2.7044504 10302241
1.0614574 1.4237217 2.5354223 10367777
1.2415779 1.6271105 2.8976254 10367777
1.111304 1.4237217 2.5354223 10170398
0.72718549 0.91118187 1.6226703 10367777
0.68808925 0.84368694 1.5024725 10367518
0.67775649 0.81355524 1.4488127 10367776
0.69199842 0.81355524 1.4488127 10170398
0.68188721 0.7855016 1.3988537 9974045
0.72048217 0.81355524 1.4488127 10367776
0.76193613 0.84368694 1.5024725 10039839
0.74896598 0.81355524 1.4488127 10433313
0.76320785 0.81355524 1.4488127 10040097
0.77744979 0.81355524 1.4488127 10433570
0.79169166 0.81355524 1.4488127 10433572
0.80593354 0.81355524 1.4488127 10301984
0.82017547 0.81355524 1.4488127 10302497
0.83441734 0.81355524 1.4488127 10105889
0.88009113 0.84368694 1.5024725 10040353
0.89486051 0.84368694 1.5024725 10302499
0.9446156 0.87613648 1.5602599 9646625
0.95995307 0.87613648 1.5602599 9515554
0.97529048 0.87613648 1.5602599 9974820
1.0302529 0.91118187 1.6226703 10171169
1.6346936 1.4237217 2.5354223 10302497
1.6596169 1.4237217 2.5354223 10171681
0 0 0 10236191
1.9536726 1.6271105 2.8976254 10236706
1.9821564 1.6271105 2.8976254 9974046
1.8765974 1.5186365 2.7044504 10171171
1.9031823 1.5186365 2.7044504 9974818
1.9297673 1.5186365 2.7044504 10040610
1.9563521 1.5186365 2.7044504 9908767
2.1245754 1.6271105 2.8976254 9842976
2.153059 1.6271105 2.8976254 9777184
1.9088501 1.4237217 2.5354223 9646368
1.9337734 1.4237217 2.5354223 9646111
1.9586967 1.4237217 2.5354223 9448989
1.3224133 0.94914776 1.6902815 9186846
1.2854677 0.91118187 1.6226703 9186592
1.2050173 0.84368694 1.5024725 9318434
1.2197866 0.84368694 1.5024725 8990496
1.2345561 0.84368694 1.5024725 9317919
1.2973764 0.87613648 1.5602599 9252642
1.3127139 0.87613648 1.5602599 8990496
1.3811733 0.91118187 1.6226703 8990496
1.3433887 0.87613648 1.5602599 9252639
1.2616742 0.81355524 1.4488127 9318690
1.2319189 0.7855016 1.3988537 9581091
1.3379416 0.84368694 1.5024725 9253155
1.4609278 0.91118187 1.6226703 9253155
1.9432616 1.1989236 2.1350925 9122082
1.3328836 0.81355524 1.4488127 9383458
1.3006729 0.7855016 1.3988537 9383971
1.3613675 0.81355524 1.4488127 9252385
2.7512186 1.6271105 2.8976254 9056289
2.7797024 1.6271105 2.8976254 9121569
2.4571631 1.4237217 2.5354223 9056033
1.5885353 0.91118187 1.6226703 9056291
1.4856354 0.84368694 1.5024725 9056034
1.5004047 0.84368694 1.5024725 8990498
1.5734501 0.87613648 1.5602599 8858912
1.652339 0.91118187 1.6226703 8924448
1.6041249 0.87613648 1.5602599 9056289
1.6842408 0.91118187 1.6226703 8793371
1.7001917 0.91118187 1.6226703 8925731
1.5322702 0.81355524 1.4488127 9056289
1.4931841 0.7855016 1.3988537 8860450
1.680812 0.87613648 1.5602599 8793888
1.6961495 0.87613648 1.5602599 8925473
1.7114869 0.87613648 1.5602599 9188645
1.1224358 0.5694887 1.014169 9385508
0.96374899 0.48467121 0.86312246 9516582
0.95197868 0.47457388 0.84514076 9516581
0.96028644 0.47457388 0.84514076 9516838
1.1623131 0.5694887 1.014169 9582887
0 0 0 9451559
0 0 0 9451560
0 0 0 9385508
0 0 0 9516840
0 0 0 9385512
0 0 0 9255208
0 0 0 9386024
0 0 0 9319461
0 0 0 9451303
0 0 0 9254951
0 0 0 9057573
0 0 0 9254440
0 0 0 9057317
0 0 0 8860709
0 0 0 8992038
0 0 0 8991266
0 0 0 8991521
-1.3085259 0.62644106 1.0963988 9122336
-1.333797 0.64384228 1.1268544 9122336
-1.3605119 0.66223776 1.1590502 9122592
0 0 0 9056543
0 0 0 9188129
-0.81441402 0.40663722 0.71169752 9253665
-0.78004789 0.3928529 0.68757218 9318945
-0.76040083 0.38630533 0.67611259 9450016
-0.74139798 0.37997246 0.66502881 9450016
-0.73486072 0.37997246 0.66502881 9253407
-0.74046218 0.38630533 0.67611259 9187873
-0.73381597 0.38630533 0.67611259 9449503
-0.76544189 0.40663722 0.71169752 9253409
-0.80058169 0.42922816 0.75123626 9318432
-0.80816299 0.43732679 0.76541048 9384482
-0.80063897 0.43732679 0.76541048 9712161
-0.79311496 0.43732679 0.76541048 9384223
-0.78559089 0.43732679 0.76541048 9318430
-0.79302979 0.44573694 0.78012997 9384225
-0.78536105 0.44573694 0.78012997 9253409
-0.79294121 0.45447686 0.79542661 9384223
-0.80082458 0.46356642 0.81133515 9318430
-0.79284912 0.46356642 0.81133515 9450016
-0.78487366 0.46356642 0.81133515 9318174
-0.77689815 0.46356642 0.81133515 9318432
-0.78461504 0.47302696 0.82789302 9581089
-0.79265338 0.48288167 0.84514076 9384225
-0.78434557 0.48288167 0.84514076 9252639
-0.77603781 0.48288167 0.84514076 9515297
-0.75206214 0.47302696 0.82789302 9711391
-0.7439239 0.47302696 0.82789302 9449503
-0.73578566 0.47302696 0.82789302 9383710
-0.72764742 0.47302696 0.82789302 9712161
-0.73449898 0.48288167 0.84514076 9712162
-0.72619122 0.48288167 0.84514076 9515296
-0.71788341 0.48288167 0.84514076 9777953
-0.70957565 0.48288167 0.84514076 9843231
-0.7480191 0.51507378 0.90148348 9974559
-0.73915744 0.51507378 0.90148348 9777441
-0.82158285 0.57945806 1.014169 9711905
-0.95483941 0.68171531 1.1931399 9712161
-0.94311076 0.68171531 1.1931399 9843231
-0.95960581 0.70237333 1.2292956 9843489
0 0 0 9712160
0 0 0 9646622
0 0 0 10040610
0 0 0 10171681
0 0 0 10237474
-3.2527063 2.5753691 4.5074177 10040608
-3.2083981 2.5753691 4.5074177 10105631
-3.1640902 2.5753691 4.5074177 9777695
-2.8078039 2.3178322 4.0566759 10040610
-2.7679265 2.3178322 4.0566759 10236961
-2.7280493 2.3178322 4.0566759 10105888
-2.9868577 2.5753691 4.5074177 10236706
-2.9425495 2.5753691 4.5074177 10171681
-2.8982413 2.5753691 4.5074177 10301984
-2.5685399 2.3178322 4.0566759 10302240
-1.9451251 1.7829478 3.1205199 10040095
-1.7777036 1.6555942 2.8976254 10236961
-1.6326052 1.5452213 2.7044504 10434083
-1.6060203 1.5452213 2.7044504 10302496
-1.5794355 1.5452213 2.7044504 10236704
-1.6637685 1.6555942 2.8976254 10368290
-1.6352848 1.6555942 2.8976254 10433311
-1.6068009 1.6555942 2.8976254 10368289
-1.473096 1.5452213 2.7044504 10172194
-0.48217037 0.51507378 0.90148348 10237474
-0.47330877 0.51507378 0.90148348 10172194
-0.46444714 0.51507378 0.90148348 9974558
-0.43619889 0.49315575 0.86312246 10171168
-0.38658801 0.44573694 0.78012997 10171426
-0.36488524 0.42922816 0.75123626 10236704
-0.36424583 0.43732679 0.76541048 10236704
-0.35672182 0.43732679 0.76541048 10237217
-0.35591316 0.44573694 0.78012997 10170911
-0.34824443 0.44573694 0.78012997 10498849
-0.34725368 0.45447686 0.79542661 10368288
-0.34622329 0.46356642 0.81133515 10367775
-0.34515086 0.47302696 0.82789302 10170911
-0.33701262 0.47302696 0.82789302 9974300
-0.32887441 0.47302696 0.82789302 10170653
-0.31432143 0.46356642 0.81133515 9842973
-0.30634597 0.46356642 0.81133515 10105632
-0.29837051 0.46356642 0.81133515 10170911
-0.29039505 0.46356642 0.81133515 10301982
-0.28241959 0.46356642 0.81133515 9974302
-0.27444413 0.46356642 0.81133515 10039323
-0.27190682 0.47302696 0.82789302 9908509
-0.26376858 0.47302696 0.82789302 10105888
-0.25563037 0.47302696 0.82789302 10170911
-0.2425423 0.46356642 0.81133515 9908509
-0.23456684 0.46356642 0.81133515 10105376
-0.22659136 0.46356642 0.81133515 10105118
-0.2186159 0.46356642 0.81133515 10236704
-0.20651025 0.45447686 0.79542661 10104605
-0.19869116 0.45447686 0.79542661 10170910
-0.19087209 0.45447686 0.79542661 10170399
-0.183053 0.45447686 0.79542661 9907484
-0.17523393 0.45447686 0.79542661 9645598
-0.16419533 0.44573694 0.78012997 9973532
-0.15652663 0.44573694 0.78012997 10039325
-0.14885791 0.44573694 0.78012997 9973534
-0.13852525 0.43732679 0.76541048 10236705
-0.13100122 0.43732679 0.76541048 10301727
-0.12347721 0.43732679 0.76541048 10170398
-0.11595318 0.43732679 0.76541048 10104605
-0.10842916 0.43732679 0.76541048 9842972
-0.099036537 0.42922816 0.75123626 9908253
-0.089985445 0.421424 0.73757738 10105119
-0.085857108 0.43732679 0.76541048 10039071
-0.079839498 0.44573694 0.78012997 9973534
0 0 0 9711391
0 0 0 9645598
0 0 0 9973532
0 0 0 9842718
0 0 0 10105375
0 0 0 10498590
0 0 0 10170909
0 0 0 10301982
0 0 0 10104603
0 0 0 10039325
0 0 0 9777438
0.048740219 1.7829478 3.1205199 9973534
0.073742561 1.6555942 2.8976254 10039325
0.10222635 1.6555942 2.8976254 10104863
0.13071014 1.6555942 2.8976254 10170655
0.17143962 1.7829478 3.1205199 10170398
0.21895733 1.9315267 3.380563 10236191
0.25218841 1.9315267 3.380563 10236191
0.28541949 1.9315267 3.380563 10105116
0.29413903 1.7829478 3.1205199 10236191
0.32481387 1.7829478 3.1205199 10236706
0.35548872 1.7829478 3.1205199 10301984
0.38616356 1.7829478 3.1205199 10301984
0.41683844 1.7829478 3.1205199 10433568
0.41554803 1.6555942 2.8976254 10433825
0.4440318 1.6555942 2.8976254 10629919
0.47251561 1.6555942 2.8976254 10827042
0.50099939 1.6555942 2.8976254 10695969
0.57021266 1.7829478 3.1205199 10761247
0.60088754 1.7829478 3.1205199 10892832
0.63156235 1.7829478 3.1205199 10629662
0.61493456 1.6555942 2.8976254 10367777
0.56299102 1.448645 2.5354223 10433568
0.67190212 1.6555942 2.8976254 10564640
0.61283767 1.448645 2.5354223 10302242
0.3924683 0.89147389 1.5602599 10433825
0.40780574 0.89147389 1.5602599 10499104
0.44006887 0.92713284 1.6226703 10629663
0.45601982 0.92713284 1.6226703 10301982
0.45381802 0.89147389 1.5602599 10367777
0.43564433 0.82779711 1.4488127 10433313
0.4498862 0.82779711 1.4488127 10301984
0.43318623 0.77261066 1.3522252 10367777
0.382696 0.66223776 1.1590502 10302240
0.40568039 0.68171531 1.1931399 10236704
0.48937607 0.79925239 1.3988537 10367777
0.52109569 0.82779711 1.4488127 10236706
0 0 0 10367776
0.73277265 1.1037295 1.9317503 10236705
1.0524665 1.5452213 2.7044504 10106660
0.64743084 0.92713284 1.6226703 10106401
1.2757342 1.7829478 3.1205199 10171683
1.3064091 1.7829478 3.1205199 10040095
1.3370839 1.7829478 3.1205199 10301985
1.1853908 1.5452213 2.7044504 10433311
0.72718549 0.92713284 1.6226703 10236191
0.64063483 0.79925239 1.3988537 10564640
0.63257271 0.77261066 1.3522252 10433827
0.69199842 0.82779711 1.4488127 10236447
0.7062403 0.82779711 1.4488127 10171170
0.72048217 0.82779711 1.4488127 10105118
0.7347241 0.82779711 1.4488127 10433570
0.74896598 0.82779711 1.4488127 10170911
0.76320785 0.82779711 1.4488127 10171424
0.77744979 0.82779711 1.4488127 10106146
0.79169166 0.82779711 1.4488127 10302497
0.80593354 0.82779711 1.4488127 10367777
0.79189354 0.79925239 1.3988537 10368290
0.80564433 0.79925239 1.3988537 10368031
0.84865928 0.82779711 1.4488127 10367777
0.89486051 0.85845631 1.5024725 9712161
0.98240024 0.92713284 1.6226703 9055517
1.3865988 1.2876846 2.2537088 8465694
1.8112537 1.6555942 2.8976254 9384225
1.430907 1.2876846 2.2537088 9580833
1.7436731 1.5452213 2.7044504 9843230
1.7702579 1.5452213 2.7044504 9909794
0 0 0 10236962
1.9536726 1.6555942 2.8976254 10170911
1.9821564 1.6555942 2.8976254 10236705
1.8765974 1.5452213 2.7044504 10236704
1.9031823 1.5452213 2.7044504 10237731
2.2266545 1.7829478 3.1205199 10040611
2.0960915 1.6555942 2.8976254 10040608
2.1245754 1.6555942 2.8976254 9974563
1.2559512 0.96576333 1.6902815 9645855
1.1311704 0.85845631 1.5024725 9515296
1.9337734 1.448645 2.5354223 9383712
1.1607091 0.85845631 1.5024725 9515296
1.1754786 0.85845631 1.5024725 9383712
1.1902479 0.85845631 1.5024725 8989983
1.2050173 0.85845631 1.5024725 9121569
1.2197866 0.85845631 1.5024725 9186848
1.1904647 0.82779711 1.4488127 9317662
1.2493254 0.85845631 1.5024725 9252639
1.3127139 0.89147389 1.5602599 9252639
1.3811733 0.92713284 1.6226703 9253155
1.2474322 0.82779711 1.4488127 9187104
1.2616742 0.82779711 1.4488127 9187616
1.2319189 0.79925239 1.3988537 9187359
1.3379416 0.85845631 1.5024725 9121568
1.4047384 0.89147389 1.5602599 8925475
1.4768788 0.92713284 1.6226703 9056805
1.3328836 0.82779711 1.4488127 9187362
1.3471255 0.82779711 1.4488127 9055519
1.3613675 0.82779711 1.4488127 9252385
1.4265579 0.85845631 1.5024725 9056033
1.6214931 0.96576333 1.6902815 8990753
1.4560966 0.85845631 1.5024725 8991266
1.470866 0.85845631 1.5024725 8990496
1.4856354 0.85845631 1.5024725 8925218
1.5004047 0.85845631 1.5024725 8859682
1.5151742 0.85845631 1.5024725 9056804
1.4753026 0.82779711 1.4488127 9187620
1.4895445 0.82779711 1.4488127 9187363
1.5037863 0.82779711 1.4488127 9122081
1.5180283 0.82779711 1.4488127 9188129
1.4794333 0.79925239 1.3988537 8991009
1.4931841 0.79925239 1.3988537 9122595
1.5069349 0.79925239 1.3988537 9122339
1.6961495 0.89147389 1.5602599 9122339
1.7114869 0.89147389 1.5602599 9056802
1.6628679 0.85845631 1.5024725 9056546
0.94367087 0.48288167 0.84514076 9384996
0.95197868 0.48288167 0.84514076 9319202
0.96028644 0.48288167 0.84514076 9385253
0.96859419 0.48288167 0.84514076 9319460
0 0 0 9385508
0 0 0 9451558
0 0 0 9321256
0 0 0 9058086
0 0 0 9123881
0 0 0 9320485
0 0 0 9122852
0 0 0 9385510
0 0 0 9254439
0 0 0 9254695
0 0 0 9123879
0 0 0 8861479
0 0 0 8861479
0 0 0 8991525
0 0 0 9057060
0 0 0 8794657
0 0 0 8729123
-1.3085259 0.63721871 1.0963988 8794657
-1.3719054 0.67363125 1.1590502 8860191
0 0 0 8925727
0 0 0 9122336
0 0 0 9319202
-0.81441402 0.41363323 0.71169752 9187616
-0.78004789 0.39961177 0.68757218 9318689
-0.77328902 0.39961177 0.68757218 9318689
-0.77974612 0.40650159 0.69942683 9253153
-0.75977129 0.39961177 0.68757218 9318432
-0.75301242 0.39961177 0.68757218 9384225
-0.7217862 0.38650972 0.66502881 9449503
-0.72716975 0.39295155 0.67611259 9450016
-0.72052348 0.39295155 0.67611259 9515553
-0.79319704 0.43661284 0.75123626 9515552
-0.78581238 0.43661284 0.75123626 9383453
-0.79311496 0.4448508 0.76541048 9187361
-0.75702399 0.4286744 0.73757738 9318944
-0.77806687 0.4448508 0.76541048 9449758
-0.78536105 0.45340565 0.78012997 9383967
-0.77769232 0.45340565 0.78012997 9384224
-0.77002364 0.45340565 0.78012997 9318430
-0.70790094 0.42101952 0.72440636 9318430
-0.78487366 0.47154188 0.81133515 9252638
-0.77689815 0.47154188 0.81133515 9448989
-0.76892269 0.47154188 0.81133515 9384225
-0.7316801 0.45340565 0.78012997 9515555
-0.72401136 0.45340565 0.78012997 9711904
-0.6422382 0.40650159 0.69942683 9580575
-0.70867395 0.45340565 0.78012997 9646368
-0.70100522 0.45340565 0.78012997 9383454
-0.70693129 0.46229595 0.79542661 9449504
-0.71309447 0.47154188 0.81133515 9515296
-0.70511901 0.47154188 0.81133515 9777954
-0.69714355 0.47154188 0.81133515 9842721
-0.70323277 0.48116517 0.82789302 9776925
-0.70957565 0.49118942 0.84514076 9646366
-0.78281069 0.5483045 0.94341296 9777439
0 0 0 9842977
0 0 0 9777184
0 0 0 9974817
-1.0020552 0.73678416 1.2677112 9909023
0 0 0 10040356
0 0 0 9974817
0 0 0 9974817
0 0 0 9777951
0 0 0 9844001
0 0 0 10106403
-3.2527063 2.6196771 4.5074177 9908767
-3.2083981 2.6196771 4.5074177 9646622
-3.1640902 2.6196771 4.5074177 9843231
-3.119782 2.6196771 4.5074177 9974817
-3.0754738 2.6196771 4.5074177 10302754
-3.0311658 2.6196771 4.5074177 10302499
-2.9868577 2.6196771 4.5074177 10170914
-2.9425495 2.6196771 4.5074177 10170911
-2.8982413 2.6196771 4.5074177 10236961
-2.5685399 2.3577094 4.0566759 10301984
-2.5286627 2.3577094 4.0566759 10105118
-1.9144502 1.8136226 3.1205199 10039838
-1.7492199 1.6840781 2.8976254 10236191
-1.6060203 1.5718062 2.7044504 10170911
-1.5794355 1.5718062 2.7044504 10368288
-1.6637685 1.6840781 2.8976254 10236961
-1.761076 1.8136226 3.1205199 10301984
-1.7304012 1.8136226 3.1205199 10172194
-0.5261057 0.56135935 0.96587515 10106401
-0.50459695 0.5483045 0.94341296 10171936
-0.47330877 0.52393538 0.90148348 10499876
-0.46444714 0.52393538 0.90148348 10499361
-0.44568148 0.51254553 0.88188601 10236704
-0.37226993 0.43661284 0.75123626 10367777
-0.35825095 0.4286744 0.73757738 10368034
-0.35750055 0.43661284 0.75123626 10433570
-0.35672182 0.4448508 0.76541048 10236960
-0.35591316 0.45340565 0.78012997 10236446
-0.34824443 0.45340565 0.78012997 10498848
-0.36142731 0.48116517 0.82789302 10040608
-0.35328907 0.48116517 0.82789302 10040093
-0.34515086 0.48116517 0.82789302 10170912
-0.33701262 0.48116517 0.82789302 10105116
-0.32887441 0.48116517 0.82789302 10236191
-0.31432143 0.47154188 0.81133515 10105377
