# .PCD v0.7 - Point Cloud Data file format
VERSION 0.7
FIELDS x y z rgb
SIZE 4 4 4 4
TYPE F F F U
COUNT 1 1 1 1
WIDTH 1237
HEIGHT 1
VIEWPOINT 0 0 0 1 0 0 0
POINTS 1237
DATA ascii
1.587965 -0.15389016 1.763772 9923145
1.605303 -0.15389016 1.763772 9856843
1.6963974 -0.16088517 1.8439435 10053964
1.7145234 -0.16088517 1.8439435 9987914
1.7326494 -0.16088517 1.8439435 9988172
1.7507756 -0.16088517 1.8439435 10053708
1.7689016 -0.16088517 1.8439435 10184524
1.7870276 -0.16088517 1.8439435 10185294
1.8911134 -0.16854636 1.9317503 9594441
1.9101025 -0.16854636 1.9317503 9726028
1.9290917 -0.16854636 1.9317503 9987403
1.9480809 -0.16854636 1.9317503 9856587
2.0654237 -0.17697369 2.028338 9725001
2.0853624 -0.17697369 2.028338 9856587
2.2161064 -0.18628809 2.1350925 9987403
2.2370944 -0.18628809 2.1350925 9790794
2.2580824 -0.18628809 2.1350925 9462604
2.5471964 -0.20820433 2.3862798 9396811
2.5706537 -0.20820433 2.3862798 9725001
2.594111 -0.20820433 2.3862798 9856074
2.617568 -0.20820433 2.3862798 9723975
2.6410253 -0.20820433 2.3862798 9527623
2.6644826 -0.20820433 2.3862798 9855819
2.53861 -0.19663744 2.2537088 9987405
2.5607641 -0.19663744 2.2537088 9857102
2.5829182 -0.19663744 2.2537088 9857101
2.3445649 -0.17697369 2.028338 10054222
2.2519081 -0.16854636 1.9317503 10315850
2.1676745 -0.16088517 1.8439435 9855047
2.1858006 -0.16088517 1.8439435 9002055
2.2039268 -0.16088517 1.8439435 8016441
2.3278649 -0.16854636 1.9317503 9592902
2.5938914 -0.18628809 2.1350925 10053196
0 0 0 10053453
0 0 0 9922382
0 0 0 10249805
0 0 0 9791307
0 0 0 9790796
0 0 0 9922379
0 0 0 10053708
0 0 0 10053194
0 0 0 6438442
0 0 0 6832435
-3.4582472 -0.22433576 2.8976254 6503977
-3.6935916 -0.24159236 3.1205199 6504234
-3.6629167 -0.24159236 3.1205199 6570285
-3.6322417 -0.24159236 3.1205199 4728597
-3.601567 -0.24159236 3.1205199 2230534
-3.5708921 -0.24159236 3.1205199 1313037
-3.5402174 -0.24159236 3.1205199 1378571
-3.8020041 -0.26172504 3.380563 1378314
-3.7687731 -0.26172504 3.380563 1574921
-4.4826508 -0.31407008 4.0566759 1771785
-4.0388846 -0.28551823 3.687887 2493195
-4.4028959 -0.31407008 4.0566759 4992032
-4.3630185 -0.31407008 4.0566759 7490353
-4.3231416 -0.31407008 4.0566759 6108704
-4.7591825 -0.34896675 4.5074177 2427655
-4.2433867 -0.31407008 4.0566759 1640720
-4.2035093 -0.31407008 4.0566759 2166291
-3.78512 -0.28551823 3.687887 6702139
-3.1721191 -0.24159236 3.1205199 9527876
-3.1414442 -0.24159236 3.1205199 9724482
-3.1107693 -0.24159236 3.1205199 9856069
-3.0800946 -0.24159236 3.1205199 9856069
-3.0494196 -0.24159236 3.1205199 9987655
-3.0187449 -0.24159236 3.1205199 10184520
-2.98807 -0.24159236 3.1205199 10184264
-2.4028835 -0.19629379 2.5354223 10053446
-2.3779602 -0.19629379 2.5354223 10315848
-2.6891849 -0.22433576 2.8976254 10381640
-2.660701 -0.22433576 2.8976254 10381641
-2.6322174 -0.22433576 2.8976254 10513225
-2.6037335 -0.22433576 2.8976254 10447432
-2.5752497 -0.22433576 2.8976254 10381896
-2.7426713 -0.24159236 3.1205199 10513480
-2.7119963 -0.24159236 3.1205199 10841418
-2.6813214 -0.24159236 3.1205199 10776140
-2.8715336 -0.26172504 3.380563 10710860
-2.8383026 -0.26172504 3.380563 10776138
-2.5892968 -0.24159236 3.1205199 10907982
-2.2174723 -0.20938003 2.7044504 10972746
-2.1908875 -0.20938003 2.7044504 10776651
-2.4972725 -0.24159236 3.1205199 11235662
-2.4665976 -0.24159236 3.1205199 11104333
-2.4359226 -0.24159236 3.1205199 11498832
-2.4052479 -0.24159236 3.1205199 11433293
-2.374573 -0.24159236 3.1205199 11499086
-2.3438981 -0.24159236 3.1205199 11498830
-2.3132234 -0.24159236 3.1205199 11826513
-2.2825484 -0.24159236 3.1205199 11826511
-1.9516237 -0.20938003 2.7044504 11695695
-1.8047239 -0.19629379 2.5354223 11828307
-1.7798005 -0.19629379 2.5354223 12024400
-1.7548773 -0.19629379 2.5354223 11827536
-1.729954 -0.19629379 2.5354223 11893329
-1.6047347 -0.1847471 2.3862798 12155987
-1.5812775 -0.1847471 2.3862798 12089933
-1.5578202 -0.1847471 2.3862798 12221006
-1.0433669 -0.12562802 1.6226703 12352851
-0.91733563 -0.11216788 1.4488127 12352592
-0.81569761 -0.10131292 1.3086051 12549972
-0.77774537 -0.098146893 1.2677112 12483154
-0.74209327 -0.095172741 1.2292956 12549461
-0.68829447 -0.089734308 1.1590502 12550230
-0.65809816 -0.087241687 1.1268544 12418639
-0.62953407 -0.084883802 1.0963988 12878166
-0.5583899 -0.076602452 0.98943311 12681557
-0.51125485 -0.071379557 0.92197174 12812372
-0.491032 -0.069793344 0.90148348 12878164
-0.49312881 -0.071379557 0.92197174 12813142
-0.48406577 -0.071379557 0.92197174 13206872
-0.46444714 -0.069793344 0.90148348 13338457
-0.45558551 -0.069793344 0.90148348 13075799
-0.44672388 -0.069793344 0.90148348 13141593
-0.3789193 -0.060398091 0.78012997 13207896
-0.36424583 -0.059258498 0.76541048 12945237
-0.35011587 -0.058161125 0.75123626 7355425
-0.33649969 -0.057103645 0.73757738 3347995
-0.32336983 -0.05608394 0.72440636 2625298
-0.32199883 -0.057103645 0.73757738 2954264
-0.30912793 -0.05608394 0.72440636 3020057
-0.30200699 -0.05608394 0.72440636 2100497
-0.29488602 -0.05608394 0.72440636 1838096
-0.29299718 -0.057103645 0.73757738 1705996
-0.28064415 -0.05608394 0.72440636 1574668
-0.27352318 -0.05608394 0.72440636 1443853
-0.27124593 -0.057103645 0.73757738 1574668
-0.2639955 -0.057103645 0.73757738 1705740
-0.26149964 -0.058161125 0.75123626 1771532
-0.25411496 -0.058161125 0.75123626 2099727
-0.25138554 -0.059258498 0.76541048 2297104
-0.24386151 -0.059258498 0.76541048 3085077
-0.24560563 -0.061582364 0.79542661 3413525
-0.2425423 -0.062814012 0.81133515 3610388
-0.23935391 -0.064095929 0.82789302 3807254
-0.23121569 -0.064095929 0.82789302 3872788
-0.23257011 -0.066823415 0.86312246 4069910
-0.228957 -0.0682761 0.88188601 4267032
-0.22028802 -0.0682761 0.88188601 4594967
-0.21632169 -0.069793344 0.90148348 4529942
0 0 0 4792602
0 0 0 5580568
0 0 0 3148293
0 0 0 1114882
0 0 0 852228
0 0 0 5714208
0 0 0 12287829
0 0 0 9656628
0 0 0 13338969
0 0 0 13404762
0 0 0 13338969
-0.98984003 -0.62814015 8.1133518 13471325
-0.91008538 -0.62814015 8.1133518 13930079
-0.69194227 -0.52345008 6.761126 13865311
-0.53612578 -0.44867152 5.7952509 13995100
-0.30491886 -0.28551823 3.687887 14126686
-0.24627787 -0.26172504 3.380563 13930844
-0.21304679 -0.26172504 3.380563 14061406
-0.21577886 -0.31407008 4.0566759 13601881
-0.19544616 -0.34896675 4.5074177 13272664
-0.1700303 -0.39258757 5.0708447 7357218
-0.12018367 -0.39258757 5.0708447 5647390
-0.070337035 -0.39258757 5.0708447 5844001
-0.020490404 -0.39258757 5.0708447 5843997
0.029356226 -0.39258757 5.0708447 5582368
0.090517551 -0.44867152 5.7952509 6041633
0.14748512 -0.44867152 5.7952509 5582368
0.20445271 -0.44867152 5.7952509 4858906
0.22874275 -0.39258757 5.0708447 5450014
0.27858937 -0.39258757 5.0708447 4990492
0.37535542 -0.44867152 5.7952509 5253151
0.37828264 -0.39258757 5.0708447 5515805
0.4892906 -0.44867152 5.7952509 1903368
0.4779759 -0.39258757 5.0708447 1509643
0.70376337 -0.52345008 6.761126 1312523
0.77022552 -0.52345008 6.761126 1312524
0.83668768 -0.52345008 6.761126 1509645
0.67736244 -0.39258757 5.0708447 7819330
0.72720903 -0.39258757 5.0708447 8935998
0.77705568 -0.39258757 5.0708447 9199427
0.82690233 -0.39258757 5.0708447 10119241
1.0019988 -0.44867152 5.7952509 11366988
1.0589664 -0.44867152 5.7952509 12089937
1.3019229 -0.52345008 6.761126 12287060
1.3683851 -0.52345008 6.761126 12550484
1.2298691 -0.44867152 5.7952509 12746581
1.125982 -0.39258757 5.0708447 12878423
1.1758287 -0.39258757 5.0708447 12812119
1.2256753 -0.39258757 5.0708447 13140822
1.1337974 -0.34896675 4.5074177 13207129
1.1781055 -0.34896675 4.5074177 13208157
1.2224137 -0.34896675 4.5074177 13403993
1.2667217 -0.34896675 4.5074177 13338458
1.3110299 -0.34896675 4.5074177 13469786
1.2198042 -0.31407008 4.0566759 13404506
1.0497345 -0.26172504 3.380563 13207643
1.181417 -0.28551823 3.687887 13404764
1.2176691 -0.28551823 3.687887 13338969
1.3793133 -0.31407008 4.0566759 13404250
1.2901733 -0.28551823 3.687887 13404252
1.3264254 -0.28551823 3.687887 13338460
1.3626775 -0.28551823 3.687887 13469274
1.2823521 -0.26172504 3.380563 13010522
1.1276428 -0.22433576 2.8976254 13272923
1.1561265 -0.22433576 2.8976254 13272665
1.1846102 -0.22433576 2.8976254 13207647
1.3064091 -0.24159236 3.1205199 13338458
1.3370839 -0.24159236 3.1205199 13207129
1.1853908 -0.20938003 2.7044504 12812889
1.0099798 -0.17448337 2.2537088 12812630
1.0321339 -0.17448337 2.2537088 12681303
1.054288 -0.17448337 2.2537088 12746326
1.076442 -0.17448337 2.2537088 12681044
1.0985961 -0.17448337 2.2537088 8144174
1.1207502 -0.17448337 2.2537088 1115661
1.0827513 -0.16530003 2.1350925 1049611
1.1650583 -0.17448337 2.2537088 1115661
1.1872123 -0.17448337 2.2537088 1115661
1.0884298 -0.15703504 2.028338 984332
1.1083684 -0.15703504 2.028338 853259
1.1283071 -0.15703504 2.028338 918539
1.1482457 -0.15703504 2.028338 918538
1.1681844 -0.15703504 2.028338 918795
1.188123 -0.15703504 2.028338 853515
1.2716439 -0.16530003 2.1350925 853259
1.2926319 -0.16530003 2.1350925 984077
1.31362 -0.16530003 2.1350925 984076
1.4087529 -0.17448337 2.2537088 918282
1.430907 -0.17448337 2.2537088 1049868
1.4530611 -0.17448337 2.2537088 853261
1.4752151 -0.17448337 2.2537088 918282
1.4973692 -0.17448337 2.2537088 984075
1.5195233 -0.17448337 2.2537088 984075
1.5416772 -0.17448337 2.2537088 787467
1.5638313 -0.17448337 2.2537088 787468
1.5025125 -0.16530003 2.1350925 721675
1.4473255 -0.15703504 2.028338 918284
1.4672642 -0.15703504 2.028338 852489
1.4872029 -0.15703504 2.028338 852489
1.5864646 -0.16530003 2.1350925 721673
1.6074528 -0.16530003 2.1350925 852491
1.7189097 -0.17448337 2.2537088 852490
1.6494288 -0.16530003 2.1350925 918282
1.3224133 -0.13086252 1.6902815 852489
1.3972476 -0.1365522 1.763772 1575173
1.4145855 -0.1365522 1.763772 9461561
1.4970108 -0.14275911 1.8439435 10250312
1.515137 -0.14275911 1.8439435 10316364
1.533263 -0.14275911 1.8439435 10250573
1.551389 -0.14275911 1.8439435 10250827
1.5012753 -0.1365522 1.763772 10185034
1.4553376 -0.13086252 1.6902815 10250575
1.4719532 -0.13086252 1.6902815 9988684
1.4885688 -0.13086252 1.6902815 10053192
1.5051843 -0.13086252 1.6902815 9987403
1.587965 -0.1365522 1.763772 10249803
1.6782713 -0.14275911 1.8439435 10118989
1.6963974 -0.14275911 1.8439435 10381389
1.6399789 -0.1365522 1.763772 9922891
1.7326494 -0.14275911 1.8439435 9857358
1.7507756 -0.14275911 1.8439435 9922123
1.7689016 -0.14275911 1.8439435 9791050
1.7870276 -0.14275911 1.8439435 9529161
1.8051536 -0.14275911 1.8439435 9659978
1.9101025 -0.14955717 1.9317503 9922123
1.9290917 -0.14955717 1.9317503 9987916
1.9480809 -0.14955717 1.9317503 9856585
1.9670701 -0.14955717 1.9317503 9725516
2.0853624 -0.15703504 2.028338 9790794
2.1053011 -0.15703504 2.028338 9922380
2.2370944 -0.16530003 2.1350925 9856587
2.2580824 -0.16530003 2.1350925 9857100
2.062016 -0.14955717 1.9317503 9659721
2.3000586 -0.16530003 2.1350925 9790794
2.4499936 -0.17448337 2.2537088 9593417
2.4721477 -0.17448337 2.2537088 9527883
2.4943018 -0.17448337 2.2537088 9462856
2.5164559 -0.17448337 2.2537088 9660237
2.53861 -0.17448337 2.2537088 9528651
2.5607641 -0.17448337 2.2537088 9791052
2.5829182 -0.17448337 2.2537088 9987403
2.3445649 -0.15703504 2.028338 9790792
2.2519081 -0.14955717 1.9317503 9725514
2.1676745 -0.14275911 1.8439435 10118221
2.1858006 -0.14275911 1.8439435 9001539
2.2039268 -0.14275911 1.8439435 7885627
2.3278649 -0.14955717 1.9317503 9593674
2.7379966 -0.17448337 2.2537088 9725003
0 0 0 9988174
0 0 0 9988430
0 0 0 10119503
0 0 0 9988687
0 0 0 9791312
0 0 0 9791566
0 0 0 9791563
0 0 0 9988171
0 0 0 5386786
0 0 0 5715235
-3.7242663 -0.21091752 3.1205199 3743762
-3.6935916 -0.21091752 3.1205199 3348494
-3.9681594 -0.22849396 3.380563 3676689
-3.9349284 -0.22849396 3.380563 3283473
-3.9016974 -0.22849396 3.380563 3349273
-3.8684664 -0.22849396 3.380563 3349017
-3.8352351 -0.22849396 3.380563 3283224
-3.8020041 -0.22849396 3.380563 3086104
-3.7687731 -0.22849396 3.380563 3020827
-3.7355418 -0.22849396 3.380563 3151897
-4.0388846 -0.24926613 3.687887 3283226
-4.4028959 -0.27419278 4.0566759 3545884
-4.3630185 -0.27419278 4.0566759 3940378
-4.3231416 -0.27419278 4.0566759 3940116
-4.7591825 -0.30465862 4.5074177 3610899
-4.7148743 -0.30465862 4.5074177 3480089
-4.6705661 -0.30465862 4.5074177 3612188
-4.1636324 -0.27419278 4.0566759 4071456
-3.4364622 -0.22849396 3.380563 4728100
-3.4032311 -0.22849396 3.380563 8674635
-3.1107693 -0.21091752 3.1205199 9198912
-3.0800946 -0.21091752 3.1205199 9330754
-3.0494196 -0.21091752 3.1205199 9527874
-3.0187449 -0.21091752 3.1205199 9790018
-2.98807 -0.21091752 3.1205199 9855555
-2.9573951 -0.21091752 3.1205199 9987397
-2.9267204 -0.21091752 3.1205199 10118726
-2.8960454 -0.21091752 3.1205199 9921862
-2.8653705 -0.21091752 3.1205199 10053446
-2.8346958 -0.21091752 3.1205199 10381895
-2.8040209 -0.21091752 3.1205199 10315587
-2.7733459 -0.21091752 3.1205199 10119239
-2.7426713 -0.21091752 3.1205199 10447431
-2.7119963 -0.21091752 3.1205199 10447433
-2.6813214 -0.21091752 3.1205199 10578246
-2.6506467 -0.21091752 3.1205199 10645065
-2.8383026 -0.22849396 3.380563 10644813
-2.8050716 -0.22849396 3.380563 10841933
-2.5586221 -0.21091752 3.1205199 10972747
-2.3473794 -0.19585197 2.8976254 10906952
-2.3188956 -0.19585197 2.8976254 11038538
-2.4665976 -0.21091752 3.1205199 10972747
-2.4359226 -0.21091752 3.1205199 11170636
-2.4052479 -0.21091752 3.1205199 11366730
-2.374573 -0.21091752 3.1205199 11301711
-2.3438981 -0.21091752 3.1205199 11432780
-2.3132234 -0.21091752 3.1205199 11498829
-2.2825484 -0.21091752 3.1205199 11761743
-2.0910254 -0.19585197 2.8976254 11499086
-1.8047239 -0.17137048 2.5354223 11957838
-1.7798005 -0.17137048 2.5354223 11892300
-1.7548773 -0.17137048 2.5354223 11762001
-1.729954 -0.17137048 2.5354223 12089166
-1.6047347 -0.16128986 2.3862798 12024656
-1.5812775 -0.16128986 2.3862798 12089681
-1.1514323 -0.11921424 1.763772 12090451
-1.0433669 -0.10967711 1.6226703 12221525
-0.98789996 -0.10545876 1.5602599 12222039
-0.87195259 -0.094549224 1.3988537 12353110
-0.80283391 -0.088449277 1.3086051 12418646
-0.74209327 -0.083088711 1.2292956 12681301
-0.65108937 -0.074106149 1.0963988 12680533
-0.5778423 -0.066876285 0.98943311 12550228
-0.56811607 -0.066876285 0.98943311 12616277
-0.60247332 -0.07215599 1.0675462 12877909
-0.54866374 -0.066876285 0.98943311 12878165
-0.51387072 -0.063765757 0.94341296 12877909
-0.49312881 -0.062316533 0.92197174 12878418
-0.48406577 -0.062316533 0.92197174 13075285
-0.46444714 -0.060931724 0.90148348 12944214
-0.44568148 -0.059607118 0.88188601 13207129
-0.43701249 -0.059607118 0.88188601 13206871
-0.42834353 -0.059607118 0.88188601 13076567
-0.40218809 -0.05712349 0.84514076 12813398
-0.35672182 -0.051734481 0.76541048 12682322
-0.34273118 -0.050776437 0.75123626 8017488
-0.32924926 -0.049853228 0.73757738 2691865
-0.32199883 -0.049853228 0.73757738 3021599
-0.31474844 -0.049853228 0.73757738 3283229
-0.30200699 -0.048962992 0.72440636 2101010
-0.29488602 -0.048962992 0.72440636 1707024
-0.28776509 -0.048962992 0.72440636 1575696
-0.28064415 -0.048962992 0.72440636 1312266
-0.27352318 -0.048962992 0.72440636 1246731
-0.27124593 -0.049853228 0.73757738 1443082
-0.2639955 -0.049853228 0.73757738 1574412
-0.26149964 -0.050776437 0.75123626 1640459
-0.25890955 -0.051734481 0.76541048 2035217
-0.25138554 -0.051734481 0.76541048 2691092
-0.2534247 -0.053763285 0.79542661 3151638
-0.25051776 -0.054838553 0.81133515 3610391
-0.24749213 -0.055957705 0.82789302 3610136
-0.23935391 -0.055957705 0.82789302 3676181
-0.23121569 -0.055957705 0.82789302 3807252
-0.22772489 -0.05712349 0.84514076 4069910
-0.22408557 -0.058338884 0.86312246 4332312
-0.22028802 -0.059607118 0.88188601 4464409
-0.21161905 -0.059607118 0.88188601 4595479
-0.20746008 -0.060931724 0.90148348 4135960
0 0 0 4201237
0 0 0 4595737
0 0 0 4596253
0 0 0 2954776
0 0 0 1246988
0 0 0 2165261
0 0 0 7820082
0 0 0 12813659
0 0 0 13536092
0 0 0 13470556
0 0 0 13536864
-0.91008538 -0.54838556 8.1133518 13404762
-0.83033079 -0.54838556 8.1133518 13798749
-0.31274006 -0.22849396 3.380563 13995872
-0.27950895 -0.22849396 3.380563 13733468
-0.21109532 -0.19585197 2.8976254 13930847
-0.19665858 -0.21091752 3.1205199 13799263
-0.21577886 -0.27419278 4.0566759 13207895
0 0 0 12879193
-0.1700303 -0.34274095 5.0708447 7489063
-0.13735276 -0.39170393 5.7952509 5581599
-0.070337035 -0.34274095 5.0708447 5581596
-0.023417605 -0.39170393 5.7952509 5909790
0.033549972 -0.39170393 5.7952509 5647645
0.090517551 -0.39170393 5.7952509 6107426
0.14748512 -0.39170393 5.7952509 5384221
0.20445271 -0.39170393 5.7952509 4990746
0.26142028 -0.39170393 5.7952509 5253918
0.27858937 -0.34274095 5.0708447 4990231
0.37535542 -0.39170393 5.7952509 5122332
0.37828264 -0.34274095 5.0708447 5450784
0.4892906 -0.39170393 5.7952509 1969159
0.4779759 -0.34274095 5.0708447 1247501
0.60322571 -0.39170393 5.7952509 1378316
0.77022552 -0.45698792 6.761126 1312523
0.71716088 -0.39170393 5.7952509 1246731
0.67736244 -0.34274095 5.0708447 7556930
0.72720903 -0.34274095 5.0708447 8673088
0.77705568 -0.34274095 5.0708447 9132866
0.82690233 -0.34274095 5.0708447 10052933
0.87674892 -0.34274095 5.0708447 10447430
1.0589664 -0.39170393 5.7952509 11629647
1.1159339 -0.39170393 5.7952509 12286291
1.1729015 -0.39170393 5.7952509 12352595
1.2298691 -0.39170393 5.7952509 12746839
1.125982 -0.34274095 5.0708447 12616280
1.1758287 -0.34274095 5.0708447 12943961
1.2256753 -0.34274095 5.0708447 13141338
1.275522 -0.34274095 5.0708447 13141594
1.1781055 -0.30465862 4.5074177 13076571
1.2224137 -0.30465862 4.5074177 13141851
1.2667217 -0.30465862 4.5074177 13272924
1.3110299 -0.30465862 4.5074177 13338200
1.355338 -0.30465862 4.5074177 13338715
1.2596815 -0.27419278 4.0566759 13338713
1.181417 -0.24926613 3.687887 13338716
1.3394361 -0.27419278 4.0566759 13338460
1.2539212 -0.24926613 3.687887 13273178
1.4191908 -0.27419278 4.0566759 13404509
1.2158899 -0.22849396 3.380563 13207644
1.4989454 -0.27419278 4.0566759 12878935
1.2823521 -0.22849396 3.380563 13207129
1.2143846 -0.21091752 3.1205199 13272667
1.1561265 -0.19585197 2.8976254 13206874
1.8427273 -0.30465862 4.5074177 12944216
1.8870354 -0.30465862 4.5074177 12550230
1.5801901 -0.24926613 3.687887 12616023
1.3677588 -0.21091752 3.1205199 11959635
1.0099798 -0.15232931 2.2537088 11762258
1.0321339 -0.15232931 2.2537088 11497544
1.054288 -0.15232931 2.2537088 10774339
1.076442 -0.15232931 2.2537088 9262648
1.0985961 -0.15232931 2.2537088 5057823
1.1207502 -0.15232931 2.2537088 1049868
1.1429043 -0.15232931 2.2537088 984845
1.1650583 -0.15232931 2.2537088 919308
1.1872123 -0.15232931 2.2537088 853259
1.1457155 -0.14431198 2.1350925 853261
1.1083684 -0.13709639 2.028338 721675
1.1283071 -0.13709639 2.028338 853261
1.1482457 -0.13709639 2.028338 853260
1.1681844 -0.13709639 2.028338 918284
1.188123 -0.13709639 2.028338 787468
1.2080617 -0.13709639 2.028338 721674
1.2926319 -0.14431198 2.1350925 918282
1.31362 -0.14431198 2.1350925 918796
1.4916207 -0.16128986 2.3862798 984076
1.430907 -0.15232931 2.2537088 918539
1.4530611 -0.15232931 2.2537088 786954
1.4752151 -0.15232931 2.2537088 919052
1.4973692 -0.15232931 2.2537088 787466
1.5195233 -0.15232931 2.2537088 1115661
1.5416772 -0.15232931 2.2537088 918284
1.5638313 -0.15232931 2.2537088 918284
1.5025125 -0.14431198 2.1350925 787211
1.5235004 -0.14431198 2.1350925 787468
1.4672642 -0.13709639 2.028338 852489
1.5654767 -0.14431198 2.1350925 787211
1.5864646 -0.14431198 2.1350925 852489
1.6967556 -0.15232931 2.2537088 918283
1.7189097 -0.15232931 2.2537088 852491
1.3625716 -0.11921424 1.763772 787468
1.3224133 -0.11424698 1.6902815 918282
1.3390288 -0.11424698 1.6902815 1574660
1.4788848 -0.12463307 1.8439435 9527354
1.4970108 -0.12463307 1.8439435 10119241
1.515137 -0.12463307 1.8439435 10315594
1.533263 -0.12463307 1.8439435 9856328
1.551389 -0.12463307 1.8439435 9922891
1.5695151 -0.12463307 1.8439435 10118984
1.5186132 -0.11921424 1.763772 9988171
1.4719532 -0.11424698 1.6902815 10118988
1.4885688 -0.11424698 1.6902815 9921609
1.5051843 -0.11424698 1.6902815 9987402
1.587965 -0.11921424 1.763772 9922382
1.605303 -0.11921424 1.763772 10315855
1.622641 -0.11921424 1.763772 9725514
1.6399789 -0.11921424 1.763772 10118987
1.7326494 -0.12463307 1.8439435 10053454
1.7507756 -0.12463307 1.8439435 9923152
1.7689016 -0.12463307 1.8439435 9790539
1.7870276 -0.12463307 1.8439435 10052679
1.8911134 -0.13056798 1.9317503 9856587
1.9101025 -0.13056798 1.9317503 10183497
1.9290917 -0.13056798 1.9317503 9725001
2.045485 -0.13709639 2.028338 9855817
2.0654237 -0.13709639 2.028338 9659210
1.9860593 -0.13056798 1.9317503 9725003
2.0050485 -0.13056798 1.9317503 9855819
2.0240376 -0.13056798 1.9317503 9856587
2.0430269 -0.13056798 1.9317503 9659721
2.062016 -0.13056798 1.9317503 9725259
2.1850557 -0.13709639 2.028338 9462089
2.4499936 -0.15232931 2.2537088 9462345
2.4721477 -0.15232931 2.2537088 9527882
2.4943018 -0.15232931 2.2537088 9593416
2.5164559 -0.15232931 2.2537088 9724745
2.53861 -0.15232931 2.2537088 9528394
2.7113969 -0.16128986 2.3862798 9594187
2.3246262 -0.13709639 2.028338 9725003
2.2329187 -0.13056798 1.9317503 10053198
2.2519081 -0.13056798 1.9317503 9725001
2.1676745 -0.12463307 1.8439435 9462858
2.1858006 -0.12463307 1.8439435 8936260
2.2039268 -0.12463307 1.8439435 8146744
2.3278649 -0.13056798 1.9317503 9396551
2.4641969 -0.13709639 2.028338 9856075
0 0 0 9987661
0 0 0 9988172
0 0 0 10053964
0 0 0 9790792
0 0 0 9856589
0 0 0 9791309
0 0 0 9856845
0 0 0 9725003
0 0 0 3940625
0 0 0 4401435
-3.7242663 -0.18024266 3.1205199 3021331
-3.6935916 -0.18024266 3.1205199 2626321
-3.9681594 -0.19526288 3.380563 3283224
-3.9349284 -0.19526288 3.380563 3349015
-3.9016974 -0.19526288 3.380563 3545624
-3.8684664 -0.19526288 3.380563 3414808
-3.8352351 -0.19526288 3.380563 3611417
-3.8020041 -0.19526288 3.380563 3808537
-3.7687731 -0.19526288 3.380563 3611414
-3.7355418 -0.19526288 3.380563 3611671
-4.0388846 -0.21301405 3.687887 3677463
-4.4028959 -0.23431547 4.0566759 3742999
-4.3630185 -0.23431547 4.0566759 3743000
-4.3231416 -0.23431547 4.0566759 3809049
-4.2832642 -0.23431547 4.0566759 3874841
-4.7148743 -0.26035053 4.5074177 3940377
-4.6705661 -0.26035053 4.5074177 4071194
-4.1636324 -0.23431547 4.0566759 3545107
-3.4364622 -0.19526288 3.380563 3349534
-3.4032311 -0.19526288 3.380563 7624269
-3.3699999 -0.19526288 3.380563 8541754
-3.3367689 -0.19526288 3.380563 8936255
-3.0494196 -0.18024266 3.1205199 9198656
-3.0187449 -0.18024266 3.1205199 9395776
-2.98807 -0.18024266 3.1205199 9527361
-2.9573951 -0.18024266 3.1205199 9527874
-2.9267204 -0.18024266 3.1205199 9658947
-2.8960454 -0.18024266 3.1205199 9593926
-2.8653705 -0.18024266 3.1205199 10052678
-2.8346958 -0.18024266 3.1205199 10184264
-2.8040209 -0.18024266 3.1205199 10184264
-2.7733459 -0.18024266 3.1205199 10381641
-2.7426713 -0.18024266 3.1205199 10185032
-2.7119963 -0.18024266 3.1205199 10250568
-2.9047649 -0.19526288 3.380563 10381128
-2.8715336 -0.19526288 3.380563 10446921
-2.8383026 -0.19526288 3.380563 10446919
-2.5892968 -0.18024266 3.1205199 10578505
-2.5586221 -0.18024266 3.1205199 10448202
-2.5279472 -0.18024266 3.1205199 10906955
-2.4972725 -0.18024266 3.1205199 10972747
-2.2904119 -0.16736817 2.8976254 10973260
-2.4359226 -0.18024266 3.1205199 11038538
-2.4052479 -0.18024266 3.1205199 11170122
-2.374573 -0.18024266 3.1205199 11235660
-2.3438981 -0.18024266 3.1205199 11301454
-2.3132234 -0.18024266 3.1205199 11301453
-2.2825484 -0.18024266 3.1205199 11301710
-1.8296472 -0.14644715 2.5354223 11498062
-1.8047239 -0.14644715 2.5354223 11694926
-1.7798005 -0.14644715 2.5354223 11499086
-1.871869 -0.15621029 2.7044504 11629130
-1.8452841 -0.15621029 2.7044504 11433293
-1.6047347 -0.13783261 2.3862798 11827279
-1.4148272 -0.12332392 2.1350925 11762000
-1.2610925 -0.11157878 1.9317503 12286029
-1.0433669 -0.09372618 1.6226703 12023886
-0.98789996 -0.090121329 1.5602599 12353105
-0.87195259 -0.080798432 1.3988537 12286802
-0.85820174 -0.080798432 1.3988537 12089681
-0.84445095 -0.080798432 1.3988537 12417616
-0.56023967 -0.054491967 0.94341296 12484178
-0.5778423 -0.057150111 0.98943311 12484692
-0.56811607 -0.057150111 0.98943311 12484947
-0.60247332 -0.061661962 1.0675462 12418898
-0.59197932 -0.061661962 1.0675462 12484178
-0.59720111 -0.063328497 1.0963988 12615765
-0.5292114 -0.057150111 0.98943311 12812630
-0.48406577 -0.053253513 0.92197174 12944215
-0.46444714 -0.0520701 0.90148348 12747862
-0.42711142 -0.04881572 0.84514076 12747350
-0.41880363 -0.04881572 0.84514076 13075543
-0.41049588 -0.04881572 0.84514076 12878675
-0.41074529 -0.049854349 0.86312246 12944468
-0.40226075 -0.049854349 0.86312246 13010520
-0.34919778 -0.04421046 0.76541048 13009750
-0.33534649 -0.043391753 0.75123626 7556141
-0.32199883 -0.042602807 0.73757738 2888473
-0.31474844 -0.042602807 0.73757738 2429462
-0.30200699 -0.041842043 0.72440636 2035217
-0.29488602 -0.041842043 0.72440636 1509645
-0.28776509 -0.041842043 0.72440636 1246474
-0.28064415 -0.041842043 0.72440636 1114891
-0.27352318 -0.041842043 0.72440636 1049098
-0.27124593 -0.042602807 0.73757738 1246474
-0.26888433 -0.043391753 0.75123626 1377289
-0.26149964 -0.043391753 0.75123626 2034961
-0.25890955 -0.04421046 0.76541048 2560278
-0.25621989 -0.045060664 0.78012997 3020311
-0.25849321 -0.04686309 0.81133515 3282454
-0.25563037 -0.04781948 0.82789302 3544343
-0.24749213 -0.04781948 0.82789302 3413527
-0.23935391 -0.04781948 0.82789302 3807510
-0.23121569 -0.04781948 0.82789302 3807254
-0.22772489 -0.04881572 0.84514076 3873046
-0.21941712 -0.04881572 0.84514076 4004119
-0.21560104 -0.049854349 0.86312246 4332568
-0.20711651 -0.049854349 0.86312246 4266519
-0.19449382 -0.04881572 0.84514076 4070167
-0.18618605 -0.04881572 0.84514076 4070167
-0.17787828 -0.04881572 0.84514076 4267033
-0.16957051 -0.04881572 0.84514076 4398874
0 0 0 2887436
0 0 0 918282
0 0 0 918282
0 0 0 1247246
0 0 0 2100235
0 0 0 3280900
0 0 0 6304279
0 0 0 11367243
-0.91008538 -0.46863094 8.1133518 12879195
-0.34597114 -0.19526288 3.380563 13864030
-0.19752003 -0.12332392 2.1350925 13799005
-0.19730045 -0.13783261 2.3862798 13995872
-0.19702229 -0.15621029 2.7044504 14061150
-0.18261153 -0.16736817 2.8976254 13535578
0 0 0 13272923
0 0 0 13075545
0 0 0 8145450
0 0 0 5647135
-0.093782708 -0.39052576 6.761126 5647392
-0.023417605 -0.33473635 5.7952509 5647647
0.033549972 -0.33473635 5.7952509 5451036
0.090517551 -0.33473635 5.7952509 6041631
0.14748512 -0.33473635 5.7952509 5646621
0.20445271 -0.33473635 5.7952509 4858908
0.22874275 -0.2928943 5.0708447 5450012
0.27858937 -0.2928943 5.0708447 5121819
0.32843602 -0.2928943 5.0708447 5122332
0.37828264 -0.2928943 5.0708447 5515805
0.42812929 -0.2928943 5.0708447 2165770
0.4779759 -0.2928943 5.0708447 1378317
0.60322571 -0.33473635 5.7952509 1378316
0.77022552 -0.39052576 6.761126 1444109
0.71716088 -0.33473635 5.7952509 1443856
0.7741285 -0.33473635 5.7952509 7426113
0.72720903 -0.2928943 5.0708447 8475708
0.77705568 -0.2928943 5.0708447 9001791
0.82690233 -0.2928943 5.0708447 9724740
0.87674892 -0.2928943 5.0708447 10316107
1.0589664 -0.33473635 5.7952509 10578763
1.1159339 -0.33473635 5.7952509 11432525
1.0262889 -0.2928943 5.0708447 12155476
1.2298691 -0.33473635 5.7952509 12549203
1.2868366 -0.33473635 5.7952509 12747095
1.3438042 -0.33473635 5.7952509 12485208
1.2256753 -0.2928943 5.0708447 12878936
1.275522 -0.2928943 5.0708447 12813143
1.1781055 -0.26035053 4.5074177 13010777
1.2224137 -0.26035053 4.5074177 13076314
1.2667217 -0.26035053 4.5074177 13404505
1.3110299 -0.26035053 4.5074177 13469785
1.355338 -0.26035053 4.5074177 13338459
1.2596815 -0.23431547 4.0566759 13207129
1.2995588 -0.23431547 4.0566759 13469787
1.3394361 -0.23431547 4.0566759 13469529
1.3793133 -0.23431547 4.0566759 13403738
1.4191908 -0.23431547 4.0566759 13207387
1.4590681 -0.23431547 4.0566759 12945245
1.4989454 -0.23431547 4.0566759 13207387
1.5388227 -0.23431547 4.0566759 13009750
1.7541111 -0.26035053 4.5074177 13141338
1.7984191 -0.26035053 4.5074177 13010266
1.8427273 -0.26035053 4.5074177 13009752
1.3064091 -0.18024266 3.1205199 12219982
1.3370839 -0.18024266 3.1205199 1771532
1.3677588 -0.18024266 3.1205199 1575436
1.3984337 -0.18024266 3.1205199 1575438
1.0928476 -0.13783261 2.3862798 1641488
1.1163049 -0.13783261 2.3862798 1509645
1.1397622 -0.13783261 2.3862798 1509646
1.1632193 -0.13783261 2.3862798 1444109
1.1207502 -0.13017526 2.2537088 853513
1.1429043 -0.13017526 2.2537088 1180684
1.1650583 -0.13017526 2.2537088 984075
1.1247275 -0.12332392 2.1350925 787466
1.1457155 -0.12332392 2.1350925 787468
1.1083684 -0.11715773 2.028338 853261
1.1283071 -0.11715773 2.028338 918282
1.1482457 -0.11715773 2.028338 721675
1.2296677 -0.12332392 2.1350925 787466
1.188123 -0.11715773 2.028338 984075
1.2080617 -0.11715773 2.028338 853261
1.2280003 -0.11715773 2.028338 787210
1.31362 -0.12332392 2.1350925 918540
1.334608 -0.12332392 2.1350925 852748
1.430907 -0.13017526 2.2537088 984332
1.4530611 -0.13017526 2.2537088 918282
1.4752151 -0.13017526 2.2537088 984332
1.5854496 -0.13783261 2.3862798 918282
1.5195233 -0.13017526 2.2537088 983819
1.5416772 -0.13017526 2.2537088 852746
1.5638313 -0.13017526 2.2537088 721418
1.5025125 -0.12332392 2.1350925 656138
1.5235004 -0.12332392 2.1350925 721675
1.5444885 -0.12332392 2.1350925 786696
1.6524476 -0.13017526 2.2537088 721675
1.6746017 -0.13017526 2.2537088 787468
1.6967556 -0.13017526 2.2537088 721673
1.6284407 -0.12332392 2.1350925 852746
1.4245067 -0.10650703 1.8439435 918282
1.3224133 -0.09763144 1.6902815 852747
1.4607588 -0.10650703 1.8439435 1246467
1.4788848 -0.10650703 1.8439435 9329723
1.4970108 -0.10650703 1.8439435 9986885
1.515137 -0.10650703 1.8439435 9725001
1.533263 -0.10650703 1.8439435 9856073
1.551389 -0.10650703 1.8439435 9857098
1.5695151 -0.10650703 1.8439435 9922378
1.5876411 -0.10650703 1.8439435 10184779
1.4719532 -0.09763144 1.6902815 9790278
1.4885688 -0.09763144 1.6902815 9593928
1.5706271 -0.10187628 1.763772 9790537
1.587965 -0.10187628 1.763772 9659723
1.605303 -0.10187628 1.763772 9659979
1.622641 -0.10187628 1.763772 9725514
1.7145234 -0.10650703 1.8439435 9856587
1.7326494 -0.10650703 1.8439435 9593673
1.7507756 -0.10650703 1.8439435 9593675
1.7689016 -0.10650703 1.8439435 9659724
1.8721242 -0.11157878 1.9317503 9528392
1.8911134 -0.11157878 1.9317503 9855815
1.9101025 -0.11157878 1.9317503 9856841
1.9290917 -0.11157878 1.9317503 9790792
1.9480809 -0.11157878 1.9317503 9725001
1.9670701 -0.11157878 1.9317503 9922380
1.9860593 -0.11157878 1.9317503 9856587
2.0050485 -0.11157878 1.9317503 10053196
2.0240376 -0.11157878 1.9317503 9987403
2.0430269 -0.11157878 1.9317503 9791307
2.165117 -0.11715773 2.028338 9462858
2.4278398 -0.13017526 2.2537088 9396811
2.4499936 -0.13017526 2.2537088 9593415
2.4721477 -0.13017526 2.2537088 9461829
2.4943018 -0.13017526 2.2537088 9527622
2.5164559 -0.13017526 2.2537088 9396292
2.53861 -0.13017526 2.2537088 9659721
2.4259868 -0.12332392 2.1350925 9659722
2.3246262 -0.11715773 2.028338 9593417
2.2329187 -0.11157878 1.9317503 9790026
2.2519081 -0.11157878 1.9317503 10053196
2.2708972 -0.11157878 1.9317503 10315598
2.2898865 -0.11157878 1.9317503 9658956
2.3088756 -0.11157878 1.9317503 9330761
2.2220528 -0.10650703 1.8439435 9659722
2.346854 -0.11157878 1.9317503 9791052
0 0 0 9922638
0 0 0 9922638
0 0 0 9856844
0 0 0 9791054
0 0 0 10052688
0 0 0 9856593
0 0 0 9856849
0 0 0 9791312
0 0 0 3021070
0 0 0 3349271
-3.7242663 -0.14956781 3.1205199 2363664
-4.0013905 -0.16203178 3.380563 2297874
-3.9681594 -0.16203178 3.380563 3020313
-3.9349284 -0.16203178 3.380563 3151638
-3.9016974 -0.16203178 3.380563 3479575
-3.8684664 -0.16203178 3.380563 3413783
-3.8352351 -0.16203178 3.380563 3414038
-3.8020041 -0.16203178 3.380563 3414808
-4.1113887 -0.17676196 3.687887 3612187
-4.0751367 -0.17676196 3.687887 3875359
-4.4427733 -0.19443816 4.0566759 4072736
-4.4028959 -0.19443816 4.0566759 4138528
-4.3630185 -0.19443816 4.0566759 3611414
-4.3231416 -0.19443816 4.0566759 3676951
-4.2832642 -0.19443816 4.0566759 3742231
-4.7148743 -0.2160424 4.5074177 3743000
-4.2035093 -0.19443816 4.0566759 3873558
-4.1636324 -0.19443816 4.0566759 3545879
-3.7488678 -0.17676196 3.687887 2954520
-3.4032311 -0.16203178 3.380563 5981248
-3.3699999 -0.16203178 3.380563 8082496
-3.3367689 -0.16203178 3.380563 8739136
-3.0494196 -0.14956781 3.1205199 8804410
-3.0187449 -0.14956781 3.1205199 9001790
-2.98807 -0.14956781 3.1205199 9001791
-2.9573951 -0.14956781 3.1205199 9198655
-2.9267204 -0.14956781 3.1205199 9461826
-2.8960454 -0.14956781 3.1205199 9396033
-2.8653705 -0.14956781 3.1205199 9921605
-2.8346958 -0.14956781 3.1205199 9855300
-2.8040209 -0.14956781 3.1205199 9790792
-2.7733459 -0.14956781 3.1205199 9856326
-2.7426713 -0.14956781 3.1205199 10052931
-2.9379959 -0.16203178 3.380563 10052931
-2.9047649 -0.16203178 3.380563 10053189
-2.8715336 -0.16203178 3.380563 10119236
-2.6199718 -0.14956781 3.1205199 10316102
-2.5892968 -0.14956781 3.1205199 10381895
-2.5586221 -0.14956781 3.1205199 10381893
-2.5279472 -0.14956781 3.1205199 10447434
-2.4972725 -0.14956781 3.1205199 10709577
-2.4665976 -0.14956781 3.1205199 10972490
-2.4359226 -0.14956781 3.1205199 10841676
-2.4052479 -0.14956781 3.1205199 10972747
-2.374573 -0.14956781 3.1205199 11104333
-2.3438981 -0.14956781 3.1205199 11170126
-2.3132234 -0.14956781 3.1205199 11170383
-1.8545705 -0.12152384 2.5354223 11301453
-1.8296472 -0.12152384 2.5354223 11235662
-1.8047239 -0.12152384 2.5354223 11367503
-1.8984538 -0.12962542 2.7044504 11498316
-2.005574 -0.1388844 2.8976254 11499088
-1.9770902 -0.1388844 2.8976254 11433293
-1.7050307 -0.12152384 2.5354223 11629648
-1.5812775 -0.11437538 2.3862798 11761231
-1.3241472 -0.09721908 2.028338 11958097
-1.0868404 -0.081015892 1.6902815 11892816
-0.98789996 -0.074783906 1.5602599 12024142
-0.90309376 -0.069442198 1.4488127 12089423
-0.85820174 -0.067047633 1.3988537 12089936
-0.94188768 -0.074783906 1.5602599 12221522
0 0 0 12155985
-0.62346143 -0.051167935 1.0675462 12221520
-0.61296737 -0.051167935 1.0675462 12287059
-0.60247332 -0.051167935 1.0675462 12352593
-0.59197932 -0.051167935 1.0675462 12287313
-0.59720111 -0.052550849 1.0963988 12418133
-0.58642346 -0.052550849 1.0963988 12615254
-0.51948524 -0.04742394 0.98943311 12681812
-0.46444714 -0.043208476 0.90148348 12680785
-0.42711142 -0.040507946 0.84514076 12812373
-0.41880363 -0.040507946 0.84514076 12943954
-0.41049588 -0.040507946 0.84514076 12484436
-0.42900065 -0.043208476 0.90148348 12747350
-0.42013901 -0.043208476 0.90148348 12878161
-0.39377624 -0.041369818 0.86312246 12747348
-0.34167376 -0.036686443 0.76541048 12221519
-0.33414975 -0.036686443 0.76541048 3017999
-0.31474844 -0.03535239 0.73757738 1509903
-0.30749801 -0.03535239 0.73757738 1049868
-0.29488602 -0.034721099 0.72440636 918795
-0.28776509 -0.034721099 0.72440636 1115145
-0.28064415 -0.034721099 0.72440636 1181454
-0.27849633 -0.03535239 0.73757738 2035987
-0.27626902 -0.036007065 0.75123626 1706255
-0.27395758 -0.036686443 0.76541048 2297620
-0.26643357 -0.036686443 0.76541048 2626070
-0.2638886 -0.037391953 0.78012997 2692116
-0.26124379 -0.038125128 0.79542661 3020057
-0.26376858 -0.039681256 0.82789302 3348249
-0.25563037 -0.039681256 0.82789302 3479318
-0.24749213 -0.039681256 0.82789302 3479318
-0.23935391 -0.039681256 0.82789302 3413783
-0.23121569 -0.039681256 0.82789302 3479575
-0.22307746 -0.039681256 0.82789302 3807769
-0.21493924 -0.039681256 0.82789302 3873047
-0.21110936 -0.040507946 0.84514076 4069655
-0.20280159 -0.040507946 0.84514076 4003863
-0.19449382 -0.040507946 0.84514076 4069654
-0.18618605 -0.040507946 0.84514076 4267035
-0.17424811 -0.039681256 0.82789302 4333084
-0.16610989 -0.039681256 0.82789302 4202523
-0.16126272 -0.040507946 0.84514076 1245960
0 0 0 721418
0 0 0 983817
0 0 0 852746
0 0 0 1049610
0 0 0 1444109
0 0 0 1707024
0 0 0 1707024
-0.15691127 -0.067047633 1.3988537 1903630
-0.14316046 -0.067047633 1.3988537 2887946
-0.13899559 -0.072014131 1.5024725 8671022
-0.15971941 -0.092589594 1.9317503 13535835
-0.1738432 -0.11437538 2.3862798 13667164
0 0 0 13338458
0 0 0 13075544
0 0 0 12681816
0 0 0 8277806
0 0 0 5450012
-0.093782708 -0.32406357 6.761126 5647392
-0.023417605 -0.27776879 5.7952509 5843997
0.033549972 -0.27776879 5.7952509 5712668
0.090517551 -0.27776879 5.7952509 6173217
0.14748512 -0.27776879 5.7952509 5516575
0.17889611 -0.24304768 5.0708447 4924699
0.22874275 -0.24304768 5.0708447 5581598
0.27858937 -0.24304768 5.0708447 5252635
0.32843602 -0.24304768 5.0708447 5319711
0.37828264 -0.24304768 5.0708447 5384989
0.42812929 -0.24304768 5.0708447 2362379
0.4779759 -0.24304768 5.0708447 1378316
0.60322571 -0.27776879 5.7952509 1246731
0.66019332 -0.27776879 5.7952509 1443853
0.71716088 -0.27776879 5.7952509 1312524
0.7741285 -0.27776879 5.7952509 7228225
0.72720903 -0.24304768 5.0708447 8213307
0.88806361 -0.27776879 5.7952509 8673085
0.82690233 -0.24304768 5.0708447 9264706
1.0019988 -0.27776879 5.7952509 9855815
1.0589664 -0.27776879 5.7952509 10316363
1.1159339 -0.27776879 5.7952509 10841163
1.1729015 -0.27776879 5.7952509 11236687
1.2298691 -0.27776879 5.7952509 12221523
1.2868366 -0.27776879 5.7952509 12615511
1.3438042 -0.27776879 5.7952509 12878424
1.4007719 -0.27776879 5.7952509 12943958
1.4577394 -0.27776879 5.7952509 12812887
1.3253686 -0.24304768 5.0708447 12945243
1.3752153 -0.24304768 5.0708447 12813400
1.4250619 -0.24304768 5.0708447 13075801
1.3110299 -0.2160424 4.5074177 13141336
1.355338 -0.2160424 4.5074177 13142106
1.2596815 -0.19443816 4.0566759 13207385
1.2995588 -0.19443816 4.0566759 13075290
1.3394361 -0.19443816 4.0566759 13206873
1.3793133 -0.19443816 4.0566759 12878936
1.5768785 -0.2160424 4.5074177 12945241
1.6211867 -0.2160424 4.5074177 13075801
1.6654948 -0.2160424 4.5074177 12943704
1.7098029 -0.2160424 4.5074177 12747607
1.9733748 -0.24304768 5.0708447 12878936
2.312253 -0.27776879 5.7952509 12878424
2.3692205 -0.27776879 5.7952509 12812632
1.3064091 -0.14956781 3.1205199 11629900
1.3370839 -0.14956781 3.1205199 1509903
1.3677588 -0.14956781 3.1205199 1509645
1.5149697 -0.16203178 3.380563 1509645
1.2385606 -0.12962542 2.7044504 1575436
1.1163049 -0.11437538 2.3862798 1509903
1.1397622 -0.11437538 2.3862798 1641231
1.1632193 -0.11437538 2.3862798 1378315
1.1207502 -0.1080212 2.2537088 918536
1.0827513 -0.10233587 2.1350925 918282
1.1037394 -0.10233587 2.1350925 1049610
1.1247275 -0.10233587 2.1350925 1049100
1.1457155 -0.10233587 2.1350925 918536
1.1083684 -0.09721908 2.028338 918282
1.1283071 -0.09721908 2.028338 656393
1.1482457 -0.09721908 2.028338 722186
1.2296677 -0.10233587 2.1350925 853259
1.188123 -0.09721908 2.028338 853259
1.2080617 -0.09721908 2.028338 787466
1.2280003 -0.09721908 2.028338 656393
1.31362 -0.10233587 2.1350925 852746
1.334608 -0.10233587 2.1350925 787468
1.430907 -0.1080212 2.2537088 852746
1.5385351 -0.11437538 2.3862798 918284
1.5619924 -0.11437538 2.3862798 852747
1.5854496 -0.11437538 2.3862798 918282
1.5195233 -0.1080212 2.2537088 984333
1.5416772 -0.1080212 2.2537088 655882
1.5638313 -0.1080212 2.2537088 721675
1.5859854 -0.1080212 2.2537088 786954
1.5235004 -0.10233587 2.1350925 721416
1.6302935 -0.1080212 2.2537088 786953
1.6524476 -0.1080212 2.2537088 655882
1.6746017 -0.1080212 2.2537088 721417
1.7965648 -0.11437538 2.3862798 786952
1.4063807 -0.088380978 1.8439435 721160
1.4245067 -0.088380978 1.8439435 852489
1.3799095 -0.084538326 1.763772 852489
1.4607588 -0.088380978 1.8439435 1049858
1.4788848 -0.088380978 1.8439435 9067582
1.4970108 -0.088380978 1.8439435 9986885
1.4492614 -0.084538326 1.763772 9724744
1.533263 -0.088380978 1.8439435 9790792
1.551389 -0.088380978 1.8439435 10052678
1.5695151 -0.088380978 1.8439435 9921610
1.5876411 -0.088380978 1.8439435 9856330
1.5359511 -0.084538326 1.763772 10052682
1.6238931 -0.088380978 1.8439435 9921608
1.6420193 -0.088380978 1.8439435 9855815
1.587965 -0.084538326 1.763772 9725001
1.605303 -0.084538326 1.763772 9856585
1.622641 -0.084538326 1.763772 9725514
1.7145234 -0.088380978 1.8439435 9659465
1.7326494 -0.088380978 1.8439435 9725260
1.7507756 -0.088380978 1.8439435 9790796
1.7689016 -0.088380978 1.8439435 9528394
1.8721242 -0.092589594 1.9317503 9659719
1.8911134 -0.092589594 1.9317503 9527622
1.9101025 -0.092589594 1.9317503 9724744
1.9290917 -0.092589594 1.9317503 9790537
1.9480809 -0.092589594 1.9317503 9725000
1.9670701 -0.092589594 1.9317503 9725515
1.9860593 -0.092589594 1.9317503 9593930
2.0050485 -0.092589594 1.9317503 9856073
2.0240376 -0.092589594 1.9317503 9856844
2.1451783 -0.09721908 2.028338 9791306
2.4056857 -0.1080212 2.2537088 9725258
2.4278398 -0.1080212 2.2537088 9724232
2.4499936 -0.1080212 2.2537088 9724488
2.4721477 -0.1080212 2.2537088 9658952
2.4943018 -0.1080212 2.2537088 9462087
2.6644826 -0.11437538 2.3862798 9527109
2.6879399 -0.11437538 2.3862798 9593415
2.4259868 -0.10233587 2.1350925 9922893
2.3246262 -0.09721908 2.028338 9857100
2.2329187 -0.092589594 1.9317503 9922380
2.3645036 -0.09721908 2.028338 10184526
2.2708972 -0.092589594 1.9317503 10184014
2.2898865 -0.092589594 1.9317503 10184014
2.3088756 -0.092589594 1.9317503 9593928
2.2220528 -0.088380978 1.8439435 9855817
2.346854 -0.092589594 1.9317503 9725516
0 0 0 9987660
0 0 0 10118988
0 0 0 10184780
0 0 0 9987403
0 0 0 9921612
0 0 0 9593676
0 0 0 9593675
0 0 0 9593930
0 0 0 2429962
0 0 0 2100750
-3.7242663 -0.11889296 3.1205199 1903374
-4.0013905 -0.12880071 3.380563 2232082
-3.9681594 -0.12880071 3.380563 3020570
-3.9349284 -0.12880071 3.380563 3479831
-3.9016974 -0.12880071 3.380563 3479831
-3.8684664 -0.12880071 3.380563 3480085
-3.8352351 -0.12880071 3.380563 3217683
-3.8020041 -0.12880071 3.380563 3151636
-4.1113887 -0.14050986 3.687887 3348499
-4.0751367 -0.14050986 3.687887 3151378
-4.4427733 -0.15456085 4.0566759 3216916
-4.4028959 -0.15456085 4.0566759 3348246
-4.3630185 -0.15456085 4.0566759 3414039
-4.3231416 -0.15456085 4.0566759 3414037
-4.2832642 -0.15456085 4.0566759 3414292
-4.2433867 -0.15456085 4.0566759 3611414
-4.2035093 -0.15456085 4.0566759 3480342
-4.1636324 -0.15456085 4.0566759 3349269
-4.123755 -0.15456085 4.0566759 2822675
-4.0838776 -0.15456085 4.0566759 4994870
-3.6763637 -0.14050986 3.687887 6833719
-3.6401114 -0.14050986 3.687887 8147517
-3.6038594 -0.14050986 3.687887 8344635
-3.2703068 -0.12880071 3.380563 8410173
-2.98807 -0.11889296 3.1205199 8541758
-2.9573951 -0.11889296 3.1205199 8673599
-3.1706135 -0.12880071 3.380563 8738877
-3.1373823 -0.12880071 3.380563 9001791
-3.1041512 -0.12880071 3.380563 9198655
-3.0709202 -0.12880071 3.380563 9395518
-2.8040209 -0.11889296 3.1205199 9790276
-2.7733459 -0.11889296 3.1205199 9659973
-2.9712269 -0.12880071 3.380563 9855551
-2.9379959 -0.12880071 3.380563 9659461
-2.9047649 -0.12880071 3.380563 9790277
-2.8715336 -0.12880071 3.380563 9920579
-2.8383026 -0.12880071 3.380563 9856069
-2.5892968 -0.11889296 3.1205199 9987653
-2.5586221 -0.11889296 3.1205199 10053446
-2.5279472 -0.11889296 3.1205199 10315847
-2.7053783 -0.12880071 3.380563 10577991
-2.6721473 -0.12880071 3.380563 10315850
-2.4359226 -0.11889296 3.1205199 10775372
-2.4052479 -0.11889296 3.1205199 10644809
-2.374573 -0.11889296 3.1205199 10579274
-2.3438981 -0.11889296 3.1205199 11170126
-2.1479928 -0.1104006 2.8976254 11169612
-1.8545705 -0.096600525 2.5354223 11169869
-1.8296472 -0.096600525 2.5354223 11563855
-1.8047239 -0.096600525 2.5354223 11235917
-1.7798005 -0.096600525 2.5354223 11235660
-1.7548773 -0.096600525 2.5354223 11367501
-1.9770902 -0.1104006 2.8976254 11301710
-1.9486064 -0.1104006 2.8976254 11301453
-1.9201226 -0.1104006 2.8976254 11564367
-1.3241472 -0.077280425 2.028338 11760975
-1.1856441 -0.070254929 1.8439435 11761230
-0.98789996 -0.05944648 1.5602599 11827020
-0.97256255 -0.05944648 1.5602599 11696207
-0.95722508 -0.05944648 1.5602599 11958607
0 0 0 12155729
0 0 0 12220752
0 0 0 12352593
-0.61296737 -0.040673908 1.0675462 12417872
-0.60247332 -0.040673908 1.0675462 12154959
-0.59197932 -0.040673908 1.0675462 12352338
-0.59720111 -0.0417732 1.0963988 12286799
-0.58642346 -0.0417732 1.0963988 12550482
-0.51948524 -0.037697766 0.98943311 12551254
-0.46444714 -0.034346852 0.90148348 12746580
-0.42711142 -0.032200176 0.84514076 12614994
-0.44672388 -0.034346852 0.90148348 12418898
-0.43786228 -0.034346852 0.90148348 12615761
-0.42900065 -0.034346852 0.90148348 12943954
-0.41100556 -0.033600181 0.88188601 12746580
-0.39377624 -0.032885283 0.86312246 13075286
-0.36956552 -0.031543031 0.82789302 12943954
-0.33414975 -0.029162422 0.76541048 12549969
-0.32662573 -0.029162422 0.76541048 8083519
-0.31910172 -0.029162422 0.76541048 7819840
-0.29488602 -0.027600151 0.72440636 11698273
-0.28776509 -0.027600151 0.72440636 12484439
-0.28064415 -0.027600151 0.72440636 12681555
-0.28900564 -0.029162422 0.76541048 12156748
-0.28148162 -0.029162422 0.76541048 3151124
-0.27922603 -0.02972324 0.78012997 2626070
-0.2715573 -0.02972324 0.78012997 2691346
-0.27444413 -0.030912168 0.81133515 2822932
-0.27190682 -0.031543031 0.82789302 3217433
-0.26376858 -0.031543031 0.82789302 3151640
-0.25563037 -0.031543031 0.82789302 3479833
-0.24749213 -0.031543031 0.82789302 3413527
-0.23935391 -0.031543031 0.82789302 3479318
-0.23121569 -0.031543031 0.82789302 3479319
-0.22307746 -0.031543031 0.82789302 3807512
-0.21493924 -0.031543031 0.82789302 3806997
-0.20266499 -0.030912168 0.81133515 3873303
-0.19866279 -0.031543031 0.82789302 4070167
-0.19052456 -0.031543031 0.82789302 4267290
-0.18238634 -0.031543031 0.82789302 4333083
-0.17424811 -0.031543031 0.82789302 2493197
-0.16610989 -0.031543031 0.82789302 1246218
-0.15797167 -0.031543031 0.82789302 852232
0 0 0 918023
0 0 0 852744
0 0 0 1115915
0 0 0 1313037
0 0 0 1641229
0 0 0 1509902
-0.14997575 -0.046836618 1.2292956 1640974
-0.13789171 -0.046836618 1.2292956 1378317
-0.13392432 -0.049858335 1.3086051 1575695
-0.12940967 -0.053296842 1.3988537 1838352
-0.12900414 -0.05944648 1.5602599 1903888
0 0 0 4728085
0 0 0 12091222
0 0 0 13009751
0 0 0 12812630
0 0 0 8277808
0 0 0 5384990
0 0 0 5516062
-0.023417605 -0.2208012 5.7952509 5778976
0.033549972 -0.2208012 5.7952509 5450269
0.090517551 -0.2208012 5.7952509 5845281
0.14748512 -0.2208012 5.7952509 5647645
0.17889611 -0.19320105 5.0708447 4924699
0.22874275 -0.19320105 5.0708447 5581598
0.24763502 -0.17173427 4.5074177 5253662
0.32843602 -0.19320105 5.0708447 5319198
0.37828264 -0.19320105 5.0708447 5384989
0.42812929 -0.19320105 5.0708447 2230534
0.4779759 -0.19320105 5.0708447 1443852
0.60322571 -0.2208012 5.7952509 1312524
0.66019332 -0.2208012 5.7952509 1312524
0.71716088 -0.2208012 5.7952509 1312524
0.7741285 -0.2208012 5.7952509 6703166
0.72720903 -0.19320105 5.0708447 7950650
0.88806361 -0.2208012 5.7952509 8476223
0.94503123 -0.2208012 5.7952509 9133633
1.0019988 -0.2208012 5.7952509 9396292
1.0589664 -0.2208012 5.7952509 9986886
1.1159339 -0.2208012 5.7952509 10512714
1.1729015 -0.2208012 5.7952509 10972744
1.2298691 -0.2208012 5.7952509 11696465
1.5013094 -0.25760141 6.761126 12221782
1.5677716 -0.25760141 6.761126 12287570
1.6342338 -0.25760141 6.761126 12616536
1.700696 -0.25760141 6.761126 13010010
1.514707 -0.2208012 5.7952509 13206874
1.3752153 -0.19320105 5.0708447 12813402
1.4250619 -0.19320105 5.0708447 13207389
1.3110299 -0.17173427 4.5074177 13141595
1.355338 -0.17173427 4.5074177 13272153
1.2596815 -0.15456085 4.0566759 13207388
1.2995588 -0.15456085 4.0566759 13272667
1.3394361 -0.15456085 4.0566759 13075544
1.5325705 -0.17173427 4.5074177 12944729
1.5768785 -0.17173427 4.5074177 12813657
1.6211867 -0.17173427 4.5074177 13009495
1.6654948 -0.17173427 4.5074177 13009240
1.9235282 -0.19320105 5.0708447 12682072
2.2552855 -0.2208012 5.7952509 13009750
2.312253 -0.2208012 5.7952509 12747095
1.5076859 -0.14050986 3.687887 12812889
1.3064091 -0.11889296 3.1205199 11825480
1.4485075 -0.12880071 3.380563 1575439
1.4817386 -0.12880071 3.380563 1509902
1.5149697 -0.12880071 3.380563 1444109
1.3270292 -0.1104006 2.8976254 1575438
1.1860739 -0.096600525 2.5354223 1575438
