# .PCD v0.7 - Point Cloud Data file format
VERSION 0.7
FIELDS x y z rgb
SIZE 4 4 4 4
TYPE F F F U
COUNT 1 1 1 1
WIDTH 1290
HEIGHT 1
VIEWPOINT 0 0 0 1 0 0 0
POINTS 1290
DATA ascii
0.89040917 0.66668355 1.6902815 10892579
0.90702474 0.66668355 1.6902815 11220771
0.92364031 0.66668355 1.6902815 10565154
0.94025582 0.66668355 1.6902815 10564897
0.95687139 0.66668355 1.6902815 10762019
1.0158124 0.69566977 1.763772 10564640
1.0331504 0.69566977 1.763772 10433054
1.2080617 0.80002034 2.028338 10499617
1.2280003 0.80002034 2.028338 10040093
1.1344899 0.72729117 1.8439435 10237474
1.014302 0.6400162 1.6226703 10236705
1.0302529 0.6400162 1.6226703 10499362
1.046204 0.6400162 1.6226703 10040610
1.1064112 0.66668355 1.6902815 10302498
1.1230268 0.66668355 1.6902815 10565667
1.1396424 0.66668355 1.6902815 10368288
1.1100076 0.6400162 1.6226703 10171680
1.1259586 0.6400162 1.6226703 10433568
0.95159113 0.53334683 1.3522252 10434339
1.072093 0.59260762 1.5024725 10499620
1.0868623 0.59260762 1.5024725 10433570
0.95948565 0.51614213 1.3086051 10367776
0.97234929 0.51614213 1.3086051 10629665
0.98521292 0.51614213 1.3086051 10171680
1.0669094 0.55173808 1.3988537 10236962
1.0806602 0.55173808 1.3988537 10171683
1.094411 0.55173808 1.3988537 9843747
1.1081618 0.55173808 1.3988537 9450018
1.1219126 0.55173808 1.3988537 9253666
1.1356634 0.55173808 1.3988537 9515810
1.1494142 0.55173808 1.3988537 9778981
1.163165 0.55173808 1.3988537 9910054
1.1769158 0.55173808 1.3988537 9910054
1.1138494 0.51614213 1.3086051 9713701
1.126713 0.51614213 1.3086051 9712677
1.1395767 0.51614213 1.3086051 9778983
1.190855 0.53334683 1.3522252 9778727
1.1288882 0.5000127 1.2677112 9647396
1.1067635 0.48486075 1.2292956 9713188
1.1188475 0.48486075 1.2292956 9713188
1.1662732 0.5000127 1.2677112 9713188
2.2187951 0.94120032 2.3862798 9581348
2.5412192 1.0666937 2.7044504 9450276
3.8517065 1.6000407 4.0566759 9383971
3.2429862 1.3333671 3.380563 9450019
3.2762172 1.3333671 3.380563 9319205
3.3094485 1.3333671 3.380563 9254180
3.3426795 1.3333671 3.380563 9253666
2.8936377 1.142886 2.8976254 9057313
1.4610606 0.57144302 1.4488127 9123106
1.4753026 0.57144302 1.4488127 9451047
1.4381809 0.55173808 1.3988537 9450789
1.5037863 0.57144302 1.4488127 9253668
1.5180283 0.57144302 1.4488127 9648167
1.1917658 0.44445574 1.1268544 9320231
1.2028428 0.44445574 1.1268544 9385508
1.5607539 0.57144302 1.4488127 9517351
0 0 0 9648680
1.3484441 0.48486075 1.2292956 9583657
1.2134441 0.43244338 1.0963988 9846829
1.1324052 0.40001017 1.014169 9714474
1.0385222 0.36364558 0.92197174 9780780
1.0243056 0.35556456 0.90148348 9583915
1.0566483 0.36364558 0.92197174 9321256
1.1436901 0.39025378 0.98943311 9452841
0 0 0 9649707
0 0 0 9386537
0 0 0 8927787
0 0 0 8666155
0 0 0 7420202
0 0 0 5712416
0 0 0 6041124
0 0 0 5975844
0 0 0 5778468
0 0 0 5646371
0 0 0 4858655
0 0 0 4727837
0 0 0 4464664
0 0 0 5122337
0 0 0 1772817
0 0 0 1904404
-0.79369611 0.268839 0.66502881 2169116
-0.81384224 0.27795219 0.68757218 1971994
-0.80708337 0.27795219 0.68757218 1774614
-0.7869857 0.27331963 0.67611259 1642771
-0.79356563 0.27795219 0.68757218 2561817
-0.8003723 0.28274444 0.69942683 3677725
-0.79349691 0.28274444 0.69942683 4466724
-0.80042195 0.28770489 0.71169752 4598312
-0.79342592 0.28770489 0.71169752 4533543
-0.78642994 0.28770489 0.71169752 4204576
-0.77943391 0.28770489 0.71169752 4072224
-0.77243787 0.28770489 0.71169752 3415837
-0.77911043 0.29284248 0.72440636 3743775
-0.77198946 0.29284248 0.72440636 3875360
-0.76486856 0.29284248 0.72440636 4334880
-0.75774759 0.29284248 0.72440636 4989723
-0.75062662 0.29284248 0.72440636 6237218
-0.74350572 0.29284248 0.72440636 6959653
-0.76365829 0.3036885 0.75123626 7549991
-0.77054286 0.30941844 0.76541048 8729635
-0.76301885 0.30941844 0.76541048 9450018
-0.75549483 0.30941844 0.76541048 9450534
-0.76235491 0.31536883 0.78012997 9253668
-0.75468624 0.31536883 0.78012997 9515808
-0.76166487 0.32155252 0.79542661 9647650
-0.75384581 0.32155252 0.79542661 9646884
-0.74602669 0.32155252 0.79542661 9909540
-0.73820764 0.32155252 0.79542661 9909796
-0.73038858 0.32155252 0.79542661 9975330
-0.70867395 0.31536883 0.78012997 10106145
-0.70100522 0.31536883 0.78012997 10106399
-0.70693129 0.32155252 0.79542661 10172196
-0.69911224 0.32155252 0.79542661 10171427
-0.69129318 0.32155252 0.79542661 10040867
-0.68347406 0.32155252 0.79542661 10303268
-0.67565501 0.32155252 0.79542661 10499874
-0.66783589 0.32155252 0.79542661 10696740
-0.68695635 0.33467713 0.82789302 10565409
-0.67881811 0.33467713 0.82789302 10696740
-0.67067987 0.33467713 0.82789302 10433825
-0.67634457 0.34164953 0.84514076 10368288
-0.66803682 0.34164953 0.84514076 10368288
-0.67376578 0.34891868 0.86312246 10368546
-0.69484931 0.3644262 0.90148348 10434340
-0.75291336 0.39997998 0.98943311 10500646
-0.74318719 0.39997998 0.98943311 10499874
-0.73346102 0.39997998 0.98943311 10630946
-0.72373486 0.39997998 0.98943311 10565667
-0.73185891 0.40997949 1.014169 10696740
0 0 0 10565667
0 0 0 10696739
0 0 0 10697508
0 0 0 10696481
0 0 0 10894373
-1.2800817 0.78091323 1.9317503 10959652
-1.2610925 0.78091323 1.9317503 10762789
-1.3042086 0.81995898 2.028338 10893092
-1.6053374 1.0249487 2.5354223 11090467
-1.9451251 1.2614753 3.1205199 10959652
-1.9144502 1.2614753 3.1205199 11024419
-1.8837754 1.2614753 3.1205199 10958884
-1.8531005 1.2614753 3.1205199 10762787
-1.9742943 1.3665981 3.380563 10959650
-1.7917508 1.2614753 3.1205199 11025443
-1.2049466 0.86311466 2.1350925 11025445
-1.1839586 0.86311466 2.1350925 11156260
-1.1629705 0.86311466 2.1350925 10959395
-1.1419826 0.86311466 2.1350925 11156003
-1.1209944 0.86311466 2.1350925 11089955
-1.1000065 0.86311466 2.1350925 11155748
-1.0790184 0.86311466 2.1350925 10762018
-1.1168098 0.91106552 2.2537088 10893859
-1.0370423 0.86311466 2.1350925 10893344
-1.0725017 0.91106552 2.2537088 10959652
-1.1121327 0.96465755 2.3862798 11220771
-1.0886755 0.96465755 2.3862798 11222053
-1.1317943 1.0249487 2.5354223 11220512
-0.70839751 0.65596712 1.6226703 11089953
-0.37632966 0.35650387 0.88188601 11024417
-0.3598381 0.34891868 0.86312246 11024673
-0.35899168 0.35650387 0.88188601 10762019
-0.35032272 0.35650387 0.88188601 10827809
-0.34924603 0.3644262 0.90148348 10827297
-0.34038442 0.3644262 0.90148348 10695713
-0.31080261 0.34164953 0.84514076 10696739
-0.29632148 0.33467713 0.82789302 11089697
-0.28818327 0.33467713 0.82789302 10959140
-0.28004503 0.33467713 0.82789302 10958369
-0.27190682 0.33467713 0.82789302 10958367
-0.26376858 0.33467713 0.82789302 10761503
-0.25051776 0.32798356 0.81133515 10958624
-0.2425423 0.32798356 0.81133515 10958368
-0.22996747 0.32155252 0.79542661 11023392
-0.2221484 0.32155252 0.79542661 11088413
-0.21432932 0.32155252 0.79542661 11089185
-0.20651025 0.32155252 0.79542661 10433568
-0.19869116 0.32155252 0.79542661 10762273
-0.19087209 0.32155252 0.79542661 10958370
-0.183053 0.32155252 0.79542661 10760988
-0.18238634 0.33467713 0.82789302 10760989
-0.17787828 0.34164953 0.84514076 10761502
-0.16957051 0.34164953 0.84514076 10893089
-0.15177669 0.32155252 0.79542661 10696224
-0.14395761 0.32155252 0.79542661 11220512
-0.15093619 0.35650387 0.88188601 11417378
-0.1487339 0.37270859 0.92197174 11089183
-0.14632188 0.39045662 0.96587515 11154976
0 0 0 11023901
0 0 0 11024160
0 0 0 11155233
-0.16251524 0.58568496 1.4488127 11220768
-0.14827335 0.58568496 1.4488127 11089955
-0.13403144 0.58568496 1.4488127 10826781
-0.12422621 0.60737699 1.5024725 10958367
-0.11821339 0.65596712 1.6226703 10892574
-0.10226246 0.65596712 1.6226703 10958882
-0.086311541 0.65596712 1.6226703 10958369
-0.070360616 0.65596712 1.6226703 11023648
-0.052317016 0.63073766 1.5602599 11024162
-0.03697959 0.63073766 1.5602599 11089953
-0.022507852 0.65596712 1.6226703 11417378
-0.007451056 0.74541718 1.8439435 11286305
0.0097854082 0.68329906 1.6902815 11286049
0.022629388 0.58568496 1.4488127 11154976
0.036871281 0.58568496 1.4488127 11155746
0.051113177 0.58568496 1.4488127 11220513
0.073197678 0.65596712 1.6226703 11548965
0.10612928 0.78091323 1.9317503 11417633
0.12511848 0.78091323 1.9317503 10958112
0 0 0 11352357
0 0 0 11352355
0.22492984 0.96465755 2.3862798 11154719
0.26391128 1.0249487 2.5354223 11024417
0.46213534 1.639918 4.0566759 11154976
0.55779183 1.822131 4.5074177 11024161
0.67736244 2.0498974 5.0708447 10762016
0.72720903 2.0498974 5.0708447 11220767
0.69071621 1.822131 4.5074177 11286562
0.73502433 1.822131 4.5074177 11548964
0.77933246 1.822131 4.5074177 11417376
0.61773038 1.3665981 3.380563 11221539
0.60088754 1.2614753 3.1205199 11548449
0.51314443 1.0249487 2.5354223 11811364
0.53806776 1.0249487 2.5354223 11812134
0.56299102 1.0249487 2.5354223 11679778
0.58791435 1.0249487 2.5354223 11745828
0.61283767 1.0249487 2.5354223 11679778
0.637761 1.0249487 2.5354223 11811362
0.62370288 0.96465755 2.3862798 11811361
0.55008614 0.81995898 2.028338 11811875
0.54288071 0.78091323 1.9317503 11548964
0.47197074 0.65596712 1.6226703 11877670
0.38118878 0.51247436 1.2677112 11615269
0.39365044 0.51247436 1.2677112 11418404
0.4061121 0.51247436 1.2677112 11548964
0.43207613 0.52900577 1.3086051 11548964
0.44493979 0.52900577 1.3086051 11352353
0.47306353 0.54663926 1.3522252 11287332
0.48635596 0.54663926 1.3522252 11549219
0.49964839 0.54663926 1.3522252 11548963
0.53062844 0.56548887 1.3988537 11680034
0.56382138 0.58568496 1.4488127 11418146
0.770751 0.78091323 1.9317503 11352098
0.63786709 0.63073766 1.5602599 11417633
0.67933273 0.65596712 1.6226703 11548962
0.79009503 0.74541718 1.8439435 11548964
0.84670776 0.78091323 1.9317503 11155489
0.86569697 0.78091323 1.9317503 11090725
0.88468617 0.78091323 1.9317503 11024675
0.79071593 0.68329906 1.6902815 11024418
0.74522913 0.63073766 1.5602599 11089955
0.73239738 0.60737699 1.5024725 10630433
0.72048217 0.58568496 1.4488127 10893345
0.79124135 0.63073766 1.5602599 11024675
0.87379366 0.68329906 1.6902815 11220769
0.92912263 0.71300775 1.763772 11024418
0.9464606 0.71300775 1.763772 10565408
0.92364031 0.68329906 1.6902815 10631202
0.94025582 0.68329906 1.6902815 10499104
0.95687139 0.68329906 1.6902815 10761503
1.0158124 0.71300775 1.763772 10499363
1.0331504 0.71300775 1.763772 10696226
1.2080617 0.81995898 2.028338 10695711
1.2926319 0.86311466 2.1350925 10564897
1.31362 0.86311466 2.1350925 10433570
1.1526159 0.74541718 1.8439435 10565156
1.1198401 0.71300775 1.763772 10368547
1.1371782 0.71300775 1.763772 9908770
1.1545161 0.71300775 1.763772 9909540
1.171854 0.71300775 1.763772 9909538
1.1396424 0.68329906 1.6902815 9909794
1.1562579 0.68329906 1.6902815 9975330
1.1259586 0.65596712 1.6226703 10039839
1.189489 0.68329906 1.6902815 10236192
1.2061045 0.68329906 1.6902815 10302499
1.22272 0.68329906 1.6902815 10302497
1.1016316 0.60737699 1.5024725 10303011
1.0765295 0.58568496 1.4488127 10761764
1.0907714 0.58568496 1.4488127 10302499
1.1050134 0.58568496 1.4488127 10236961
1.1192552 0.58568496 1.4488127 10040610
1.094411 0.56548887 1.3988537 10040352
1.1081618 0.56548887 1.3988537 9778467
1.1619809 0.58568496 1.4488127 9843747
1.2667016 0.63073766 1.5602599 9712677
1.3333205 0.65596712 1.6226703 9581602
1.3492714 0.65596712 1.6226703 9712676
1.2189485 0.58568496 1.4488127 9975076
1.1906666 0.56548887 1.3988537 9778211
1.2044173 0.56548887 1.3988537 9844261
1.1395767 0.52900577 1.3086051 9844518
1.2759161 0.58568496 1.4488127 9778981
1.2901579 0.58568496 1.4488127 9712675
1.3043998 0.58568496 1.4488127 9844260
1.1538116 0.51247436 1.2677112 9909797
1.1662732 0.51247436 1.2677112 9713190
2.2187951 0.96465755 2.3862798 9647397
2.7227349 1.1713699 2.8976254 9713188
3.8517065 1.639918 4.0566759 9450786
3.8915837 1.639918 4.0566759 9582118
3.9314611 1.639918 4.0566759 9253922
3.9713383 1.639918 4.0566759 9319204
4.0112157 1.639918 4.0566759 9318691
5.0638661 2.0498974 5.0708447 9253412
1.4610606 0.58568496 1.4488127 9253155
1.4753026 0.58568496 1.4488127 9318948
1.4381809 0.56548887 1.3988537 9318946
1.5037863 0.58568496 1.4488127 9516581
1.4656825 0.56548887 1.3988537 9122595
1.4794333 0.56548887 1.3988537 9319976
1.4931841 0.56548887 1.3988537 9320233
4.8556795 1.822131 4.5074177 9451559
0 0 0 9582631
0 0 0 9582887
1.2471509 0.45553276 1.1268544 9649193
1.1324052 0.40997949 1.014169 9714986
1.0385222 0.37270859 0.92197174 9912109
1.0475852 0.37270859 0.92197174 9847085
1.0566483 0.37270859 0.92197174 9716269
1.1436901 0.39997998 0.98943311 9781806
0 0 0 9781036
0 0 0 9911852
0 0 0 9714989
0 0 0 8928300
0 0 0 7617581
0 0 0 6567208
0 0 0 5909794
0 0 0 6106917
0 0 0 6172196
0 0 0 5777444
0 0 0 4923936
0 0 0 4399386
0 0 0 4859936
0 0 0 4926242
0 0 0 1641232
0 0 0 1904404
-0.79369611 0.27537626 0.66502881 3087394
-0.80027813 0.27996585 0.67611259 4533548
-0.79363191 0.27996585 0.67611259 4730407
-0.7869857 0.27996585 0.67611259 4927013
-0.78033948 0.27996585 0.67611259 5058084
-0.78680676 0.28471106 0.68757218 4729890
-0.79349691 0.28961986 0.69942683 4730404
-0.80042195 0.29470092 0.71169752 4730146
-0.79342592 0.29470092 0.71169752 4861219
-0.77287072 0.28961986 0.69942683 4333593
-0.79335231 0.29996341 0.72440636 4269601
-0.7862314 0.29996341 0.72440636 4991783
-0.77911043 0.29996341 0.72440636 6500133
-0.75844586 0.29470092 0.71169752 8007971
-0.75144982 0.29470092 0.71169752 8204580
-0.74445379 0.29470092 0.71169752 8729123
-0.75062662 0.29996341 0.72440636 8860194
-0.771043 0.31107318 0.75123626 8925729
-0.77806687 0.31694248 0.76541048 9253922
-0.77054286 0.31694248 0.76541048 9319200
-0.76301885 0.31694248 0.76541048 9581091
-0.75549483 0.31694248 0.76541048 9581347
-0.77730304 0.3293716 0.79542661 9581091
-0.76948392 0.3293716 0.79542661 9712929
-0.76166487 0.3293716 0.79542661 9647137
-0.75384581 0.3293716 0.79542661 9581090
-0.7316801 0.32303753 0.78012997 9909538
-0.72401136 0.32303753 0.78012997 9778465
-0.73038858 0.3293716 0.79542661 9975587
-0.70867395 0.32303753 0.78012997 10237474
-0.70100522 0.32303753 0.78012997 10171680
-0.69333649 0.32303753 0.78012997 10303267
-0.69911224 0.3293716 0.79542661 9844001
-0.69129318 0.3293716 0.79542661 9909794
-0.68347406 0.3293716 0.79542661 10040607
-0.67565501 0.3293716 0.79542661 10106144
-0.66783589 0.3293716 0.79542661 10237476
-0.67321718 0.33595905 0.81133515 10696740
-0.67881811 0.34281534 0.82789302 10368288
-0.67067987 0.34281534 0.82789302 10434083
-0.66254163 0.34281534 0.82789302 10433570
-0.66803682 0.34995732 0.84514076 10434083
-0.659729 0.34995732 0.84514076 10368546
-0.65142125 0.34995732 0.84514076 10303010
-0.73498684 0.39995122 0.96587515 10303265
-0.74318719 0.40970615 0.98943311 10499874
-0.73346102 0.40970615 0.98943311 10500387
-0.72373486 0.40970615 0.98943311 10303265
-0.73185891 0.41994882 1.014169 10565922
-0.72188962 0.41994882 1.014169 10763045
-0.67801929 0.39995122 0.96587515 10894373
-0.62395638 0.3732878 0.90148348 10697253
-0.98854512 0.59992683 1.4488127 10696737
0 0 0 10959139
0 0 0 10762530
0 0 0 10762787
-1.863155 1.1998537 2.8976254 10958882
-1.9757999 1.2921501 3.1205199 10761761
-2.1072187 1.3998293 3.380563 10959398
-2.0739877 1.3998293 3.380563 10893604
-2.22628 1.5270865 3.687887 10959652
-2.1900277 1.5270865 3.687887 10696995
-2.3691535 1.6797953 4.0566759 11024675
-2.3292761 1.6797953 4.0566759 10893348
-1.4308742 1.0498719 2.5354223 10828326
-1.4059509 1.0498719 2.5354223 11090465
-1.3810276 1.0498719 2.5354223 10828064
-1.2763333 0.98811477 2.3862798 10828067
-1.2528762 0.98811477 2.3862798 11024421
-1.1611179 0.93321955 2.2537088 11090466
-1.1389638 0.93321955 2.2537088 11024677
-1.1825044 0.98811477 2.3862798 11155748
-1.1590472 0.98811477 2.3862798 11090209
-1.0725017 0.93321955 2.2537088 11156259
-1.0503476 0.93321955 2.2537088 11220769
-1.0886755 0.98811477 2.3862798 11221284
-1.0652182 0.98811477 2.3862798 11286564
-0.70839751 0.67191809 1.6226703 11089185
-0.36832264 0.35740322 0.86312246 11089953
-0.3598381 0.35740322 0.86312246 11089954
-0.35899168 0.36517286 0.88188601 11024418
-0.35810766 0.3732878 0.90148348 11024675
-0.34924603 0.3732878 0.90148348 10958883
-0.34038442 0.3732878 0.90148348 10827042
-0.31741545 0.35740322 0.86312246 10762018
-0.30249485 0.34995732 0.84514076 10630944
-0.29418707 0.34995732 0.84514076 10827811
-0.28587931 0.34995732 0.84514076 10696740
-0.27190682 0.34281534 0.82789302 10762273
-0.25849321 0.33595905 0.81133515 10761503
-0.25051776 0.33595905 0.81133515 10892576
-0.23321375 0.32303753 0.78012997 10892319
-0.22554503 0.32303753 0.78012997 10892832
-0.20980683 0.31107318 0.75123626 10957598
-0.20242214 0.31107318 0.75123626 10958367
-0.19503745 0.31107318 0.75123626 11023392
-0.17777631 0.29470092 0.71169752 11024162
-0.17078029 0.29470092 0.71169752 11155234
-0.17614534 0.31694248 0.76541048 10958369
-0.17523393 0.3293716 0.79542661 10826783
-0.16741484 0.3293716 0.79542661 10367775
-0.15959577 0.3293716 0.79542661 10630687
-0.15177669 0.3293716 0.79542661 10630431
-0.16315195 0.3732878 0.90148348 10761504
-0.15779693 0.38177162 0.92197174 10760989
0 0 0 11024160
0 0 0 10827296
0 0 0 11024162
0 0 0 11154976
0 0 0 11285790
-0.15691127 0.57923973 1.3988537 11155233
-0.14827335 0.59992683 1.4488127 11286305
-0.13403144 0.59992683 1.4488127 11352099
-0.12422621 0.62214637 1.5024725 11351585
-0.10945684 0.62214637 1.5024725 11220769
-0.10226246 0.67191809 1.6226703 11024162
-0.086311541 0.67191809 1.6226703 10958369
-0.070360616 0.67191809 1.6226703 10892576
-0.054409694 0.67191809 1.6226703 10762273
-0.038458772 0.67191809 1.6226703 11154976
-0.026795061 0.79990244 1.9317503 11220769
-0.0078058681 0.79990244 1.9317503 11351585
0.011183324 0.79990244 1.9317503 11286562
0.023467513 0.62214637 1.5024725 11220769
0.036871281 0.59992683 1.4488127 11286564
0.051113177 0.59992683 1.4488127 11023392
0.060998064 0.5599317 1.3522252 11483171
0 0 0 11089955
0 0 0 11154975
0 0 0 10958369
0 0 0 11351842
0 0 0 11155233
0.26391128 1.0498719 2.5354223 11286562
0.35548872 1.2921501 3.1205199 11482914
0.50201267 1.6797953 4.0566759 11155234
0.60209996 1.8664391 4.5074177 11090466
0.72720903 2.0997438 5.0708447 10828066
0.77705568 2.0997438 5.0708447 11155235
0.73502433 1.8664391 4.5074177 10959395
0.77933246 1.8664391 4.5074177 11352100
0.7412765 1.6797953 4.0566759 11417635
0.60088754 1.2921501 3.1205199 11483169
0.63156235 1.2921501 3.1205199 11482656
0.66223723 1.2921501 3.1205199 11548964
0.6929121 1.2921501 3.1205199 11417633
0.72358692 1.2921501 3.1205199 11614499
0.75426179 1.2921501 3.1205199 11483171
0.78493661 1.2921501 3.1205199 11745828
0.81561148 1.2921501 3.1205199 11548449
0.55008614 0.83989763 2.028338 11943204
0.54288071 0.79990244 1.9317503 11614499
0.51301163 0.73034573 1.763772 11548962
0.39348519 0.5418694 1.3086051 11680292
0.39365044 0.52493596 1.2677112 11811877
0.39380565 0.50902879 1.2292956 11878181
0.41857377 0.52493596 1.2677112 11418916
0.44493979 0.5418694 1.3086051 11680035
0.47306353 0.5599317 1.3522252 11156002
0.48635596 0.5599317 1.3522252 11221539
0.51687765 0.57923973 1.3988537 11615526
0.54957944 0.59992683 1.4488127 11483169
0.75176179 0.79990244 1.9317503 11352355
0.770751 0.79990244 1.9317503 11221026
0.7897402 0.79990244 1.9317503 11221539
0.80872941 0.79990244 1.9317503 11221280
0.82771862 0.79990244 1.9317503 11220512
0.84670776 0.79990244 1.9317503 11089955
0.86569697 0.79990244 1.9317503 11220771
0.84447318 0.76354325 1.8439435 11220771
0.79071593 0.69991463 1.6902815 11089953
0.77503824 0.67191809 1.6226703 11089954
0.76056653 0.64607507 1.5602599 10696738
0.72048217 0.59992683 1.4488127 10761759
0.79124135 0.64607507 1.5602599 10696226
0.83884192 0.67191809 1.6226703 10893090
0.92912263 0.73034573 1.763772 10433825
0.9464606 0.73034573 1.763772 9909536
1.0076076 0.76354325 1.8439435 10433567
1.074578 0.79990244 1.9317503 10827294
1.0935673 0.79990244 1.9317503 10761503
1.1125565 0.79990244 1.9317503 10696224
1.0801117 0.76354325 1.8439435 10761763
1.2080617 0.83989763 2.028338 10367519
1.4447062 0.98811477 2.3862798 10499875
1.4681635 0.98811477 2.3862798 10564640
1.2075025 0.79990244 1.9317503 10761507
1.170742 0.76354325 1.8439435 10564898
1.1371782 0.73034573 1.763772 10433572
1.2069941 0.76354325 1.8439435 10302499
1.171854 0.73034573 1.763772 10368548
1.1396424 0.69991463 1.6902815 10303011
1.1562579 0.69991463 1.6902815 10237218
1.1728734 0.69991463 1.6902815 9843231
1.189489 0.69991463 1.6902815 9974817
1.3784052 0.79990244 1.9317503 10237219
1.2758818 0.73034573 1.763772 10302499
1.1897622 0.67191809 1.6226703 10040095
1.1593395 0.64607507 1.5602599 10105377
1.174677 0.64607507 1.5602599 9974302
1.237615 0.67191809 1.6226703 10105633
1.2535659 0.67191809 1.6226703 9975074
1.2206893 0.64607507 1.5602599 9975333
1.1477391 0.59992683 1.4488127 10040610
1.2513641 0.64607507 1.5602599 10041635
1.3173696 0.67191809 1.6226703 9975077
1.3333205 0.67191809 1.6226703 9974563
1.3492714 0.67191809 1.6226703 9646884
1.3652223 0.67191809 1.6226703 9713190
1.2331904 0.59992683 1.4488127 9778213
1.2474322 0.59992683 1.4488127 9581346
1.2616742 0.59992683 1.4488127 9581089
1.8802974 0.8841027 2.1350925 9384995
0 0 0 9319205
0 0 0 9450790
0 0 0 9712675
2.6657672 1.1998537 2.8976254 9712675
3.7719517 1.6797953 4.0566759 9713188
3.8118291 1.6797953 4.0566759 9581603
4.2796736 1.8664391 4.5074177 9515811
3.8915837 1.6797953 4.0566759 9581602
4.3682899 1.8664391 4.5074177 9778468
3.9713383 1.6797953 4.0566759 9450788
5.7303076 2.3997073 5.7952509 9581603
5.0638661 2.0997438 5.0708447 9188129
1.7045708 0.69991463 1.6902815 9384740
1.4753026 0.59992683 1.4488127 9515811
1.4381809 0.57923973 1.3988537 9450789
1.3158131 0.52493596 1.2677112 9318946
1.4656825 0.57923973 1.3988537 9450275
1.4794333 0.57923973 1.3988537 9451044
1.546512 0.59992683 1.4488127 9516582
4.3701115 1.6797953 4.0566759 9319973
4.4099889 1.6797953 4.0566759 9385765
4.4498658 1.6797953 4.0566759 9451046
1.3605281 0.50902879 1.2292956 9451817
1.2242217 0.45399868 1.0963988 9451561
1.1423745 0.41994882 1.014169 9386794
1.0475852 0.38177162 0.92197174 9780266
1.0566483 0.38177162 0.92197174 9781036
1.1722825 0.41994882 1.014169 9847600
0 0 0 9584687
0 0 0 9912368
0 0 0 9716013
0 0 0 9780522
0 0 0 9190186
0 0 0 8141098
0 0 0 6369315
0 0 0 5909795
0 0 0 6172452
0 0 0 6171939
0 0 0 5778212
0 0 0 4858910
0 0 0 4728095
0 0 0 4860707
0 0 0 1641231
0 0 0 1969938
-0.79369611 0.28191352 0.66502881 2627353
-0.78715885 0.28191352 0.66502881 4469035
-0.79363191 0.28661206 0.67611259 4927266
-0.7869857 0.28661206 0.67611259 4532510
-0.78033948 0.28661206 0.67611259 4466718
-0.77369326 0.28661206 0.67611259 5319713
-0.79349691 0.29649526 0.69942683 5779236
-0.78662151 0.29649526 0.69942683 6107174
-0.76653016 0.29146993 0.68757218 6501159
-0.75977129 0.29146993 0.68757218 6828324
-0.77943391 0.30169693 0.71169752 7942434
-0.8005265 0.3126677 0.73757738 8794657
-0.80796641 0.31845787 0.75123626 8860450
-0.78602564 0.3126677 0.73757738 8860450
-0.75144982 0.30169693 0.71169752 8925217
-0.75774759 0.30708435 0.72440636 8794402
-0.76427442 0.3126677 0.73757738 9056802
-0.771043 0.31845787 0.75123626 9187361
-0.77806687 0.3244665 0.76541048 9384482
-0.77054286 0.3244665 0.76541048 9318688
-0.76301885 0.3244665 0.76541048 9515297
-0.75549483 0.3244665 0.76541048 9384481
-0.74797082 0.3244665 0.76541048 9253407
-0.75468624 0.33070627 0.78012997 9384480
-0.76166487 0.33719069 0.79542661 9515553
-0.75384581 0.33719069 0.79542661 9844001
-0.74602669 0.33719069 0.79542661 9712161
-0.72401136 0.33070627 0.78012997 10106403
-0.71634263 0.33070627 0.78012997 10040609
-0.70867395 0.33070627 0.78012997 10106401
-0.70100522 0.33070627 0.78012997 10106403
-0.69333649 0.33070627 0.78012997 10105632
-0.68566781 0.33070627 0.78012997 9910050
-0.69129318 0.33719069 0.79542661 9844001
-0.68347406 0.33719069 0.79542661 9844001
-0.67565501 0.33719069 0.79542661 10171683
-0.66783589 0.33719069 0.79542661 10368289
-0.67321718 0.34393451 0.81133515 10434082
-0.66524172 0.34393451 0.81133515 10499876
-0.67067987 0.35095358 0.82789302 10499876
-0.66254163 0.35095358 0.82789302 10499363
-0.66803682 0.3582651 0.84514076 10564899
-0.659729 0.3582651 0.84514076 10434082
-0.6652813 0.36588776 0.86312246 10303265
-0.68598771 0.38214943 0.90148348 10172192
-0.74318719 0.41943231 0.98943311 10433823
-0.73346102 0.41943231 0.98943311 10434081
-0.72373486 0.41943231 0.98943311 10762019
-0.73185891 0.42991814 1.014169 10565412
-0.72188962 0.42991814 1.014169 10500129
-0.63281798 0.38214943 0.90148348 10368803
-0.62395638 0.38214943 0.90148348 10500901
0 0 0 10762787
0 0 0 10893859
0 0 0 10565664
0 0 0 10565921
0 0 0 10630947
-2.1404498 1.4330604 3.380563 10499874
-2.1072187 1.4330604 3.380563 10630690
-2.0739877 1.4330604 3.380563 10958882
-2.22628 1.5633386 3.687887 10565154
-2.1900277 1.5633386 3.687887 10696483
-2.3691535 1.7196726 4.0566759 10828066
-2.5880845 1.9107473 4.5074177 10696480
-1.9078321 1.4330604 3.380563 10893602
-1.7304012 1.3228251 3.1205199 10696994
-1.5783172 1.2283374 2.8976254 10762788
-1.5498334 1.2283374 2.8976254 10565667
-1.2528762 1.011572 2.3862798 10893602
-1.2294189 1.011572 2.3862798 10893346
-1.2059617 1.011572 2.3862798 10828066
-1.1825044 1.011572 2.3862798 11090468
-1.2314876 1.0747952 2.5354223 11024162
-1.2065643 1.0747952 2.5354223 10958625
-1.1121327 1.011572 2.3862798 11089954
-0.97407806 0.90509075 2.1350925 10827296
-0.86231953 0.81889164 1.9317503 11024162
-0.38499862 0.37384182 0.88188601 11024160
-0.36832264 0.36588776 0.86312246 11089955
-0.3598381 0.36588776 0.86312246 11220770
-0.35899168 0.37384182 0.88188601 11024417
-0.35810766 0.38214943 0.90148348 10695454
-0.34924603 0.38214943 0.90148348 10827043
-0.34038442 0.38214943 0.90148348 10828066
-0.31741545 0.36588776 0.86312246 10827296
-0.3089309 0.36588776 0.86312246 10827812
-0.29418707 0.3582651 0.84514076 10696738
-0.28004503 0.35095358 0.82789302 10696481
-0.27190682 0.35095358 0.82789302 10564897
-0.25849321 0.34393451 0.81133515 10761249
-0.24088246 0.33070627 0.78012997 10564640
-0.23321375 0.33070627 0.78012997 10695711
-0.22128946 0.3244665 0.76541048 10827042
-0.20980683 0.31845787 0.75123626 10761503
-0.19176835 0.30169693 0.71169752 11024162
-0.18477233 0.30169693 0.71169752 10892577
-0.17777631 0.30169693 0.71169752 11089440
-0.16783579 0.29649526 0.69942683 11155233
-0.16096039 0.29649526 0.69942683 11089697
-0.15958804 0.30708435 0.72440636 10957856
-0.15523921 0.3126677 0.73757738 10761503
-0.15652663 0.33070627 0.78012997 10695710
-0.14885791 0.33070627 0.78012997 10630433
-0.15295495 0.3582651 0.84514076 10761503
-0.15429033 0.38214943 0.90148348 10761503
0 0 0 10761248
0 0 0 10760989
0 0 0 11089697
0 0 0 11089696
0 0 0 11351841
-0.18201707 0.68786901 1.6226703 11351327
-0.16606615 0.68786901 1.6226703 11285279
-0.14434157 0.66141254 1.5602599 11286562
-0.12900414 0.66141254 1.5602599 11351583
-0.10945684 0.63691574 1.5024725 11089183
-0.098329291 0.66141254 1.5602599 11220769
-0.10788943 0.85983628 2.028338 11089953
-0.10993847 1.0747952 2.5354223 11351585
-0.085015148 1.0747952 2.5354223 11351587
-0.045784254 0.81889164 1.9317503 10958369
-0.033099782 1.011572 2.3862798 11351585
-0.0096425433 1.011572 2.3862798 10958882
0.0097854082 0.7165302 1.6902815 11089953
0.023467513 0.63691574 1.5024725 11155746
0.038236886 0.63691574 1.5024725 11285792
0 0 0 10958365
0 0 0 10827296
0 0 0 11285794
0 0 0 11351585
0 0 0 11089955
0 0 0 11351841
0.23898795 1.0747952 2.5354223 11548449
0.32481387 1.3228251 3.1205199 11286049
0.46213534 1.7196726 4.0566759 11417635
0.50201267 1.7196726 4.0566759 11286562
0.60209996 1.9107473 4.5074177 11155491
0.72720903 2.1495905 5.0708447 11155747
0.77705568 2.1495905 5.0708447 11089953
0.73502433 1.9107473 4.5074177 11352355
0.70139921 1.7196726 4.0566759 11286562
0.57021266 1.3228251 3.1205199 11090214
0.60088754 1.3228251 3.1205199 11221539
0.63156235 1.3228251 3.1205199 11286564
0.71742362 1.4330604 3.380563 11352353
0.7506547 1.4330604 3.380563 11221283
0.72358692 1.3228251 3.1205199 11352354
0.75426179 1.3228251 3.1205199 11483171
0.78493661 1.3228251 3.1205199 11614757
0.81561148 1.3228251 3.1205199 11417379
0.55008614 0.85983628 2.028338 11352099
0.54288071 0.81889164 1.9317503 11286562
0.51301163 0.74768364 1.763772 11417633
0.39348519 0.55473304 1.3086051 11417378
0.39365044 0.53739762 1.2677112 11352355
0.4061121 0.53739762 1.2677112 11745828
0.41857377 0.53739762 1.2677112 11418918
0.44493979 0.55473304 1.3086051 11746086
0.45780343 0.55473304 1.3086051 11417891
0.48635596 0.57322413 1.3522252 11352353
0.51687765 0.59299052 1.3988537 11353125
0.6994648 0.78166932 1.8439435 11417378
0.75176179 0.81889164 1.9317503 11286560
0.770751 0.81889164 1.9317503 11417634
0.7897402 0.81889164 1.9317503 11352355
0.80872941 0.81889164 1.9317503 10958369
0.82771862 0.81889164 1.9317503 11023903
0.84670776 0.81889164 1.9317503 11089183
0.82634711 0.78166932 1.8439435 11024673
0.80775696 0.74768364 1.763772 10958623
0.79071593 0.7165302 1.6902815 11089953
0.77503824 0.68786901 1.6226703 10893087
0.76056653 0.66141254 1.5602599 10958625
0.74716675 0.63691574 1.5024725 10958369
0.79124135 0.66141254 1.5602599 10958369
0.7767055 0.63691574 1.5024725 10761762
0.85479283 0.68786901 1.6226703 10761506
0.9464606 0.74768364 1.763772 10171681
0 0 0 9647136
0 0 0 9712161
1.2086797 0.90509075 2.1350925 10368547
1.1125565 0.81889164 1.9317503 10368032
1.3977917 1.011572 2.3862798 10433567
1.4212489 1.011572 2.3862798 10761249
1.4447062 1.011572 2.3862798 10433570
1.31362 0.90509075 2.1350925 10498847
1.2075025 0.81889164 1.9317503 10433312
1.2264916 0.81889164 1.9317503 10433570
1.2454808 0.81889164 1.9317503 10499361
1.26447 0.81889164 1.9317503 10368288
1.0781058 0.68786901 1.6226703 10302497
1.1396424 0.7165302 1.6902815 10236191
1.1562579 0.7165302 1.6902815 10302499
1.2794983 0.78166932 1.8439435 10105890
1.2976243 0.78166932 1.8439435 10171427
1.3784052 0.81889164 1.9317503 10105890
1.2758818 0.74768364 1.763772 9908768
1.1440022 0.66141254 1.5602599 10236706
1.1593395 0.66141254 1.5602599 10040356
1.174677 0.66141254 1.5602599 9975075
1.237615 0.68786901 1.6226703 9778208
1.2535659 0.68786901 1.6226703 10106403
1.3224133 0.7165302 1.6902815 10106660
1.2360268 0.66141254 1.5602599 9909284
1.0845155 0.57322413 1.3522252 9778725
1.1762228 0.6141687 1.4488127 9975333
1.2820389 0.66141254 1.5602599 9647397
1.2973764 0.66141254 1.5602599 9581091
1.3652223 0.68786901 1.6226703 9778468
1.3811733 0.68786901 1.6226703 9778468
1.3971242 0.68786901 1.6226703 9581091
1.4719532 0.7165302 1.6902815 9778725
0 0 0 9450787
0 0 0 9515809
0 0 0 9254692
0 0 0 9451301
2.6657672 1.2283374 2.8976254 9581348
2.6942511 1.2283374 2.8976254 9384225
3.8118291 1.7196726 4.0566759 9778213
3.8517065 1.7196726 4.0566759 9647142
4.3239818 1.9107473 4.5074177 9450275
3.9314611 1.7196726 4.0566759 9581346
3.9713383 1.7196726 4.0566759 9712677
4.0112157 1.7196726 4.0566759 9318948
5.0638661 2.1495905 5.0708447 9319461
5.1137128 2.1495905 5.0708447 9449760
5.163559 2.1495905 5.0708447 9187875
1.7378019 0.7165302 1.6902815 9319202
1.4519317 0.59299052 1.3988537 9582374
1.4656825 0.59299052 1.3988537 9450789
1.4794333 0.59299052 1.3988537 9254951
1.4931841 0.59299052 1.3988537 9648680
4.3701115 1.7196726 4.0566759 9844774
1.5749959 0.6141687 1.4488127 9648422
1.5344365 0.59299052 1.3988537 9450276
1.2471509 0.47768682 1.1268544 9517094
1.1614412 0.44094166 1.0401733 9582887
1.1423745 0.42991814 1.014169 9713958
1.1523438 0.42991814 1.014169 9845546
1.0566483 0.39083466 0.92197174 9779751
1.1722825 0.42991814 1.014169 9846059
0 0 0 9649450
0 0 0 9781293
0 0 0 9584171
0 0 0 9518121
0 0 0 9648937
0 0 0 9321001
0 0 0 7745825
0 0 0 5843487
0 0 0 5909282
0 0 0 5909282
0 0 0 5647139
0 0 0 5186846
0 0 0 4924444
0 0 0 4596511
0 0 0 1903632
0 0 0 2166032
-0.84939408 0.30869296 0.71169752 3481374
-0.84239805 0.30869296 0.71169752 4599592
-0.79363191 0.29325828 0.67611259 4072730
-0.72644836 0.27069998 0.62410396 4661530
-0.75516725 0.28379834 0.65430254 6827303
-0.76100981 0.28845078 0.66502881 7943207
-0.75447249 0.28845078 0.66502881 8072994
-0.74793524 0.28845078 0.66502881 8663844
-0.74139798 0.28845078 0.66502881 8859938
-0.77287072 0.30337065 0.69942683 8728094
-0.77943391 0.30869296 0.71169752 8859680
-0.83073503 0.33199051 0.76541048 8925473
-0.82321101 0.33199051 0.76541048 8925216
-0.80058169 0.32584256 0.75123626 8924960
-0.77877522 0.31991813 0.73757738 8794145
-0.77152479 0.31991813 0.73757738 8728353
-0.76427442 0.31991813 0.73757738 9187362
-0.78559089 0.33199051 0.76541048 9121569
-0.77806687 0.33199051 0.76541048 9252637
-0.77054286 0.33199051 0.76541048 9384736
-0.76301885 0.33199051 0.76541048 9253922
-0.74150425 0.32584256 0.75123626 9384480
-0.74797082 0.33199051 0.76541048 9515296
-0.75468624 0.33837497 0.78012997 9515296
-0.7470175 0.33837497 0.78012997 9909540
-0.75384581 0.34500974 0.79542661 9843747
-0.74602669 0.34500974 0.79542661 9909027
-0.73820764 0.34500974 0.79542661 10171681
-0.73038858 0.34500974 0.79542661 10171681
-0.72256947 0.34500974 0.79542661 10171681
-0.71475041 0.34500974 0.79542661 10171682
-0.68025464 0.33199051 0.76541048 9975330
-0.67273062 0.33199051 0.76541048 10171681
-0.67799908 0.33837497 0.78012997 9909794
-0.68347406 0.34500974 0.79542661 10040609
-0.67565501 0.34500974 0.79542661 10106144
-0.66783589 0.34500974 0.79542661 10302754
-0.67321718 0.35190997 0.81133515 10368547
-0.66524172 0.35190997 0.81133515 10303010
-0.65726626 0.35190997 0.81133515 10499617
-0.67634457 0.36657286 0.84514076 10303267
-0.66803682 0.36657286 0.84514076 10433827
-0.659729 0.36657286 0.84514076 10434081
-0.65142125 0.36657286 0.84514076 10368802
-0.67107493 0.38251081 0.88188601 10368289
-0.66240597 0.38251081 0.88188601 10499363
-0.66826445 0.39101106 0.90148348 10565669
-0.72373486 0.42915848 0.98943311 10696995
-0.73185891 0.43988746 1.014169 10434595
-0.72188962 0.43988746 1.014169 10499876
-0.69455636 0.42915848 0.98943311 10368290
0 0 0 10565667
0 0 0 10828581
0 0 0 10697251
0 0 0 10762533
0 0 0 10697253
0 0 0 10959396
-2.1404498 1.4662914 3.380563 10828066
-2.1072187 1.4662914 3.380563 10565152
-2.4887853 1.7595499 4.0566759 10827812
-2.4489081 1.7595499 4.0566759 10696740
-2.4090307 1.7595499 4.0566759 10696738
-2.3691535 1.7595499 4.0566759 10499617
-2.3292761 1.7595499 4.0566759 10762273
-2.2893987 1.7595499 4.0566759 10696994
-1.8746011 1.4662914 3.380563 10499615
-1.84137 1.4662914 3.380563 10499874
-1.6690514 1.3534999 3.1205199 10958882
-1.5213495 1.2568213 2.8976254 10630690
-1.2294189 1.0350293 2.3862798 10631460
-1.2059617 1.0350293 2.3862798 11090468
-1.1825044 1.0350293 2.3862798 10959139
-1.2314876 1.0997186 2.5354223 11154976
-1.2065643 1.0997186 2.5354223 10762018
-1.181641 1.0997186 2.5354223 11089955
-0.97407806 0.92607886 2.1350925 10958882
-0.90543556 0.87977493 2.028338 11024418
-0.39355415 0.39101106 0.90148348 10565152
-0.37632966 0.38251081 0.88188601 10958369
-0.3598381 0.37437227 0.86312246 11024162
-0.35899168 0.38251081 0.88188601 10827296
-0.35810766 0.39101106 0.90148348 10826786
-0.34924603 0.39101106 0.90148348 10761504
-0.31911039 0.36657286 0.84514076 11023906
-0.30445972 0.35909179 0.82789302 10958882
-0.30249485 0.36657286 0.84514076 10958369
-0.29418707 0.36657286 0.84514076 11089185
-0.28004503 0.35909179 0.82789302 10630433
-0.27190682 0.35909179 0.82789302 10499360
-0.26376858 0.35909179 0.82789302 10630175
-0.2363375 0.33199051 0.76541048 10827296
-0.22881347 0.33199051 0.76541048 10892576
-0.22128946 0.33199051 0.76541048 11089186
-0.20980683 0.32584256 0.75123626 10826785
-0.19176835 0.30869296 0.71169752 10957599
-0.18477233 0.30869296 0.71169752 10761249
-0.17777631 0.30869296 0.71169752 10957599
-0.16783579 0.30337065 0.69942683 10761247
-0.16096039 0.30337065 0.69942683 10826526
-0.154085 0.30337065 0.69942683 11023649
-0.15523921 0.31991813 0.73757738 10761504
-0.1479888 0.31991813 0.73757738 10695456
-0.14885791 0.33837497 0.78012997 10827296
-0.15295495 0.36657286 0.84514076 10761249
-0.14464718 0.36657286 0.84514076 10564894
0 0 0 10826781
0 0 0 10629917
0 0 0 10957597
0 0 0 10958624
0 0 0 11023903
0 0 0 10826782
0 0 0 11089699
0 0 0 11155232
0 0 0 11351842
-0.11366671 0.67674994 1.5602599 11023647
-0.15038598 1.0350293 2.3862798 11286048
-0.12692873 1.0350293 2.3862798 11023648
-0.10993847 1.0997186 2.5354223 10958367
-0.090682819 1.1730331 2.7044504 11220769
-0.068676382 1.2568213 2.8976254 11089953
-0.040192589 1.2568213 2.8976254 11089953
-0.011708803 1.2568213 2.8976254 11024160
0.014678113 1.0997186 2.5354223 10892576
0.039601427 1.0997186 2.5354223 11024160
0 0 0 10827296
0 0 0 11154976
0 0 0 10826529
0.17143962 1.3534999 3.1205199 11024418
0 0 0 10958112
0 0 0 11155491
0.2014726 1.0350293 2.3862798 10827296
0.22492984 1.0350293 2.3862798 11089953
0.26391128 1.0997186 2.5354223 11024417
0.35548872 1.3534999 3.1205199 11220769
0.50201267 1.7595499 4.0566759 11220513
0.60209996 1.9550554 4.5074177 11156260
0.72720903 2.1994371 5.0708447 11090468
0.77705568 2.1994371 5.0708447 11220769
0.55126822 1.4662914 3.380563 11417376
0.53953785 1.3534999 3.1205199 11089953
0.57021266 1.3534999 3.1205199 11221539
0.60088754 1.3534999 3.1205199 11155746
0.63156235 1.3534999 3.1205199 11221028
0.71742362 1.4662914 3.380563 11286819
0.6929121 1.3534999 3.1205199 11155489
0.72358692 1.3534999 3.1205199 11221283
0.75426179 1.3534999 3.1205199 11351843
0.78493661 1.3534999 3.1205199 11287075
0.81561148 1.3534999 3.1205199 11417378
0.84628636 1.3534999 3.1205199 11220769
0.57002479 0.87977493 2.028338 11089953
0.51301163 0.76502162 1.763772 11614242
0.39348519 0.56759667 1.3086051 11483428
0.39365044 0.54985929 1.2677112 11221539
0.4061121 0.54985929 1.2677112 11352355
0.41857377 0.54985929 1.2677112 11417891
0.43103543 0.54985929 1.2677112 11418405
0.44349706 0.54985929 1.2677112 11417120
0.50312686 0.60674131 1.3988537 11483169
0.62456053 0.73314571 1.6902815 11222054
0 0 0 11287075
0 0 0 11221796
0 0 0 11024675
1.0365341 1.0997186 2.5354223 11090466
0.99901867 1.0350293 2.3862798 10564894
1.022476 1.0350293 2.3862798 10828066
0.84670776 0.83788085 1.9317503 10499360
0.82634711 0.79979533 1.8439435 10892831
0.77410042 0.73314571 1.6902815 10958369
0.79071593 0.73314571 1.6902815 10826783
0.77503824 0.70381993 1.6226703 10893089
0.76056653 0.67674994 1.5602599 10695968
0.74716675 0.65168512 1.5024725 10630692
0.76193613 0.65168512 1.5024725 10827299
0.7767055 0.65168512 1.5024725 10696480
0.76320785 0.62841064 1.4488127 10564642
0.77744979 0.62841064 1.4488127 10695968
0 0 0 10630947
0 0 0 10302497
1.7665318 1.3534999 3.1205199 10171681
1.3743345 1.0350293 2.3862798 9778208
1.5841639 1.1730331 2.7044504 9778468
1.4212489 1.0350293 2.3862798 10368291
1.0678263 0.76502162 1.763772 10499359
1.0851643 0.76502162 1.763772 10564640
1.1025022 0.76502162 1.763772 10630433
1.2264916 0.83788085 1.9317503 10498847
1.2454808 0.83788085 1.9317503 10302241
1.26447 0.83788085 1.9317503 10367777
1.0781058 0.70381993 1.6226703 10499363
1.0940567 0.70381993 1.6226703 10105119
1.2613722 0.79979533 1.8439435 10368290
1.2794983 0.79979533 1.8439435 10368032
1.359416 0.83788085 1.9317503 10301983
1.3784052 0.83788085 1.9317503 10105890
1.22272 0.73314571 1.6902815 10105892
1.1897622 0.70381993 1.6226703 10236705
1.1593395 0.67674994 1.5602599 10236706
1.174677 0.67674994 1.5602599 10105890
1.1900145 0.67674994 1.5602599 10040610
1.2535659 0.70381993 1.6226703 9974562
1.2695168 0.70381993 1.6226703 9712416
1.2360268 0.67674994 1.5602599 9515555
1.1219126 0.60674131 1.3988537 9515298
1.1762228 0.62841064 1.4488127 10105890
1.1904647 0.62841064 1.4488127 9910053
1.2973764 0.67674994 1.5602599 9778468
1.3127139 0.67674994 1.5602599 9647397
1.3811733 0.70381993 1.6226703 9778983
1.3971242 0.70381993 1.6226703 9778469
1.4719532 0.73314571 1.6902815 9713188
1.7012215 0.83788085 1.9317503 9647395
1.8062212 0.87977493 2.028338 9647399
1.82616 0.87977493 2.028338 9581861
1.0549134 0.50272852 1.1590502 9516581
1.0366874 0.48876384 1.1268544 9384995
1.0777005 0.50272852 1.1590502 9582374
1.1550996 0.53319687 1.2292956 9515812
1.8341458 0.83788085 1.9317503 9450020
3.5378032 1.5995907 3.687887 9319203
1.3556761 0.60674131 1.3988537 9253922
1.418335 0.62841064 1.4488127 9188388
1.4325769 0.62841064 1.4488127 9318689
1.4468188 0.62841064 1.4488127 9122336
1.6363881 0.70381993 1.6226703 9319202
1.4753026 0.62841064 1.4488127 9450018
1.6682899 0.70381993 1.6226703 9384225
1.4519317 0.60674131 1.3988537 9450018
1.4656825 0.60674131 1.3988537 9581604
1.4794333 0.60674131 1.3988537 9582372
1.4931841 0.60674131 1.3988537 9648165
1.5607539 0.62841064 1.4488127 9451299
1.5749959 0.62841064 1.4488127 9779235
1.5344365 0.60674131 1.3988537 9778981
1.2134441 0.47555399 1.0963988 9910569
1.1614412 0.45116663 1.0401733 9648168
1.1716661 0.45116663 1.0401733 9648680
1.1818911 0.45116663 1.0401733 9517610
1.1623131 0.43988746 1.014169 9518380
1.1722825 0.43988746 1.014169 9583145
0 0 0 9517351
0 0 0 9648937
0 0 0 9518121
0 0 0 9386792
0 0 0 9255465
0 0 0 9517864
0 0 0 8664102
0 0 0 6893608
0 0 0 5843233
0 0 0 5580831
0 0 0 5712416
0 0 0 5646369
0 0 0 5055776
0 0 0 4727584
0 0 0 4464152
0 0 0 5778475
-0.84939408 0.31568897 0.71169752 6632234
-0.80027813 0.2999045 0.67611259 7680806
-0.74402994 0.28116047 0.63385558 8335393
-0.72644836 0.27683493 0.62410396 8597537
-0.72031337 0.27683493 0.62410396 8663330
-0.72533745 0.28116047 0.63385558 8860195
-0.74230361 0.29023018 0.65430254 8794145
-0.74793524 0.29498804 0.66502881 8728864
-0.74139798 0.29498804 0.66502881 8859682
-0.77287072 0.31024605 0.69942683 8728866
-0.77943391 0.31568897 0.71169752 8990755
-0.7862314 0.32132626 0.72440636 9056291
-0.80796641 0.33322725 0.75123626 9055776
-0.80058169 0.33322725 0.75123626 8793119
-0.79319704 0.33322725 0.75123626 8990497
-0.78581238 0.33322725 0.75123626 8990238
-0.77842766 0.33322725 0.75123626 9056289
-0.771043 0.33322725 0.75123626 9186846
-0.76365829 0.33322725 0.75123626 9252637
-0.77054286 0.33951452 0.76541048 9188127
-0.77769232 0.34604368 0.78012997 9186846
-0.74150425 0.33322725 0.75123626 9450018
-0.73411953 0.33322725 0.75123626 9581089
-0.72673488 0.33322725 0.75123626 9450016
-0.7470175 0.34604368 0.78012997 9712675
-0.73934877 0.34604368 0.78012997 9974563
-0.76094723 0.35988542 0.81133515 10105890
-0.73820764 0.35282883 0.79542661 10172196
-0.74499631 0.35988542 0.81133515 10040865
-0.72256947 0.35282883 0.79542661 9975328
-0.71475041 0.35282883 0.79542661 10105888
-0.70693129 0.35282883 0.79542661 10302497
-0.67273062 0.33951452 0.76541048 10106145
-0.66520661 0.33951452 0.76541048 10040610
-0.67033035 0.34604368 0.78012997 9909794
-0.67565501 0.35282883 0.79542661 10040867
-0.68119264 0.35988542 0.81133515 9974818
-0.67321718 0.35988542 0.81133515 10106403
-0.66524172 0.35988542 0.81133515 9974302
-0.65726626 0.35988542 0.81133515 9843231
-0.66254163 0.36723003 0.82789302 10302754
-0.66803682 0.37488064 0.84514076 10499363
-0.659729 0.37488064 0.84514076 10302497
-0.6652813 0.38285682 0.86312246 10302497
-0.67107493 0.3911798 0.88188601 10302498
-0.64831221 0.38285682 0.86312246 10303008
-0.65373695 0.3911798 0.88188601 10369058
-0.70650303 0.428435 0.96587515 10434082
-0.73185891 0.44985679 1.014169 10434081
0 0 0 10499618
0 0 0 10499617
0 0 0 10696740
0 0 0 10762533
0 0 0 10630947
0 0 0 10565154
0 0 0 10499875
0 0 0 10893089
-2.1404498 1.4995226 3.380563 10828066
-2.1072187 1.4995226 3.380563 10762019
-2.4887853 1.7994272 4.0566759 10761249
-2.4489081 1.7994272 4.0566759 10631201
-2.4090307 1.7994272 4.0566759 10368288
-2.3691535 1.7994272 4.0566759 10499618
-2.5880845 1.9993635 4.5074177 10762529
-2.5437765 1.9993635 4.5074177 10565408
-2.4994683 1.9993635 4.5074177 10565154
-2.4551601 1.9993635 4.5074177 10696480
-2.4108522 1.9993635 4.5074177 10828068
-1.6383766 1.3841747 3.1205199 10434083
-1.4928658 1.285305 2.8976254 10696483
-1.2059617 1.0584865 2.3862798 11024675
-1.1825044 1.0584865 2.3862798 10893859
-1.2314876 1.1246419 2.5354223 10762016
-1.3789307 1.285305 2.8976254 10892834
-1.3504468 1.285305 2.8976254 10762017
-1.2338321 1.199618 2.7044504 10893087
-0.86231953 0.85687 1.9317503 10958882
-0.39355415 0.39987269 0.90148348 10827810
-0.37632966 0.3911798 0.88188601 10761761
-0.3598381 0.38285682 0.86312246 10827296
-0.35899168 0.3911798 0.88188601 10761503
-0.35032272 0.3911798 0.88188601 10499615
-0.34165373 0.3911798 0.88188601 10827296
-0.31911039 0.37488064 0.84514076 10761503
-0.30445972 0.36723003 0.82789302 10892833
-0.29632148 0.36723003 0.82789302 10892578
-0.28818327 0.36723003 0.82789302 10958369
-0.28004503 0.36723003 0.82789302 10564897
-0.27190682 0.36723003 0.82789302 10893089
-0.26376858 0.36723003 0.82789302 10499361
-0.25051776 0.35988542 0.81133515 10498848
-0.22881347 0.33951452 0.76541048 10564384
-0.22128946 0.33951452 0.76541048 10695969
-0.21376544 0.33951452 0.76541048 10695968
-0.19176835 0.31568897 0.71169752 10367775
-0.18477233 0.31568897 0.71169752 10498847
-0.17777631 0.31568897 0.71169752 10695456
-0.16783579 0.31024605 0.69942683 10695458
-0.16378428 0.31568897 0.71169752 10695456
-0.15678826 0.31568897 0.71169752 10761247
-0.15246709 0.32132626 0.72440636 10826784
-0.1479888 0.32716855 0.73757738 10695968
-0.14885791 0.34604368 0.78012997 10695712
-0.15295495 0.37488064 0.84514076 10761503
-0.14464718 0.37488064 0.84514076 10629663
-0.1454287 0.39987269 0.90148348 10695710
0 0 0 10433568
0 0 0 10958882
0 0 0 10761503
0 0 0 10826781
0 0 0 10892576
0 0 0 11089698
0 0 0 11154464
0 0 0 11286049
-0.18470842 1.1246419 2.5354223 11155234
-0.15978509 1.1246419 2.5354223 11023133
-0.12692873 1.0584865 2.3862798 11023904
-0.10993847 1.1246419 2.5354223 11023903
-0.090682819 1.199618 2.7044504 11352096
-0.068676382 1.285305 2.8976254 11220767
-0.040192589 1.285305 2.8976254 10958622
-0.01260948 1.3841747 3.1205199 11220256
0.018065371 1.3841747 3.1205199 10695709
0.052801903 1.4995226 3.380563 11089441
0 0 0 11155234
0 0 0 11089441
0 0 0 11089444
0.17143962 1.3841747 3.1205199 11089182
0 0 0 11155233
0 0 0 11221027
0.2446453 1.285305 2.8976254 10959138
0.27312908 1.285305 2.8976254 10826781
0.30161285 1.285305 2.8976254 10958111
0.38511276 1.4995226 3.380563 11089953
0.55779183 1.9993635 4.5074177 11483171
0.60209996 1.9993635 4.5074177 11483169
0.64640808 1.9993635 4.5074177 11089953
0.69071621 1.9993635 4.5074177 10893089
0.50886297 1.3841747 3.1205199 11089953
0.53953785 1.3841747 3.1205199 11220769
0.57021266 1.3841747 3.1205199 11548962
0.60088754 1.3841747 3.1205199 11417378
0.68419254 1.4995226 3.380563 11417377
0.71742362 1.4995226 3.380563 11417634
0.7506547 1.4995226 3.380563 11089696
0.72358692 1.3841747 3.1205199 11089955
0.75426179 1.3841747 3.1205199 11483171
0.78493661 1.3841747 3.1205199 11287332
0.81561148 1.3841747 3.1205199 11417376
0.84628636 1.3841747 3.1205199 10958368
0.87696117 1.3841747 3.1205199 11352097
0.49163616 0.74976128 1.6902815 11352097
0.39348519 0.58046037 1.3086051 11352356
0.39365044 0.56232095 1.2677112 11220769
0.4061121 0.56232095 1.2677112 11154976
0.41857377 0.56232095 1.2677112 11351842
0.44493979 0.58046037 1.3086051 11221539
0.44349706 0.56232095 1.2677112 11418146
0.48635596 0.59980899 1.3522252 11286560
0.55516493 0.66645449 1.5024725 11352612
0.6994648 0.8179214 1.8439435 11155746
0 0 0 11221539
0 0 0 11351583
1.0365341 1.1246419 2.5354223 11352355
1.0614574 1.1246419 2.5354223 10564897
1.022476 1.0584865 2.3862798 10630690
1.0459331 1.0584865 2.3862798 10499106
0.86569697 0.85687 1.9317503 10696224
0.77410042 0.74976128 1.6902815 10499874
0.79071593 0.74976128 1.6902815 10171679
0.77503824 0.71977085 1.6226703 10434337
0.79098916 0.71977085 1.6226703 10630690
0.74716675 0.66645449 1.5024725 10958628
0.76193613 0.66645449 1.5024725 10630177
0.7767055 0.66645449 1.5024725 10696740
0.76320785 0.64265251 1.4488127 10696224
0.77744979 0.64265251 1.4488127 10892834
1.1667036 0.9470669 2.1350925 10826529
1.074578 0.85687 1.9317503 10564897
1.0935673 0.85687 1.9317503 10630433
1.1681844 0.89971358 2.028338 10434083
1.3977917 1.0584865 2.3862798 10106146
1.2080617 0.89971358 2.028338 10368034
1.0678263 0.7823596 1.763772 10301984
1.0851643 0.7823596 1.763772 10367520
