# .PCD v0.7 - Point Cloud Data file format
VERSION 0.7
FIELDS x y z rgb
SIZE 4 4 4 4
TYPE F F F U
COUNT 1 1 1 1
WIDTH 1285
HEIGHT 1
VIEWPOINT 0 0 0 1 0 0 0
POINTS 1285
DATA ascii
-3.8047364 0.36384413 4.0566759 786698
-3.7648592 0.36384413 4.0566759 786696
-3.7249818 0.36384413 4.0566759 983307
-4.6063805 0.45480514 5.0708447 721675
-4.5565338 0.45480514 5.0708447 1049098
-4.0059443 0.40427125 4.5074177 918281
-3.9616363 0.40427125 4.5074177 983817
-3.9173281 0.40427125 4.5074177 853002
-3.8730199 0.40427125 4.5074177 918282
-3.8287117 0.40427125 4.5074177 721416
-3.4059634 0.36384413 4.0566759 721415
-3.366086 0.36384413 4.0566759 721416
-3.6957874 0.40427125 4.5074177 655625
-3.6514795 0.40427125 4.5074177 590088
-3.6071713 0.40427125 4.5074177 720903
-4.0082207 0.45480514 5.0708447 918282
-3.5185549 0.40427125 4.5074177 1180681
-3.9085276 0.45480514 5.0708447 1115145
-3.858681 0.45480514 5.0708447 1180938
-3.8088343 0.45480514 5.0708447 984075
-3.7589877 0.45480514 5.0708447 852743
-3.709141 0.45480514 5.0708447 918282
-3.6592944 0.45480514 5.0708447 983562
-3.6094477 0.45480514 5.0708447 852489
-3.5596011 0.45480514 5.0708447 852489
-3.5097547 0.45480514 5.0708447 983305
-3.459908 0.45480514 5.0708447 917512
-3.4100614 0.45480514 5.0708447 786696
-3.3602147 0.45480514 5.0708447 720903
-2.9425495 0.40427125 4.5074177 720903
-2.8982413 0.40427125 4.5074177 786696
-3.2106748 0.45480514 5.0708447 918026
-3.1608281 0.45480514 5.0708447 786697
-3.1109815 0.45480514 5.0708447 853260
-3.0611348 0.45480514 5.0708447 2888727
-3.0112882 0.45480514 5.0708447 4860203
-3.3845046 0.5197773 5.7952509 8278328
-3.3275371 0.5197773 5.7952509 9198654
-3.2705696 0.5197773 5.7952509 9132092
-3.2136018 0.5197773 5.7952509 9198909
-2.7620552 0.45480514 5.0708447 9395264
-2.7122085 0.45480514 5.0708447 9526847
-2.6623619 0.45480514 5.0708447 9657918
-2.6125152 0.45480514 5.0708447 9460287
-2.5626686 0.45480514 5.0708447 9461314
-2.5128219 0.45480514 5.0708447 9461311
-2.8148289 0.5197773 5.7952509 9197885
-2.7578614 0.5197773 5.7952509 9001534
-2.363282 0.45480514 5.0708447 8804412
-2.3134353 0.45480514 5.0708447 9132864
-2.2635887 0.45480514 5.0708447 7555117
-2.2137423 0.45480514 5.0708447 9461311
-0.86555827 0.18192206 2.028338 8213304
-0.73532134 0.1581931 1.763772 8607284
-0.66054475 0.14553764 1.6226703 1443591
-0.61980176 0.13994005 1.5602599 1312526
-0.60446435 0.13994005 1.5602599 1246987
-0.36469758 0.086629547 0.96587515 1049868
-0.33905742 0.082691841 0.92197174 984075
-0.32266116 0.080854245 0.90148348 918796
-0.28818327 0.074253902 0.82789302 984077
-0.28004503 0.074253902 0.82789302 983563
-0.26646867 0.072768822 0.81133515 1049355
-0.2534247 0.071341984 0.79542661 984076
-0.24560563 0.071341984 0.79542661 1181197
-0.23321375 0.069970027 0.78012997 2693923
-0.22554503 0.069970027 0.78012997 2758940
-0.21787633 0.069970027 0.78012997 3220003
-0.21020761 0.069970027 0.78012997 2758938
-0.20253889 0.069970027 0.78012997 1970198
-0.19487019 0.069970027 0.78012997 918283
-0.18720147 0.069970027 0.78012997 721160
-0.17953277 0.069970027 0.78012997 852489
-0.16862132 0.068649828 0.76541048 655882
-0.16419533 0.069970027 0.78012997 852489
-0.16278769 0.072768822 0.81133515 786698
-0.15481222 0.072768822 0.81133515 655880
-0.14983343 0.074253902 0.82789302 852489
-0.1416952 0.074253902 0.82789302 852491
-0.13088584 0.072768822 0.81133515 721675
-0.12291038 0.072768822 0.81133515 655882
-0.11493492 0.072768822 0.81133515 655882
-0.1091423 0.074253902 0.82789302 786696
-0.098983996 0.072768822 0.81133515 655882
-0.091008537 0.072768822 0.81133515 786698
-0.083033077 0.072768822 0.81133515 655880
-0.076589406 0.074253902 0.82789302 721673
-0.072915383 0.079096548 0.88188601 852489
-0.068728708 0.08461491 0.94341296 852489
-0.063914038 0.090961032 1.014169 786696
-0.056783907 0.095748454 1.0675462 852489
-0.051735748 0.10701297 1.1931399 852488
-0.036763307 0.09833625 1.0963988 852490
-0.026707483 0.10106781 1.1268544 852490
-0.012788552 0.082691841 0.92197174 983562
-0.0029272006 0.064972162 0.72440636 852232
0.0041937465 0.064972162 0.72440636 852489
0.011520416 0.066153474 0.73757738 1049098
0.019853767 0.069970027 0.78012997 1312267
0 0 0 1312267
0 0 0 1378317
0 0 0 1706254
0 0 0 1706252
0 0 0 1903118
0 0 0 1969426
0 0 0 4859422
0 0 0 5647391
0 0 0 5450784
0 0 0 5187868
0.60209996 0.40427125 4.5074177 5187611
0.64640808 0.40427125 4.5074177 5319455
0.51803714 0.30320343 3.380563 4727579
0.55126822 0.30320343 3.380563 4662043
0.5844993 0.30320343 3.380563 4531229
0.7412765 0.36384413 4.0566759 4596765
0.7811538 0.36384413 4.0566759 5122845
0.91225678 0.40427125 4.5074177 6766637
0.9565649 0.40427125 4.5074177 9197888
1.000873 0.40427125 4.5074177 9724223
0.85514814 0.33076736 3.687887 10775106
0.75426179 0.27988011 3.1205199 12681048
0.72886968 0.25988865 2.8976254 11959894
0.75735348 0.25988865 2.8976254 7619890
0.78583729 0.25988865 2.8976254 9460800
0.87696117 0.27988011 3.1205199 7618607
0.98327231 0.30320343 3.380563 918025
0.93831086 0.27988011 3.1205199 918282
0.96898574 0.27988011 3.1205199 852489
0.59070849 0.16538368 1.8439435 917767
0.53577441 0.14553764 1.6226703 852487
0.53050512 0.13994005 1.5602599 1246988
0.56767625 0.14553764 1.6226703 983817
0.66321272 0.16538368 1.8439435 983816
0.68133873 0.16538368 1.8439435 918536
0.6994648 0.16538368 1.8439435 787465
0.71759081 0.16538368 1.8439435 852489
0.73571688 0.16538368 1.8439435 851976
0.75384295 0.16538368 1.8439435 852489
0.77196896 0.16538368 1.8439435 918282
0.86910456 0.18192206 2.028338 1575696
0.98782581 0.20213562 2.2537088 2628380
1.0693904 0.21402594 2.3862798 1574925
0.92892057 0.18192206 2.028338 1114891
0.94885921 0.18192206 2.028338 852489
0.92266452 0.17325909 1.9317503 720903
0.94165373 0.17325909 1.9317503 917511
0.91697735 0.16538368 1.8439435 786696
0.93510342 0.16538368 1.8439435 852489
0.91178471 0.1581931 1.763772 721160
0.9713555 0.16538368 1.8439435 787466
0.98948157 0.16538368 1.8439435 918284
1.1083684 0.18192206 2.028338 852491
1.1283071 0.18192206 2.028338 852490
1.2086797 0.19149691 2.1350925 721418
1.2979827 0.20213562 2.2537088 655881
1.2506558 0.19149691 2.1350925 1836810
1.2080617 0.18192206 2.028338 7292729
1.2280003 0.18192206 2.028338 6373429
1.247939 0.18192206 2.028338 6439737
1.2678777 0.18192206 2.028338 7293499
1.2878163 0.18192206 2.028338 7489081
1.307755 0.18192206 2.028338 6438969
1.3276936 0.18192206 2.028338 7358782
1.2834592 0.17325909 1.9317503 7686206
1.3675709 0.18192206 2.028338 3479320
1.3875096 0.18192206 2.028338 2494484
1.4074482 0.18192206 2.028338 786696
1.4273869 0.18192206 2.028338 655368
1.3784052 0.17325909 1.9317503 655882
1.3338765 0.16538368 1.8439435 590087
1.3520025 0.16538368 1.8439435 655882
1.2559512 0.15160172 1.6902815 655882
1.2725667 0.15160172 1.6902815 721416
1.3452337 0.1581931 1.763772 852489
1.4923403 0.17325909 1.9317503 918538
1.5113295 0.17325909 1.9317503 2234140
1.5303187 0.17325909 1.9317503 3877418
1.5493079 0.17325909 1.9317503 4206641
1.568297 0.17325909 1.9317503 3484462
1.5872862 0.17325909 1.9317503 3616048
1.6062754 0.17325909 1.9317503 3550255
1.6252646 0.17325909 1.9317503 1707798
1.6442538 0.17325909 1.9317503 1049868
1.6632431 0.17325909 1.9317503 655882
1.8593093 0.19149691 2.1350925 655882
1.8802974 0.19149691 2.1350925 655882
2.0069125 0.20213562 2.2537088 918284
2.0290666 0.20213562 2.2537088 786698
2.1718805 0.21402594 2.3862798 721675
2.3325465 0.22740257 2.5354223 786955
2.2187951 0.21402594 2.3862798 786953
2.2422523 0.21402594 2.3862798 721418
2.0272138 0.19149691 2.1350925 721417
2.2891667 0.21402594 2.3862798 852490
2.312624 0.21402594 2.3862798 787209
2.3360813 0.21402594 2.3862798 786698
1.9101025 0.17325909 1.9317503 852491
1.9290917 0.17325909 1.9317503 918282
1.9480809 0.17325909 1.9317503 984329
1.9670701 0.17325909 1.9317503 918282
1.8133585 0.1581931 1.763772 918282
1.8306965 0.1581931 1.763772 1115145
1.7710329 0.15160172 1.6902815 1049868
1.7876486 0.15160172 1.6902815 3940121
1.8042641 0.15160172 1.6902815 4072990
1.8208796 0.15160172 1.6902815 3021849
1.9173863 0.1581931 1.763772 1378063
1.8541107 0.15160172 1.6902815 4730143
2.0407922 0.16538368 1.8439435 7160878
2.0589182 0.16538368 1.8439435 7687224
2.1759512 0.17325909 1.9317503 7818555
2.1949403 0.17325909 1.9317503 7950140
2.2139297 0.17325909 1.9317503 7884346
2.2329187 0.17325909 1.9317503 8409918
2.1495485 0.16538368 1.8439435 8541761
2.1676745 0.16538368 1.8439435 8935490
2.1858006 0.16538368 1.8439435 8870469
2.2039268 0.16538368 1.8439435 8607810
2.3278649 0.17325909 1.9317503 8213568
2.899055 0.21402594 2.3862798 8279363
3.8217468 0.27988011 3.1205199 8344898
0 0 0 8804678
0 0 0 9198918
0 0 0 9002053
0 0 0 8805189
0 0 0 8870982
0 0 0 8870726
0 0 0 8804935
0 0 0 3676433
0 0 0 918535
-3.7242663 0.31055495 3.1205199 1246731
-3.6935916 0.31055495 3.1205199 1378316
-3.9681594 0.33643451 3.380563 2560788
-3.9349284 0.33643451 3.380563 2954259
-3.9016974 0.33643451 3.380563 3020309
-3.8684664 0.33643451 3.380563 3085843
-4.1838932 0.36701947 3.687887 3348758
-4.1476407 0.36701947 3.687887 3545111
-4.1113887 0.36701947 3.687887 3348502
-4.0751367 0.36701947 3.687887 3283224
-4.0388846 0.36701947 3.687887 3546653
-3.6690798 0.33643451 3.380563 3612189
-3.6358488 0.33643451 3.380563 3480856
-3.9301283 0.36701947 3.687887 3283478
-4.2832642 0.40372145 4.0566759 3348757
-4.2433867 0.40372145 4.0566759 3545622
-4.2035093 0.40372145 4.0566759 3414037
-4.1636324 0.40372145 4.0566759 3216917
-4.123755 0.40372145 4.0566759 2099980
-4.0838776 0.40372145 4.0566759 1180168
-4.4933338 0.44857937 4.5074177 1378060
-4.4490256 0.44857937 4.5074177 1968910
-4.4047174 0.44857937 4.5074177 918023
-4.3604093 0.44857937 4.5074177 852489
-3.884491 0.40372145 4.0566759 918282
-3.8446138 0.40372145 4.0566759 852746
-3.4588511 0.36701947 3.687887 918025
-3.4225991 0.36701947 3.687887 852489
-3.3863468 0.36701947 3.687887 787466
-3.6851046 0.40372145 4.0566759 984075
-4.0502524 0.44857937 4.5074177 984075
-4.0059443 0.44857937 4.5074177 852743
-3.9616363 0.44857937 4.5074177 918536
-3.9173281 0.44857937 4.5074177 1181195
-3.8730199 0.44857937 4.5074177 984329
-3.8287117 0.44857937 4.5074177 1050122
-3.4059634 0.40372145 4.0566759 1049098
-3.366086 0.40372145 4.0566759 720903
-3.6957874 0.44857937 4.5074177 655623
-3.6514795 0.44857937 4.5074177 655367
-3.6071713 0.44857937 4.5074177 786696
-4.0082207 0.50465178 5.0708447 655623
-3.9583743 0.50465178 5.0708447 983560
-3.474247 0.44857937 4.5074177 983559
-3.4299388 0.44857937 4.5074177 852744
-3.8088343 0.50465178 5.0708447 983816
-3.7589877 0.50465178 5.0708447 918282
-3.709141 0.50465178 5.0708447 984075
-3.6592944 0.50465178 5.0708447 918537
-3.6094477 0.50465178 5.0708447 786696
-3.5596011 0.50465178 5.0708447 786698
-3.5097547 0.50465178 5.0708447 721674
-3.459908 0.50465178 5.0708447 786696
-3.4100614 0.50465178 5.0708447 852489
-3.3602147 0.50465178 5.0708447 786696
-2.9425495 0.44857937 4.5074177 721673
-3.2605214 0.50465178 5.0708447 983305
-3.2106748 0.50465178 5.0708447 983305
-3.1608281 0.50465178 5.0708447 786954
-3.1109815 0.50465178 5.0708447 1049868
-3.0611348 0.50465178 5.0708447 2823445
-3.0112882 0.50465178 5.0708447 4531235
-2.9614415 0.50465178 5.0708447 8080694
-3.3275371 0.57674485 5.7952509 8803385
-3.2705696 0.57674485 5.7952509 8804412
-3.2136018 0.57674485 5.7952509 9132861
-2.7620552 0.50465178 5.0708447 9263677
-2.7122085 0.50465178 5.0708447 9263678
-2.6623619 0.50465178 5.0708447 9133377
-2.6125152 0.50465178 5.0708447 9001530
-2.5626686 0.50465178 5.0708447 9264447
-2.8717964 0.57674485 5.7952509 9132092
-2.8148289 0.57674485 5.7952509 8804412
-2.7578614 0.57674485 5.7952509 8870204
-2.363282 0.50465178 5.0708447 8607033
-2.3134353 0.50465178 5.0708447 8541754
-2.2635887 0.50465178 5.0708447 8541244
-2.2137423 0.50465178 5.0708447 9001023
-1.9234627 0.44857937 4.5074177 8015925
-0.73532134 0.17553104 1.763772 5845276
-0.63513917 0.15527748 1.5602599 1049610
-0.61980176 0.15527748 1.5602599 1050125
-0.35718346 0.091754869 0.92197174 1049355
-0.34812042 0.091754869 0.92197174 1049868
-0.30445972 0.082392126 0.82789302 1049610
-0.29632148 0.082392126 0.82789302 1049869
-0.28818327 0.082392126 0.82789302 984331
-0.27444413 0.080744281 0.81133515 918281
-0.26646867 0.080744281 0.81133515 918282
-0.2534247 0.079161063 0.79542661 787466
-0.24088246 0.077638738 0.78012997 1510162
-0.23321375 0.077638738 0.78012997 2431518
-0.22554503 0.077638738 0.78012997 2561818
-0.21787633 0.077638738 0.78012997 2496795
-0.21020761 0.077638738 0.78012997 2496541
-0.20253889 0.077638738 0.78012997 2693405
-0.19487019 0.077638738 0.78012997 852489
-0.18720147 0.077638738 0.78012997 786696
-0.183053 0.079161063 0.79542661 655882
-0.17186405 0.077638738 0.78012997 852489
-0.16419533 0.077638738 0.78012997 786696
-0.15357327 0.076173849 0.76541048 655882
-0.14604926 0.076173849 0.76541048 656393
-0.1411892 0.077638738 0.78012997 787466
-0.13613853 0.079161063 0.79542661 655880
-0.12831944 0.079161063 0.79542661 786696
-0.12541875 0.082392126 0.82789302 655880
-0.11728053 0.082392126 0.82789302 852489
-0.1091423 0.082392126 0.82789302 786698
-0.098983996 0.080744281 0.81133515 590602
-0.085857108 0.076173849 0.76541048 786696
-0.078333087 0.076173849 0.76541048 852489
-0.075057611 0.080744281 0.81133515 786698
-0.068451174 0.082392126 0.82789302 983305
-0.072081327 0.098468639 0.98943311 786696
-0.067277938 0.10624248 1.0675462 852489
-0.056783907 0.10624248 1.0675462 852489
-0.047540955 0.10911389 1.0963988 786697
-0.030914599 0.091754869 0.92197174 786954
-0.024036733 0.10093036 1.014169 721673
-0.010230841 0.073403895 0.73757738 918282
-0.0029272006 0.072093107 0.72440636 983305
0.0041937465 0.072093107 0.72440636 852489
0.011520416 0.073403895 0.73757738 1049098
0.019479167 0.076173849 0.76541048 1049098
0.030450402 0.085898168 0.86312246 1312266
0 0 0 1378317
0 0 0 1508876
0 0 0 1378059
0 0 0 1706254
0 0 0 1641231
0 0 0 3612444
0 0 0 4333593
0 0 0 4399386
0 0 0 4924699
0 0 0 5581599
0.44751328 0.31055495 3.1205199 6305575
0.47818813 0.31055495 3.1205199 7225392
0.55126822 0.33643451 3.380563 7685423
0.5844993 0.33643451 3.380563 7882029
0.67388767 0.36701947 3.687887 7751472
0.7811538 0.40372145 4.0566759 7751470
0.82103109 0.40372145 4.0566759 8145970
0.9565649 0.44857937 4.5074177 8473137
1.000873 0.44857937 4.5074177 7882802
0.78388578 0.33643451 3.380563 7619888
0.75426179 0.31055495 3.1205199 7684916
0.72886968 0.28837243 2.8976254 7093806
0.75735348 0.28837243 2.8976254 7159854
0.73344809 0.2691476 2.7044504 8605237
0.76003295 0.2691476 2.7044504 5187351
0.90763605 0.31055495 3.1205199 1115145
0.93831086 0.31055495 3.1205199 852489
0.52486724 0.16821726 1.6902815 786696
0.48131806 0.14952646 1.5024725 852489
0.46187449 0.13921428 1.3988537 1378318
0.51085681 0.14952646 1.5024725 1772303
0.54584259 0.15527748 1.5602599 1706510
0.60794497 0.16821726 1.6902815 1509132
0.68133873 0.18350974 1.8439435 1509643
0.6994648 0.18350974 1.8439435 1509645
0.71759081 0.18350974 1.8439435 1443852
0.73571688 0.18350974 1.8439435 1443852
0.75384295 0.18350974 1.8439435 1246474
0.80872941 0.19224828 1.9317503 918282
0.82771862 0.19224828 1.9317503 852489
0.98782581 0.22428969 2.2537088 1180938
1.0693904 0.23748319 2.3862798 918028
0.97781104 0.21248496 2.1350925 1180938
0.86259919 0.18350974 1.8439435 917512
0.84243286 0.17553104 1.763772 524295
0.79098916 0.16148856 1.6226703 1049611
0.84056258 0.16821726 1.6902815 2825501
0.85717809 0.16821726 1.6902815 2889754
0.91178471 0.17553104 1.763772 2496025
0.9713555 0.18350974 1.8439435 2233368
1.0365998 0.19224828 1.9317503 1838610
1.1083684 0.20186073 2.028338 1246476
1.1283071 0.20186073 2.028338 786955
1.2086797 0.21248496 2.1350925 787212
1.2296677 0.21248496 2.1350925 721418
1.2506558 0.21248496 2.1350925 1837068
1.2080617 0.20186073 2.028338 6700079
1.2280003 0.20186073 2.028338 6308153
1.247939 0.20186073 2.028338 6505530
1.2678777 0.20186073 2.028338 7621181
1.2878163 0.20186073 2.028338 7293761
1.307755 0.20186073 2.028338 7096895
1.3276936 0.20186073 2.028338 6637116
1.2834592 0.19224828 1.9317503 6503995
1.3675709 0.20186073 2.028338 3348249
1.3875096 0.20186073 2.028338 2888985
1.4074482 0.20186073 2.028338 851975
1.4273869 0.20186073 2.028338 655367
1.3157504 0.18350974 1.8439435 524296
1.3338765 0.18350974 1.8439435 720903
1.3520025 0.18350974 1.8439435 655625
1.3701285 0.18350974 1.8439435 590088
1.3278956 0.17553104 1.763772 851975
1.3452337 0.17553104 1.763772 786698
1.4923403 0.19224828 1.9317503 1049098
1.5113295 0.19224828 1.9317503 3020827
1.5303187 0.19224828 1.9317503 6570545
1.5493079 0.19224828 1.9317503 6963251
1.568297 0.19224828 1.9317503 7818042
1.5872862 0.19224828 1.9317503 8016189
1.533263 0.18350974 1.8439435 7424567
1.551389 0.18350974 1.8439435 6506552
1.5695151 0.18350974 1.8439435 3414808
1.6632431 0.19224828 1.9317503 1049618
1.9626044 0.22428969 2.2537088 852747
1.9847585 0.22428969 2.2537088 787210
2.0069125 0.22428969 2.2537088 786953
2.0290666 0.22428969 2.2537088 721416
2.1718805 0.23748319 2.3862798 852489
2.4880495 0.2691476 2.7044504 918283
2.6942511 0.28837243 2.8976254 786696
2.7227349 0.28837243 2.8976254 852489
2.2657096 0.23748319 2.3862798 721159
2.2891667 0.23748319 2.3862798 918282
2.312624 0.23748319 2.3862798 918282
2.3360813 0.23748319 2.3862798 984075
2.111166 0.21248496 2.1350925 984075
1.9290917 0.19224828 1.9317503 655882
1.9480809 0.19224828 1.9317503 918282
1.9670701 0.19224828 1.9317503 983559
1.9860593 0.19224828 1.9317503 983559
1.8306965 0.17553104 1.763772 984072
1.8480344 0.17553104 1.763772 1050122
1.7876486 0.16821726 1.6902815 6307378
1.8827103 0.17553104 1.763772 7885370
1.8208796 0.16821726 1.6902815 7097154
2.0045402 0.18350974 1.8439435 1706769
1.8541107 0.16821726 1.6902815 2691848
1.8707262 0.16821726 1.6902815 8017469
1.8873417 0.16821726 1.6902815 8279616
2.1759512 0.19224828 1.9317503 7818812
2.1949403 0.19224828 1.9317503 7555641
2.2139297 0.19224828 1.9317503 7358518
2.2329187 0.19224828 1.9317503 7358776
2.1495485 0.18350974 1.8439435 7818812
2.1676745 0.18350974 1.8439435 8081982
2.1858006 0.18350974 1.8439435 8149058
2.3088756 0.19224828 1.9317503 7950397
2.3278649 0.19224828 1.9317503 8016962
2.899055 0.23748319 2.3862798 7950912
3.8217468 0.31055495 3.1205199 8279620
0 0 0 8476741
0 0 0 8673860
0 0 0 8870725
0 0 0 8870469
0 0 0 8804676
0 0 0 8738884
0 0 0 8607556
0 0 0 3610636
0 0 0 1050119
-4.0346217 0.36966559 3.380563 1247503
-4.0013905 0.36966559 3.380563 1378316
-3.9681594 0.36966559 3.380563 2889496
-3.9349284 0.36966559 3.380563 3349015
-3.9016974 0.36966559 3.380563 3480086
-3.8684664 0.36966559 3.380563 3479831
-4.1838932 0.40327156 3.687887 3480085
-4.1476407 0.40327156 3.687887 3480085
-4.1113887 0.40327156 3.687887 3479572
-4.0751367 0.40327156 3.687887 3151895
-4.0388846 0.40327156 3.687887 2954516
-4.0026326 0.40327156 3.687887 3217429
-4.3630185 0.44359875 4.0566759 3283476
-4.3231416 0.44359875 4.0566759 3348756
-4.2832642 0.44359875 4.0566759 3282963
-4.2433867 0.44359875 4.0566759 3216914
-4.2035093 0.44359875 4.0566759 3282451
-4.1636324 0.44359875 4.0566759 2888722
-4.123755 0.44359875 4.0566759 1968907
-4.0838776 0.44359875 4.0566759 1049095
-4.0440001 0.44359875 4.0566759 1115147
-4.4490256 0.4928875 4.5074177 983819
-4.4047174 0.4928875 4.5074177 983305
-4.3604093 0.4928875 4.5074177 1049098
-3.884491 0.44359875 4.0566759 786696
-3.8446138 0.44359875 4.0566759 1049098
-3.4588511 0.40327156 3.687887 1049098
-3.4225991 0.40327156 3.687887 918282
-3.3863468 0.40327156 3.687887 853259
-3.6851046 0.44359875 4.0566759 1050122
-3.6452272 0.44359875 4.0566759 984073
-4.0059443 0.4928875 4.5074177 1049865
-3.9616363 0.4928875 4.5074177 918536
-3.9173281 0.4928875 4.5074177 918536
-3.8730199 0.4928875 4.5074177 918536
-3.8287117 0.4928875 4.5074177 852743
-3.4059634 0.44359875 4.0566759 984330
-3.7400956 0.4928875 4.5074177 852491
-3.6957874 0.4928875 4.5074177 721417
-3.6514795 0.4928875 4.5074177 786696
-3.6071713 0.4928875 4.5074177 786696
-3.5628631 0.4928875 4.5074177 721416
-3.5185549 0.4928875 4.5074177 1114888
-3.474247 0.4928875 4.5074177 1115145
-3.4299388 0.4928875 4.5074177 786950
-3.3856306 0.4928875 4.5074177 721161
-3.7589877 0.55449843 5.0708447 918282
-3.709141 0.55449843 5.0708447 852489
-3.6592944 0.55449843 5.0708447 852488
-3.6094477 0.55449843 5.0708447 852486
-3.5596011 0.55449843 5.0708447 984075
-3.5097547 0.55449843 5.0708447 787209
-3.459908 0.55449843 5.0708447 787466
-3.4100614 0.55449843 5.0708447 983816
-3.3602147 0.55449843 5.0708447 1114891
-3.3103681 0.55449843 5.0708447 918538
-3.2605214 0.55449843 5.0708447 918536
-3.2106748 0.55449843 5.0708447 1049868
-3.1608281 0.55449843 5.0708447 984075
-3.1109815 0.55449843 5.0708447 1181454
-3.0611348 0.55449843 5.0708447 2692369
-3.0112882 0.55449843 5.0708447 3547935
-2.9614415 0.55449843 5.0708447 7555895
-3.3275371 0.63371247 5.7952509 7949108
-3.2705696 0.63371247 5.7952509 8540728
-3.2136018 0.63371247 5.7952509 8869691
-3.1566343 0.63371247 5.7952509 9263675
-3.0996668 0.63371247 5.7952509 8672312
-2.6623619 0.55449843 5.0708447 7095339
-2.6125152 0.55449843 5.0708447 8410429
-2.5626686 0.55449843 5.0708447 8935488
-2.8717964 0.63371247 5.7952509 8277816
-2.8148289 0.63371247 5.7952509 7358259
-2.7578614 0.63371247 5.7952509 6701100
-2.7008936 0.63371247 5.7952509 6372136
-2.6439261 0.63371247 5.7952509 6240552
-2.5869586 0.63371247 5.7952509 7884345
0 0 0 6438699
0 0 0 5716266
0 0 0 1704967
-1.1795441 0.31685624 2.8976254 1180684
-0.38368678 0.10561875 0.96587515 918537
-0.32073617 0.090530351 0.82789302 1115661
-0.30634597 0.088719748 0.81133515 984590
-0.29837051 0.088719748 0.81133515 1246989
-0.29039505 0.088719748 0.81133515 1115916
-0.28241959 0.088719748 0.81133515 1115404
-0.27444413 0.088719748 0.81133515 984072
-0.26646867 0.088719748 0.81133515 983562
-0.2534247 0.086980142 0.79542661 787212
-0.24088246 0.085307449 0.78012997 1510163
-0.22881347 0.08369787 0.76541048 2430748
-0.22128946 0.08369787 0.76541048 2627356
-0.21376544 0.08369787 0.76541048 2693920
-0.20624141 0.08369787 0.76541048 2364954
-0.1987174 0.08369787 0.76541048 2167573
-0.19119337 0.08369787 0.76541048 918025
-0.18366936 0.08369787 0.76541048 721673
-0.17288339 0.082147911 0.75123626 852489
-0.15678826 0.077824339 0.71169752 655882
-0.14979224 0.077824339 0.71169752 655880
-0.1479888 0.080654308 0.73757738 852489
-0.14604926 0.08369787 0.76541048 721673
-0.13852525 0.08369787 0.76541048 852491
-0.13352048 0.085307449 0.78012997 852489
-0.12347721 0.08369787 0.76541048 721675
-0.12291038 0.088719748 0.81133515 786696
-0.11728053 0.090530351 0.82789302 721673
-0.10486221 0.086980142 0.79542661 852489
-0.091651849 0.082147911 0.75123626 655882
-0.085857108 0.08369787 0.76541048 786696
-0.078333087 0.08369787 0.76541048 787210
-0.076589406 0.090530351 0.82789302 786696
-0.071363986 0.094382703 0.86312246 852489
-0.07388337 0.11089969 1.014169 852489
0 0 0 852489
0 0 0 786696
-0.036646154 0.092416398 0.84514076 852489
-0.028338382 0.092416398 0.84514076 852489
-0.021851575 0.10081789 0.92197174 1049096
-0.012788552 0.10081789 0.92197174 1049355
-0.0030356157 0.082147911 0.75123626 852489
0.0043490706 0.082147911 0.75123626 983305
0.011955148 0.08369787 0.76541048 918282
0.019479167 0.08369787 0.76541048 1114891
0.027003186 0.08369787 0.76541048 1115145
0 0 0 1246473
0 0 0 1246474
0 0 0 1246474
0 0 0 1246477
0 0 0 1508875
0 0 0 1707024
0 0 0 5911587
0 0 0 6304803
0 0 0 6371111
0 0 0 6830632
0 0 0 7225133
0.4440318 0.31685624 2.8976254 7487788
0.50886297 0.3412298 3.1205199 7619373
0.53953785 0.3412298 3.1205199 7816236
0.67388767 0.40327156 3.687887 7815982
0.71013975 0.40327156 3.687887 7947568
0.74639189 0.40327156 3.687887 8210224
0.78264397 0.40327156 3.687887 8539186
0.81889606 0.40327156 3.687887 8737079
0.78388578 0.36966559 3.380563 8998453
0.75426179 0.3412298 3.1205199 9327418
0.72886968 0.31685624 2.8976254 9130811
0.75735348 0.31685624 2.8976254 8999225
0.73344809 0.29573247 2.7044504 8999736
0.71253097 0.27724922 2.5354223 1836809
0.73745424 0.27724922 2.5354223 1049098
0.76237756 0.27724922 2.5354223 918025
0.48449287 0.1706149 1.5602599 852489
0.46412811 0.15842812 1.4488127 786696
0.46187449 0.15296507 1.3988537 983817
0.47562528 0.15296507 1.3988537 983817
0.52562618 0.16429582 1.5024725 918281
0.58362716 0.1774395 1.6226703 1049868
0.62456053 0.1848328 1.6902815 1049608
0.6994648 0.20163578 1.8439435 1049352
0.71759081 0.20163578 1.8439435 918282
0.73571688 0.20163578 1.8439435 786951
0.75384295 0.20163578 1.8439435 852489
0.80872941 0.21123749 1.9317503 852489
0.79009503 0.20163578 1.8439435 852489
0.84670776 0.21123749 1.9317503 917768
0.86569697 0.21123749 1.9317503 852489
0.80775696 0.19286901 1.763772 983305
0.75908732 0.1774395 1.6226703 786696
0.77503824 0.1774395 1.6226703 589832
0.79098916 0.1774395 1.6226703 1312783
0.80694008 0.1774395 1.6226703 4203805
0.822891 0.1774395 1.6226703 4333850
0.87379366 0.1848328 1.6902815 4268316
0.92912263 0.19286901 1.763772 3940637
0.98948157 0.20163578 1.8439435 2166800
1.1083684 0.22179937 2.028338 2298391
1.1283071 0.22179937 2.028338 2101526
1.2086797 0.23347302 2.1350925 2824219
1.2296677 0.23347302 2.1350925 3085850
1.2506558 0.23347302 2.1350925 2297359
1.2716439 0.23347302 2.1350925 4005144
1.2926319 0.23347302 2.1350925 4070939
1.247939 0.22179937 2.028338 4136478
1.2678777 0.22179937 2.028338 4333591
1.2878163 0.22179937 2.028338 4530970
1.307755 0.22179937 2.028338 4662558
1.3276936 0.22179937 2.028338 4596763
1.2834592 0.21123749 1.9317503 4992293
1.3675709 0.22179937 2.028338 3020052
1.3875096 0.22179937 2.028338 2625811
1.4074482 0.22179937 2.028338 1574924
1.359416 0.21123749 1.9317503 1378317
1.3784052 0.21123749 1.9317503 1313550
1.3338765 0.20163578 1.8439435 1313553
1.3520025 0.20163578 1.8439435 1313039
1.3701285 0.20163578 1.8439435 1181708
1.4543619 0.21123749 1.9317503 1050638
1.4733511 0.21123749 1.9317503 1115917
1.5669575 0.22179937 2.028338 1180684
1.5113295 0.21123749 1.9317503 2627356
1.5303187 0.21123749 1.9317503 5781804
1.5493079 0.21123749 1.9317503 7294526
1.4970108 0.20163578 1.8439435 5911595
1.515137 0.20163578 1.8439435 6175539
1.533263 0.20163578 1.8439435 6503988
1.551389 0.20163578 1.8439435 6307640
1.5695151 0.20163578 1.8439435 3678501
1.5876411 0.20163578 1.8439435 918287
1.6822323 0.21123749 1.9317503 721416
1.7862827 0.22179937 2.028338 852745
2.0069125 0.24644375 2.2537088 786696
2.0290666 0.24644375 2.2537088 852489
2.0512207 0.24644375 2.2537088 852489
2.3325465 0.27724922 2.5354223 918282
2.6942511 0.31685624 2.8976254 918282
2.7227349 0.31685624 2.8976254 983560
2.4073164 0.27724922 2.5354223 852489
2.1619909 0.24644375 2.2537088 852489
2.184145 0.24644375 2.2537088 786696
2.2062991 0.24644375 2.2537088 786696
2.111166 0.23347302 2.1350925 721160
2.0255466 0.22179937 2.028338 787209
2.045485 0.22179937 2.028338 787209
1.9670701 0.21123749 1.9317503 918536
1.8957839 0.20163578 1.8439435 918282
1.8306965 0.19286901 1.763772 852743
1.7710329 0.1848328 1.6902815 984329
1.7876486 0.1848328 1.6902815 3676179
1.8827103 0.19286901 1.763772 3547407
1.8208796 0.1848328 1.6902815 6963501
1.8374952 0.1848328 1.6902815 3084050
1.8541107 0.1848328 1.6902815 3414806
1.8707262 0.1848328 1.6902815 8082235
1.8873417 0.1848328 1.6902815 8738879
2.1759512 0.21123749 1.9317503 8607554
2.1949403 0.21123749 1.9317503 8673862
2.2139297 0.21123749 1.9317503 8081985
2.2329187 0.21123749 1.9317503 7030071
2.2519081 0.21123749 1.9317503 6964018
2.2708972 0.21123749 1.9317503 7095860
2.2898865 0.21123749 1.9317503 7293237
2.3088756 0.21123749 1.9317503 7556410
2.4442582 0.22179937 2.028338 7753275
2.899055 0.26094043 2.3862798 7818812
4.5166097 0.40327156 3.687887 8081727
0 0 0 8541763
0 0 0 8673090
0 0 0 8870469
0 0 0 8870469
0 0 0 8739141
0 0 0 8739142
0 0 0 8738629
0 0 0 4004878
0 0 0 1180935
-4.0346217 0.40289667 3.380563 1246477
-4.0013905 0.40289667 3.380563 1181707
-3.9681594 0.40289667 3.380563 2692118
-3.9349284 0.40289667 3.380563 2954259
-3.9016974 0.40289667 3.380563 2954258
-4.2201452 0.43952367 3.687887 3019794
-4.1838932 0.43952367 3.687887 3085588
-4.1476407 0.43952367 3.687887 2888979
-4.1113887 0.43952367 3.687887 2888979
-4.0751367 0.43952367 3.687887 3020052
-4.0388846 0.43952367 3.687887 3282452
-4.4028959 0.48347604 4.0566759 3282452
-4.3630185 0.48347604 4.0566759 3216659
-4.8034906 0.53719562 4.5074177 3216659
-3.2948184 0.37190464 3.1205199 3020052
-3.2641437 0.37190464 3.1205199 3020052
-3.821372 0.43952367 3.687887 2888723
-4.1636324 0.48347604 4.0566759 2691859
-4.5819497 0.53719562 4.5074177 2166031
-4.0838776 0.48347604 4.0566759 983560
-4.0440001 0.48347604 4.0566759 852745
-4.0041227 0.48347604 4.0566759 918281
-4.4047174 0.53719562 4.5074177 918282
-4.3604093 0.53719562 4.5074177 918282
-3.884491 0.48347604 4.0566759 918282
-3.8446138 0.48347604 4.0566759 1180938
-3.4588511 0.43952367 3.687887 1246731
-3.4225991 0.43952367 3.687887 1115915
-3.3863468 0.43952367 3.687887 984075
-3.6851046 0.48347604 4.0566759 918282
-3.6452272 0.48347604 4.0566759 721673
-3.60535 0.48347604 4.0566759 786953
-3.5654726 0.48347604 4.0566759 852489
-3.5255952 0.48347604 4.0566759 721673
-3.485718 0.48347604 4.0566759 853002
-3.4458406 0.48347604 4.0566759 1049611
-3.7844038 0.53719562 4.5074177 1246988
-3.7400956 0.53719562 4.5074177 1246732
-3.6957874 0.53719562 4.5074177 984075
-3.6514795 0.53719562 4.5074177 918282
-3.6071713 0.53719562 4.5074177 984077
-3.5628631 0.53719562 4.5074177 918281
-3.5185549 0.53719562 4.5074177 1378060
-3.474247 0.53719562 4.5074177 1049352
-3.4299388 0.53719562 4.5074177 918536
-3.3856306 0.53719562 4.5074177 721672
-3.7589877 0.60434502 5.0708447 1050122
-3.709141 0.60434502 5.0708447 1180680
-3.6592944 0.60434502 5.0708447 1115146
-3.6094477 0.60434502 5.0708447 983818
-3.5596011 0.60434502 5.0708447 1378830
-3.5097547 0.60434502 5.0708447 1509902
-3.459908 0.60434502 5.0708447 1378573
-3.4100614 0.60434502 5.0708447 1378316
-3.3602147 0.60434502 5.0708447 1379087
-3.3103681 0.60434502 5.0708447 1509903
-3.2605214 0.60434502 5.0708447 1378060
-3.2106748 0.60434502 5.0708447 1444109
-3.1608281 0.60434502 5.0708447 1313294
-3.1109815 0.60434502 5.0708447 1050122
-3.0611348 0.60434502 5.0708447 2166803
-3.0112882 0.60434502 5.0708447 4793890
-2.9614415 0.60434502 5.0708447 6438190
-2.9115949 0.60434502 5.0708447 6568743
-3.2705696 0.69068003 5.7952509 6173731
-3.2136018 0.69068003 5.7952509 5713180
-3.1566343 0.69068003 5.7952509 5187351
-3.0996668 0.69068003 5.7952509 4398611
-2.6623619 0.60434502 5.0708447 3609870
-2.6125152 0.60434502 5.0708447 4334107
-2.5626686 0.60434502 5.0708447 7292214
-2.8717964 0.69068003 5.7952509 8606783
-2.8148289 0.69068003 5.7952509 8212537
-2.7578614 0.69068003 5.7952509 8015158
-2.7008936 0.69068003 5.7952509 7686708
-2.6439261 0.69068003 5.7952509 7160882
-2.5869586 0.69068003 5.7952509 8146747
-2.9516561 0.80579334 6.761126 6635050
0 0 0 4468504
0 0 0 1114888
-1.1795441 0.34534001 2.8976254 786441
-0.36624646 0.10988092 0.92197174 918539
-0.32073617 0.098668583 0.82789302 1312270
-0.30634597 0.096695207 0.81133515 1114890
-0.29837051 0.096695207 0.81133515 1246733
-0.29039505 0.096695207 0.81133515 918537
-0.27688196 0.094799221 0.79542661 1049868
-0.26906288 0.094799221 0.79542661 852745
-0.25621989 0.09297616 0.78012997 852489
-0.24855117 0.09297616 0.78012997 1050386
-0.24088246 0.09297616 0.78012997 2890527
-0.23321375 0.09297616 0.78012997 2102554
-0.22128946 0.091221891 0.76541048 2364955
-0.21376544 0.091221891 0.76541048 2429977
-0.20624141 0.091221891 0.76541048 2628126
-0.1987174 0.091221891 0.76541048 1181969
-0.18765277 0.089532599 0.75123626 918283
-0.16783579 0.08335793 0.69942683 917769
-0.15823227 0.081945091 0.68757218 852489
-0.1514734 0.081945091 0.68757218 786696
-0.1472096 0.08335793 0.69942683 852489
-0.14279622 0.08482036 0.71169752 918282
-0.14073838 0.087904729 0.73757738 786696
-0.13348795 0.087904729 0.73757738 721673
-0.13100122 0.091221891 0.76541048 786696
-0.12347721 0.091221891 0.76541048 852489
-0.11818306 0.09297616 0.78012997 852489
-0.11051435 0.09297616 0.78012997 852489
-0.10486221 0.094799221 0.79542661 852489
-0.091651849 0.089532599 0.75123626 786696
-0.084267162 0.089532599 0.75123626 656136
-0.076882474 0.089532599 0.75123626 721673
-0.076589406 0.098668583 0.82789302 786698
-0.071363986 0.10286724 0.86312246 655880
0 0 0 918026
0 0 0 786953
0 0 0 918024
-0.048861541 0.13429891 1.1268544 852489
-0.036763307 0.13066919 1.0963988 852489
-0.025301825 0.12723054 1.0675462 852489
-0.014807797 0.12723054 1.0675462 1049098
-0.0043137693 0.12723054 1.0675462 1180940
0.0044311285 0.091221891 0.76541048 1049352
0.011955148 0.091221891 0.76541048 1049098
0.019479167 0.091221891 0.76541048 852489
0.027003186 0.091221891 0.76541048 983305
0 0 0 1115145
0 0 0 1180681
0 0 0 1180427
0 0 0 1114888
0 0 0 1049352
0 0 0 1246731
0 0 0 3546648
0 0 0 4727320
0 0 0 5318428
0 0 0 6040606
0 0 0 6501154
0.4440318 0.34534001 2.8976254 6961445
0.50886297 0.37190464 3.1205199 7356716
0.53953785 0.37190464 3.1205199 7815982
0.67388767 0.43952367 3.687887 7947566
0.71013975 0.43952367 3.687887 8341810
0.74639189 0.43952367 3.687887 8473137
0.71742362 0.40289667 3.380563 8801330
0.7506547 0.40289667 3.380563 9065013
0.78388578 0.40289667 3.380563 8803129
0.75426179 0.37190464 3.1205199 8737336
0.72886968 0.34534001 2.8976254 8474162
0.75735348 0.34534001 2.8976254 8605750
0.68760765 0.30217251 2.5354223 8209452
0.67061734 0.28439766 2.3862798 1245961
0.65551496 0.26859781 2.2537088 1049609
0.50825173 0.20144834 1.6902815 917769
0.50387257 0.19339041 1.6226703 983304
0.46412811 0.17267001 1.4488127 1049098
0.46187449 0.16671586 1.3988537 1049098
0.47562528 0.16671586 1.3988537 983819
0.52562618 0.1790652 1.5024725 918025
0.58362716 0.19339041 1.6226703 1049868
0.62456053 0.20144834 1.6902815 1049352
0.66905326 0.21020697 1.763772 918282
0.65779161 0.20144834 1.6902815 983559
0.67440712 0.20144834 1.6902815 983559
0.69102269 0.20144834 1.6902815 918536
0.80872941 0.23022668 1.9317503 917512
0.79009503 0.21976183 1.8439435 852743
0.773081 0.21020697 1.763772 1181195
0.75748485 0.20144834 1.6902815 1575696
0.71455425 0.18595232 1.5602599 1772047
0.72989166 0.18595232 1.5602599 590089
0.74522913 0.18595232 1.5602599 655368
0.79098916 0.19339041 1.6226703 2298648
0.77590394 0.18595232 1.5602599 4268056
0.79124135 0.18595232 1.5602599 4136472
0.80657881 0.18595232 1.5602599 4136473
0.92912263 0.21020697 1.763772 3940124
0.98948157 0.21976183 1.8439435 3020824
1.0555888 0.23022668 1.9317503 2035732
1.1283071 0.24173802 2.028338 2493967
1.2086797 0.25446108 2.1350925 1968911
1.2296677 0.25446108 2.1350925 1837838
1.2506558 0.25446108 2.1350925 1837581
1.2716439 0.25446108 2.1350925 2428692
1.2926319 0.25446108 2.1350925 3283478
1.247939 0.24173802 2.028338 3545624
1.2678777 0.24173802 2.028338 3808537
1.2878163 0.24173802 2.028338 3677207
1.307755 0.24173802 2.028338 3939864
1.3276936 0.24173802 2.028338 3807765
1.3476323 0.24173802 2.028338 3808793
1.3675709 0.24173802 2.028338 2494225
1.3875096 0.24173802 2.028338 2494226
1.4074482 0.24173802 2.028338 2034960
1.359416 0.23022668 1.9317503 2035217
1.3784052 0.23022668 1.9317503 2166288
1.3973943 0.23022668 1.9317503 2166801
1.4163835 0.23022668 1.9317503 2560787
1.5071415 0.24173802 2.028338 2823448
1.4543619 0.23022668 1.9317503 2757655
1.4733511 0.23022668 1.9317503 2888470
1.4923403 0.23022668 1.9317503 2757655
1.5113295 0.23022668 1.9317503 3152153
1.4607588 0.21976183 1.8439435 4662561
1.4788848 0.21976183 1.8439435 4530713
1.4319234 0.21020697 1.763772 4532770
1.4492614 0.21020697 1.763772 5650480
1.533263 0.21976183 1.8439435 5517353
1.551389 0.21976183 1.8439435 4529949
1.5695151 0.21976183 1.8439435 2561051
1.5876411 0.21976183 1.8439435 1575442
1.6057671 0.21976183 1.8439435 1444110
1.7012215 0.23022668 1.9317503 1707282
1.7202107 0.23022668 1.9317503 1904403
1.82616 0.24173802 2.028338 2035989
1.8460985 0.24173802 2.028338 1904404
1.8660372 0.24173802 2.028338 1903891
2.0955288 0.26859781 2.2537088 1838097
2.1176829 0.26859781 2.2537088 1575439
2.1398368 0.26859781 2.2537088 1378574
2.0482018 0.25446108 2.1350925 1115660
2.06919 0.25446108 2.1350925 1049869
2.090178 0.25446108 2.1350925 984077
2.0056078 0.24173802 2.028338 1049868
2.0255466 0.24173802 2.028338 1049868
2.045485 0.24173802 2.028338 984075
1.7960205 0.21020697 1.763772 918282
1.6682899 0.19339041 1.6226703 918282
1.6842408 0.19339041 1.6226703 984075
1.7710329 0.20144834 1.6902815 917766
1.8653724 0.21020697 1.763772 2889495
1.8827103 0.21020697 1.763772 2822668
1.9000483 0.21020697 1.763772 5847853
1.9173863 0.21020697 1.763772 6242354
1.8541107 0.20144834 1.6902815 6307888
1.9520621 0.21020697 1.763772 6307115
1.9694002 0.21020697 1.763772 6175275
2.0770445 0.21976183 1.8439435 6043179
2.0951705 0.21976183 1.8439435 5977641
2.2139297 0.23022668 1.9317503 5911848
2.2329187 0.23022668 1.9317503 5714983
2.2519081 0.23022668 1.9317503 5846828
2.2708972 0.23022668 1.9317503 6109741
2.2898865 0.23022668 1.9317503 6833202
2.3088756 0.23022668 1.9317503 7030581
2.4442582 0.24173802 2.028338 7096376
2.899055 0.28439766 2.3862798 7162168
4.5166097 0.43952367 3.687887 7556668
0 0 0 7819581
0 0 0 8410431
0 0 0 8475969
0 0 0 8542018
0 0 0 8607296
0 0 0 8738369
0 0 0 8672836
0 0 0 4070671
0 0 0 1312516
-4.0346217 0.43612778 3.380563 1246731
-4.0013905 0.43612778 3.380563 1247501
-3.9681594 0.43612778 3.380563 2757912
-3.9349284 0.43612778 3.380563 2954517
-4.2563972 0.47577575 3.687887 3020309
-4.6421599 0.52335334 4.0566759 3020309
-4.6022825 0.52335334 4.0566759 3151638
-4.1476407 0.47577575 3.687887 3151638
-4.1113887 0.47577575 3.687887 3151895
-4.0751367 0.47577575 3.687887 3283224
-4.4427733 0.52335334 4.0566759 3348245
-4.4028959 0.52335334 4.0566759 3151123
-4.3630185 0.52335334 4.0566759 3282708
-4.3231416 0.52335334 4.0566759 3217173
-3.8938763 0.47577575 3.687887 3216916
-3.5361555 0.43612778 3.380563 3216916
-3.821372 0.47577575 3.687887 3150866
-4.6262579 0.58150375 4.5074177 3216661
-4.5819497 0.58150375 4.5074177 2494228
-5.104847 0.65419167 5.0708447 918282
-4.0440001 0.52335334 4.0566759 721673
-4.0041227 0.52335334 4.0566759 853513
-3.9642456 0.52335334 4.0566759 984075
-3.9243684 0.52335334 4.0566759 984075
-3.884491 0.52335334 4.0566759 983562
-3.8446138 0.52335334 4.0566759 1049352
-3.8047364 0.52335334 4.0566759 852744
-3.7648592 0.52335334 4.0566759 852488
-3.7249818 0.52335334 4.0566759 852489
-3.3500948 0.47577575 3.687887 720903
-3.3138428 0.47577575 3.687887 786696
-3.2775905 0.47577575 3.687887 1181195
-3.5654726 0.52335334 4.0566759 984329
-3.5255952 0.52335334 4.0566759 1115915
-3.485718 0.52335334 4.0566759 1049868
-3.4458406 0.52335334 4.0566759 1180938
-3.7844038 0.58150375 4.5074177 1312780
-3.7400956 0.58150375 4.5074177 1181197
-3.6957874 0.58150375 4.5074177 984072
-3.6514795 0.58150375 4.5074177 984075
-3.6071713 0.58150375 4.5074177 1115660
-3.5628631 0.58150375 4.5074177 1312523
-3.5185549 0.58150375 4.5074177 1443852
-3.474247 0.58150375 4.5074177 1706254
-3.4299388 0.58150375 4.5074177 1443852
-3.3856306 0.58150375 4.5074177 984074
-3.3413227 0.58150375 4.5074177 1050122
-3.709141 0.65419167 5.0708447 1114891
-3.6592944 0.65419167 5.0708447 655622
-3.6094477 0.65419167 5.0708447 524809
-3.5596011 0.65419167 5.0708447 984075
-3.119782 0.58150375 4.5074177 1509902
-3.459908 0.65419167 5.0708447 1378316
-3.4100614 0.65419167 5.0708447 1378573
-3.3602147 0.65419167 5.0708447 1378317
-3.3103681 0.65419167 5.0708447 1246988
-3.2605214 0.65419167 5.0708447 1049864
-3.2106748 0.65419167 5.0708447 1050122
-3.1608281 0.65419167 5.0708447 1049868
-3.1109815 0.65419167 5.0708447 786696
-3.0611348 0.65419167 5.0708447 1246730
-3.0112882 0.65419167 5.0708447 1771788
-2.9614415 0.65419167 5.0708447 2625294
-2.9115949 0.65419167 5.0708447 3150353
-3.2705696 0.74764758 5.7952509 3085843
-2.8119018 0.65419167 5.0708447 3217170
-2.7620552 0.65419167 5.0708447 3347989
-2.7122085 0.65419167 5.0708447 3282452
-2.6623619 0.65419167 5.0708447 3414038
-2.6125152 0.65419167 5.0708447 3217172
-2.5626686 0.65419167 5.0708447 3479831
-2.5128219 0.65419167 5.0708447 3741973
-2.8148289 0.74764758 5.7952509 5451042
-2.7578614 0.74764758 5.7952509 7687478
-2.7008936 0.74764758 5.7952509 7029035
-2.6439261 0.74764758 5.7952509 2493960
-2.5869586 0.74764758 5.7952509 7751997
-2.5299909 0.74764758 5.7952509 2494476
0 0 0 1902346
-1.208028 0.37382379 2.8976254 1050122
-0.38403764 0.12171008 0.94341296 786696
-0.35810766 0.11630074 0.90148348 1049355
-0.31432143 0.10467067 0.81133515 984075
-0.30634597 0.10467067 0.81133515 1312524
-0.29837051 0.10467067 0.81133515 1181451
-0.29039505 0.10467067 0.81133515 917769
-0.2715573 0.10064487 0.78012997 1049610
-0.2638886 0.10064487 0.78012997 852745
-0.25621989 0.10064487 0.78012997 786953
-0.24855117 0.10064487 0.78012997 786954
-0.24088246 0.10064487 0.78012997 1707797
-0.23321375 0.10064487 0.78012997 1905431
-0.22128946 0.098745905 0.76541048 2365211
-0.21376544 0.098745905 0.76541048 2299161
-0.20624141 0.098745905 0.76541048 2101525
-0.19503745 0.096917287 0.75123626 1114890
-0.17777631 0.091816381 0.71169752 721673
-0.16783579 0.090233333 0.69942683 721675
-0.15823227 0.08870396 0.68757218 852490
-0.1514734 0.08870396 0.68757218 721675
-0.1472096 0.090233333 0.69942683 721673
-0.14279622 0.091816381 0.71169752 721673
-0.1382252 0.093455948 0.72440636 787468
-0.13348795 0.09515515 0.73757738 655882
-0.13100122 0.098745905 0.76541048 655880
-0.12347721 0.098745905 0.76541048 655882
-0.11595318 0.098745905 0.76541048 852489
-0.10842916 0.098745905 0.76541048 918282
-0.10284563 0.10064487 0.78012997 852489
-0.09517692 0.10064487 0.78012997 655882
-0.089224055 0.1026183 0.79542661 787466
-0.075484611 0.09515515 0.73757738 786950
-0.083397344 0.11630074 0.90148348 786698
0 0 0 655623
0 0 0 918027
0 0 0 983305
0 0 0 852489
0 0 0 852489
-0.038864069 0.14952953 1.1590502 852489
-0.025985656 0.14144684 1.0963988 917767
-0.015208008 0.14144684 1.0963988 852489
-0.0044303578 0.14144684 1.0963988 918536
0.006180258 0.13772456 1.0675462 1049352
0.011955148 0.098745905 0.76541048 984075
0.019479167 0.098745905 0.76541048 918536
0.027003186 0.098745905 0.76541048 918282
0 0 0 852489
0 0 0 1048841
0 0 0 983305
0 0 0 983305
0 0 0 1049352
0 0 0 918536
0 0 0 1772047
0 0 0 1837577
0 0 0 2690060
0 0 0 3085075
0 0 0 3742487
0 0 0 5780266
0.50886297 0.40257949 3.1205199 8733232
0.53953785 0.40257949 3.1205199 10897196
0.57021266 0.40257949 3.1205199 11552812
0.71013975 0.47577575 3.687887 11683114
0.74639189 0.47577575 3.687887 12076845
0.78264397 0.47577575 3.687887 12077613
0.7506547 0.43612778 3.380563 11946543
0.72358692 0.40257949 3.1205199 12143404
0.70038593 0.37382379 2.8976254 12143404
0.72886968 0.37382379 2.8976254 12210226
0.66268432 0.32709584 2.5354223 12013103
0.64716011 0.30785489 2.3862798 11619377
0.67061734 0.30785489 2.3862798 10766643
0.56186992 0.24921587 1.9317503 10111028
0.55445641 0.23788787 1.8439435 8995633
0.57258248 0.23788787 1.8439435 8406070
0.51982349 0.20934133 1.6226703 7487285
0.47837001 0.1869119 1.4488127 6437171
0.49261189 0.1869119 1.4488127 5320750
0.52562618 0.19383457 1.5024725 4664619
0.58362716 0.20934133 1.6226703 4008488
0.59957808 0.20934133 1.6226703 3218976
0.615529 0.20934133 1.6226703 2890526
0.60719228 0.20128974 1.5602599 2692119
0.64743084 0.20934133 1.6226703 1903888
0.72106713 0.22754492 1.763772 2166805
0.77196896 0.23788787 1.8439435 2101010
0.75574309 0.22754492 1.763772 1377289
0.74086928 0.21806389 1.6902815 2034960
0.69921684 0.20128974 1.5602599 1772817
0.71455425 0.20128974 1.5602599 1378059
0.72989166 0.20128974 1.5602599 851976
0.77503824 0.20934133 1.6226703 917768
0.79098916 0.20934133 1.6226703 3415324
0.77590394 0.20128974 1.5602599 4530713
0.79124135 0.20128974 1.5602599 4530458
0.80657881 0.20128974 1.5602599 4530971
0.82191622 0.20128974 1.5602599 4333848
0.98948157 0.23788787 1.8439435 4465437
1.0555888 0.24921587 1.9317503 4400156
1.074578 0.24921587 1.9317503 4202777
1.1482457 0.26167667 2.028338 3808540
1.2296677 0.27544913 2.1350925 2232594
1.2506558 0.27544913 2.1350925 1574922
1.2716439 0.27544913 2.1350925 1837325
1.2926319 0.27544913 2.1350925 3875871
1.247939 0.26167667 2.028338 3414805
1.2678777 0.26167667 2.028338 2823183
1.2264916 0.24921587 1.9317503 3151633
1.2454808 0.24921587 1.9317503 3414547
1.26447 0.24921587 1.9317503 3611668
1.3476323 0.26167667 2.028338 3808024
1.3675709 0.26167667 2.028338 3282193
1.3875096 0.26167667 2.028338 2558986
1.4074482 0.26167667 2.028338 2033932
1.359416 0.24921587 1.9317503 2232081
1.3784052 0.24921587 1.9317503 2823702
1.3973943 0.24921587 1.9317503 3020052
1.4872029 0.26167667 2.028338 2954516
1.5071415 0.26167667 2.028338 3020052
1.4543619 0.24921587 1.9317503 2954516
1.4733511 0.24921587 1.9317503 3020052
1.4923403 0.24921587 1.9317503 2888723
1.5113295 0.24921587 1.9317503 3348759
1.4607588 0.23788787 1.8439435 4006431
1.4145855 0.22754492 1.763772 4071709
1.4319234 0.22754492 1.763772 3940123
1.4492614 0.22754492 1.763772 4334881
1.4665993 0.22754492 1.763772 4399902
1.551389 0.23788787 1.8439435 4137758
1.5695151 0.23788787 1.8439435 3414042
1.5876411 0.23788787 1.8439435 3217431
1.6057671 0.23788787 1.8439435 3283481
1.6238931 0.23788787 1.8439435 3348760
1.7202107 0.24921587 1.9317503 3349016
1.7391998 0.24921587 1.9317503 3217945
1.758189 0.24921587 1.9317503 3086616
1.8660372 0.26167667 2.028338 3151896
1.8859758 0.26167667 2.028338 3151895
1.9059145 0.26167667 2.028338 2955286
1.9258533 0.26167667 2.028338 3086872
1.9457918 0.26167667 2.028338 3021081
1.9657305 0.26167667 2.028338 3086359
1.8911134 0.24921587 1.9317503 2823702
1.9101025 0.24921587 1.9317503 2889495
1.9290917 0.24921587 1.9317503 2692630
1.8595318 0.23788787 1.8439435 2955545
1.652339 0.20934133 1.6226703 2758423
1.6682899 0.20934133 1.6226703 2758680
1.6842408 0.20934133 1.6226703 2890523
1.7710329 0.21806389 1.6902815 2890266
1.7876486 0.21806389 1.6902815 3875875
1.8827103 0.22754492 1.763772 4335395
1.9000483 0.22754492 1.763772 3611161
1.9173863 0.22754492 1.763772 3414297
1.9347242 0.22754492 1.763772 3611931
1.9520621 0.22754492 1.763772 4072221
1.9694002 0.22754492 1.763772 5256490
1.9867381 0.22754492 1.763772 5847598
2.004076 0.22754492 1.763772 6176306
2.021414 0.22754492 1.763772 6306866
2.1314225 0.23788787 1.8439435 6307379
2.2519081 0.24921587 1.9317503 6307378
2.2708972 0.24921587 1.9317503 5912366
2.2898865 0.24921587 1.9317503 5715497
2.3088756 0.24921587 1.9317503 6372654
2.3278649 0.24921587 1.9317503 6701618
3.080246 0.32709584 2.5354223 6899509
0 0 0 7162167
0 0 0 7622203
0 0 0 8016191
0 0 0 8278591
0 0 0 8475457
0 0 0 8673350
0 0 0 8410948
0 0 0 8345152
0 0 0 3808272
0 0 0 1311746
-4.0346217 0.46935886 3.380563 1180938
-4.0013905 0.46935886 3.380563 1312524
-3.9681594 0.46935886 3.380563 2823191
-3.9349284 0.46935886 3.380563 3085844
-4.6820374 0.56323069 4.0566759 3086100
-4.6421599 0.56323069 4.0566759 3217429
-4.6022825 0.56323069 4.0566759 3283222
-4.5624051 0.56323069 4.0566759 3348245
-4.5225282 0.56323069 4.0566759 3283479
-4.4826508 0.56323069 4.0566759 3349015
-4.4427733 0.56323069 4.0566759 3480085
-4.4028959 0.56323069 4.0566759 3479831
-4.3630185 0.56323069 4.0566759 3283222
-3.9301283 0.51202786 3.687887 3348245
-3.8938763 0.51202786 3.687887 3283222
-3.8576241 0.51202786 3.687887 3217429
-4.2035093 0.56323069 4.0566759 3151636
-4.6262579 0.62581187 4.5074177 3085844
-5.1546931 0.70403832 5.0708447 2166289
-5.104847 0.70403832 5.0708447 1115661
-4.4933338 0.62581187 4.5074177 918536
-4.4490256 0.62581187 4.5074177 918282
-3.9642456 0.56323069 4.0566759 852489
-3.9243684 0.56323069 4.0566759 852489
-3.884491 0.56323069 4.0566759 721673
-3.8446138 0.56323069 4.0566759 983559
-3.8047364 0.56323069 4.0566759 852489
-3.7648592 0.56323069 4.0566759 984075
-3.3863468 0.51202786 3.687887 1115660
-3.3500948 0.51202786 3.687887 984073
-3.3138428 0.51202786 3.687887 1115402
