# .PCD v0.7 - Point Cloud Data file format
VERSION 0.7
FIELDS x y z rgb
SIZE 4 4 4 4
TYPE F F F U
COUNT 1 1 1 1
WIDTH 1259
HEIGHT 1
VIEWPOINT 0 0 0 1 0 0 0
POINTS 1259
DATA ascii
-0.44167587 0.35134912 0.98943311 11221027
-0.41185901 0.33500728 0.94341296 11089953
-0.40258521 0.33500728 0.94341296 11286564
-0.39331141 0.33500728 0.94341296 11417634
-0.39318138 0.34298363 0.96587515 11352357
-0.37476385 0.33500728 0.94341296 11221539
-0.35718346 0.32739347 0.92197174 11024417
-0.34038442 0.32011807 0.90148348 11024674
-0.32431579 0.31315899 0.88188601 10893087
-0.3156468 0.31315899 0.88188601 11024160
-0.32093135 0.32739347 0.92197174 11089953
-0.31186834 0.32739347 0.92197174 11089697
-0.3028053 0.32739347 0.92197174 11220771
-0.3005735 0.33500728 0.94341296 11024162
-0.28467926 0.32739347 0.92197174 11286563
-0.27561623 0.32739347 0.92197174 11155489
-0.2606298 0.32011807 0.90148348 11220770
-0.25176817 0.32011807 0.90148348 10892575
-0.24290656 0.32011807 0.90148348 10827296
-0.23404494 0.32011807 0.90148348 11285792
-0.22518331 0.32011807 0.90148348 11482656
-0.22123809 0.32739347 0.92197174 11155744
-0.22770008 0.35134912 0.98943311 10827296
-0.22342327 0.36013284 1.014169 11024162
-0.23076101 0.3893328 1.0963988 10893346
-0.21998335 0.3893328 1.0963988 10762016
-0.2092057 0.3893328 1.0963988 10827809
-0.16685995 0.32739347 0.92197174 11023906
-0.15429033 0.32011807 0.90148348 11286562
-0.1454287 0.32011807 0.90148348 11221539
-0.13967088 0.32739347 0.92197174 11220769
-0.15963183 0.40014762 1.1268544 11220771
-0.1485548 0.40014762 1.1268544 11351585
-0.14556471 0.4236857 1.1931399 11417376
-0.13383608 0.4236857 1.1931399 11745568
-0.10125985 0.35134912 0.98943311 11811361
-0.083397344 0.32011807 0.90148348 11417630
-0.090651557 0.3893328 1.0963988 11548964
-0.079873905 0.3893328 1.0963988 11418400
-0.06909626 0.3893328 1.0963988 11614242
-0.058318608 0.3893328 1.0963988 11548962
-0.047540955 0.3893328 1.0963988 11614242
-0.036763307 0.3893328 1.0963988 11024673
-0.025985656 0.3893328 1.0963988 11549216
-0.015208008 0.3893328 1.0963988 11286564
-0.0044303578 0.3893328 1.0963988 11548964
0.0063472921 0.3893328 1.0963988 11613728
0.017600635 0.40014762 1.1268544 11745314
0.031284723 0.43652463 1.2292956 11679775
0.051113177 0.51447546 1.4488127 11483423
0.07624758 0.6002214 1.6902815 11811621
0 0 0 11614755
0 0 0 11548962
0.18914132 0.90033209 2.5354223 11548962
0.21406464 0.90033209 2.5354223 11680802
0.23898795 0.90033209 2.5354223 11548964
0.28150535 0.96035421 2.7044504 11548964
0.28883457 0.90033209 2.5354223 11680291
0.3137579 0.90033209 2.5354223 11221282
0.41683844 1.108101 3.1205199 11286305
0.64640808 1.6005905 4.5074177 11418405
0.69071621 1.6005905 4.5074177 11548963
0.73502433 1.6005905 4.5074177 11811362
0.53953785 1.108101 3.1205199 11811364
0.57021266 1.108101 3.1205199 11876900
0.52076918 0.96035421 2.7044504 11811878
0.51314443 0.90033209 2.5354223 11812389
0.53806776 0.90033209 2.5354223 12074533
0.52987391 0.8473714 2.3862798 11811875
0.55333114 0.8473714 2.3862798 12008740
0.54474461 0.80029523 2.2537088 11812388
0.5668987 0.80029523 2.2537088 11681320
0.48195222 0.65478694 1.8439435 11483941
0.47833574 0.62631798 1.763772 11681576
0.47502062 0.6002214 1.6902815 11549732
0.49163616 0.6002214 1.6902815 11353125
0.43564433 0.51447546 1.4488127 11549477
0.4343729 0.49673492 1.3988537 11549732
0.43318623 0.4801771 1.3522252 11746341
0.43207613 0.46468753 1.3086051 11812134
0.41797373 0.43652463 1.2292956 11942691
0.45780343 0.46468753 1.3086051 11680290
0.50312686 0.49673492 1.3988537 11746341
0.59957808 0.57621253 1.6226703 12074533
0.615529 0.57621253 1.6226703 11614242
0.65779161 0.6002214 1.6902815 11548963
0.67440712 0.6002214 1.6902815 11680549
0.69102269 0.6002214 1.6902815 11548962
0.7076382 0.6002214 1.6902815 11549732
0.72425377 0.6002214 1.6902815 11680546
0.74086928 0.6002214 1.6902815 11615525
0.67331988 0.53353012 1.5024725 11156260
0.66351461 0.51447546 1.4488127 11418661
0.67775649 0.51447546 1.4488127 11221539
0.717628 0.53353012 1.5024725 11286564
0.76056653 0.55405051 1.5602599 11221540
0.74716675 0.53353012 1.5024725 11286819
0.76193613 0.53353012 1.5024725 11352355
0.80657881 0.55405051 1.5602599 11352356
0.85479283 0.57621253 1.6226703 11483428
0.87074375 0.57621253 1.6226703 11418150
0.8525911 0.55405051 1.5602599 11352357
0.8679285 0.55405051 1.5602599 11286564
0.88326591 0.55405051 1.5602599 11024419
0.89860338 0.55405051 1.5602599 10893348
0.91394079 0.55405051 1.5602599 11024162
0.92927819 0.55405051 1.5602599 11024675
1.0233335 0.6002214 1.6902815 10368288
1.0399491 0.6002214 1.6902815 10565154
0.97529048 0.55405051 1.5602599 10368032
0.95393795 0.53353012 1.5024725 10433826
0.96870732 0.53353012 1.5024725 10367775
0.94835252 0.51447546 1.4488127 10565154
0.96259439 0.51447546 1.4488127 10827812
0.97683632 0.51447546 1.4488127 10565412
0.9569031 0.49673492 1.3988537 10499362
0.97065389 0.49673492 1.3988537 10499361
0.95159113 0.4801771 1.3522252 10630433
1.0338038 0.51447546 1.4488127 10368032
1.0119063 0.49673492 1.3988537 10368288
1.0256571 0.49673492 1.3988537 10434084
1.0394078 0.49673492 1.3988537 10499876
1.0531586 0.49673492 1.3988537 10302497
1.1050134 0.51447546 1.4488127 9843488
1.1192552 0.51447546 1.4488127 9909283
1.1754786 0.53353012 1.5024725 9778468
1.2360268 0.55405051 1.5602599 9778983
1.2513641 0.55405051 1.5602599 9778981
1.2197866 0.53353012 1.5024725 10042407
1.1904647 0.51447546 1.4488127 9975847
1.2047065 0.51447546 1.4488127 9845287
1.2640948 0.53353012 1.5024725 9910567
1.3811733 0.57621253 1.6226703 10041894
1.3971242 0.57621253 1.6226703 9844776
1.4130751 0.57621253 1.6226703 9844776
1.429026 0.57621253 1.6226703 9976357
1.5051843 0.6002214 1.6902815 9976101
1.5217998 0.6002214 1.6902815 9910567
1.5384154 0.6002214 1.6902815 9844772
1.5550309 0.6002214 1.6902815 9910054
1.5716465 0.6002214 1.6902815 9778981
1.588262 0.6002214 1.6902815 9713188
1.5406824 0.57621253 1.6226703 9778981
1.2971945 0.4801771 1.3522252 9778981
1.3104869 0.4801771 1.3522252 9386023
1.5274378 0.55405051 1.5602599 9517093
1.5427752 0.55405051 1.5602599 9648167
1.3969285 0.49673492 1.3988537 9517865
1.4106793 0.49673492 1.3988537 9647910
1.4753026 0.51447546 1.4488127 9450531
1.6682899 0.57621253 1.6226703 9648423
1.5037863 0.51447546 1.4488127 9517607
1.7001917 0.57621253 1.6226703 9386280
1.7161427 0.57621253 1.6226703 9582887
1.7320936 0.57621253 1.6226703 9714473
1.7480445 0.57621253 1.6226703 9911337
1.6961495 0.55405051 1.5602599 9911081
1.7799463 0.57621253 1.6226703 9583659
1.8707262 0.6002214 1.6902815 9584428
2.0589182 0.65478694 1.8439435 9846829
2.0770445 0.65478694 1.8439435 9977644
2.1949403 0.68596727 1.9317503 10043181
0 0 0 9781806
0 0 0 9650223
0 0 0 9124649
0 0 0 7354921
0 0 0 6500904
0 0 0 6435112
0 0 0 5909284
0 0 0 5318689
0 0 0 5056802
0 0 0 4991523
0 0 0 5188901
0 0 0 5911848
0 0 0 7026984
0 0 0 8732973
0 0 0 9388846
0 0 0 9650733
0 0 0 5911335
0 0 0 4729889
-0.91349924 0.27932239 0.76541048 2298639
-0.90597522 0.27932239 0.76541048 1903631
-0.85031992 0.26435867 0.72440636 1641231
-0.84319896 0.26435867 0.72440636 1509902
-0.86704391 0.27414975 0.75123626 1575695
-0.85965919 0.27414975 0.75123626 1707024
-0.85227454 0.27414975 0.75123626 1838610
-0.86083108 0.27932239 0.76541048 1904403
-0.85330707 0.27932239 0.76541048 2036245
-0.86204821 0.28469399 0.78012997 2101780
-0.85437948 0.28469399 0.78012997 2232596
-0.83073503 0.27932239 0.76541048 1969422
-0.80796641 0.27414975 0.75123626 1509643
-0.80058169 0.27414975 0.75123626 1115141
-0.79319704 0.27414975 0.75123626 983818
-0.78581238 0.27414975 0.75123626 852743
-0.79311496 0.27932239 0.76541048 983559
-0.78559089 0.27932239 0.76541048 786696
-0.79302979 0.28469399 0.78012997 721416
-0.78536105 0.28469399 0.78012997 786952
-0.77769232 0.28469399 0.78012997 918282
-0.77002364 0.28469399 0.78012997 852489
-0.76235491 0.28469399 0.78012997 1312270
-0.75468624 0.28469399 0.78012997 1641490
-0.73292279 0.27932239 0.76541048 1905944
-0.73934877 0.28469399 0.78012997 2301472
-0.71787477 0.27932239 0.76541048 2497823
-0.72401136 0.28469399 0.78012997 2890525
-0.71634263 0.28469399 0.78012997 3349532
-0.70867395 0.28469399 0.78012997 3349531
-0.68777865 0.27932239 0.76541048 3152667
-0.68025464 0.27932239 0.76541048 3678239
-0.68566781 0.28469399 0.78012997 4664359
-0.67799908 0.28469399 0.78012997 6435630
-0.67033035 0.28469399 0.78012997 8796459
-0.66266167 0.28469399 0.78012997 10040608
-0.68119264 0.29608172 0.81133515 10434851
0 0 0 10369058
-0.81127042 0.36107528 0.98943311 10303011
-0.80154425 0.36107528 0.98943311 10435109
-0.79181802 0.36107528 0.98943311 10566437
-0.80164421 0.37010217 1.014169 10434853
-0.79167491 0.37010217 1.014169 10369573
-0.78170556 0.37010217 1.014169 10500131
-0.7717362 0.37010217 1.014169 10368801
-0.76176691 0.37010217 1.014169 10435366
-0.97006136 0.47755116 1.3086051 10369057
0 0 0 10762273
0 0 0 10631204
0 0 0 10762532
-1.0546967 0.54829949 1.5024725 10762787
-1.0799245 0.56938797 1.5602599 10762787
-1.0645871 0.56938797 1.5602599 10827552
-1.0492496 0.56938797 1.5602599 10762273
-1.0339122 0.56938797 1.5602599 10565410
-1.103456 0.61683691 1.6902815 10959652
-1.2421033 0.70495647 1.9317503 10828326
-1.5109057 0.87082863 2.3862798 11091238
-1.5804141 0.92525542 2.5354223 11222566
-1.5554907 0.92525542 2.5354223 11025443
-1.8837754 1.1387759 3.1205199 11090721
-2.6767008 1.6448985 4.5074177 10893860
-1.5794355 0.98693907 2.7044504 10894119
-1.5528506 0.98693907 2.7044504 11155491
-1.4308742 0.92525542 2.5354223 10827555
-1.4996809 0.98693907 2.7044504 11156005
-1.5783172 1.0574347 2.8976254 11221539
-1.5498334 1.0574347 2.8976254 10959652
-0.88745391 0.61683691 1.6902815 11156002
-0.8708384 0.61683691 1.6902815 11352355
-1.2059617 0.87082863 2.3862798 11221026
-0.91375339 0.67291301 1.8439435 11287333
-0.82099175 0.61683691 1.6902815 11222052
-0.68946534 0.52871734 1.4488127 11090468
-0.59082049 0.46262771 1.2677112 11221541
-0.48703903 0.38958123 1.0675462 10959398
-0.44167587 0.36107528 0.98943311 11089955
-0.42166516 0.35247824 0.96587515 11155746
-0.41217056 0.35247824 0.96587515 11220769
-0.40267596 0.35247824 0.96587515 11287075
-0.40277117 0.36107528 0.98943311 11024673
-0.37476385 0.34428108 0.94341296 11089955
-0.35718346 0.33645651 0.92197174 11155748
-0.34038442 0.3289797 0.90148348 11089955
-0.32431579 0.32182795 0.88188601 10958368
-0.32999438 0.33645651 0.92197174 11024415
-0.32093135 0.33645651 0.92197174 10958367
-0.31186834 0.33645651 0.92197174 11221026
-0.3098473 0.34428108 0.94341296 11089954
-0.3005735 0.34428108 0.94341296 11089953
-0.2912997 0.34428108 0.94341296 11155746
-0.27561623 0.33645651 0.92197174 11090208
-0.2606298 0.3289797 0.90148348 10892576
-0.24629496 0.32182795 0.88188601 11024161
-0.24290656 0.3289797 0.90148348 11221539
-0.23404494 0.3289797 0.90148348 11155748
-0.23030111 0.33645651 0.92197174 11024160
-0.23177324 0.35247824 0.96587515 11089185
-0.2333926 0.37010217 1.014169 10958882
-0.22342327 0.37010217 1.014169 11024160
-0.20824774 0.36107528 0.98943311 11220769
-0.21998335 0.40011045 1.0963988 11024160
-0.2092057 0.40011045 1.0963988 10827039
-0.19842805 0.40011045 1.0963988 10958112
-0.1876504 0.40011045 1.0963988 10958625
-0.1487339 0.33645651 0.92197174 11089698
-0.13967088 0.33645651 0.92197174 10958112
-0.15963183 0.41122463 1.1268544 11024162
-0.1485548 0.41122463 1.1268544 10958882
-0.14556471 0.43541431 1.1931399 11220769
-0.13383608 0.43541431 1.1931399 11352357
-0.12210746 0.43541431 1.1931399 11679521
-0.10142921 0.40011045 1.0963988 11483169
-0.090651557 0.40011045 1.0963988 11351583
-0.079873905 0.40011045 1.0963988 11482658
-0.06909626 0.40011045 1.0963988 11548962
-0.058318608 0.40011045 1.0963988 11745568
-0.047540955 0.40011045 1.0963988 11483171
-0.036763307 0.40011045 1.0963988 11614242
-0.025985656 0.40011045 1.0963988 11483169
-0.015208008 0.40011045 1.0963988 11155746
-0.0044303578 0.40011045 1.0963988 11024673
0.0065236059 0.41122463 1.1268544 11024673
0.017600635 0.41122463 1.1268544 11483171
0.034413196 0.49346954 1.3522252 11221539
0.05724676 0.59216344 1.6226703 11745314
0.079562694 0.6436559 1.763772 11876641
0 0 0 11614755
0.15455812 0.87082863 2.3862798 11876900
0.18914132 0.92525542 2.5354223 11877154
0.21406464 0.92525542 2.5354223 11483426
0.23898795 0.92525542 2.5354223 11614755
0.26391128 0.92525542 2.5354223 11548962
0.28883457 0.92525542 2.5354223 11745828
0.3137579 0.92525542 2.5354223 11352353
0.33868122 0.92525542 2.5354223 11614500
0.3878448 0.98693907 2.7044504 11745314
0.62164456 1.4804087 4.0566759 11811878
0.66152191 1.4804087 4.0566759 11549219
0.70139921 1.4804087 4.0566759 11548962
0.5294832 1.0574347 2.8976254 11352610
0.48822111 0.92525542 2.5354223 11746082
0.51314443 0.92525542 2.5354223 11614496
0.50641668 0.87082863 2.3862798 12008740
0.52987391 0.87082863 2.3862798 11942434
0.55333114 0.87082863 2.3862798 12008486
0.57678843 0.87082863 2.3862798 11812388
0.60024565 0.87082863 2.3862798 11746082
0.48195222 0.67291301 1.8439435 11877668
0.47833574 0.6436559 1.763772 11614755
0.47502062 0.61683691 1.6902815 11812133
0.49163616 0.61683691 1.6902815 11746084
0.43564433 0.52871734 1.4488127 11615270
0.4343729 0.51048571 1.3988537 11548962
0.43318623 0.49346954 1.3522252 11680037
0.43207613 0.47755116 1.3086051 11549219
0.43103543 0.46262771 1.2677112 11943207
0.44349706 0.46262771 1.2677112 11352355
0.45595872 0.46262771 1.2677112 11615268
0.49964839 0.49346954 1.3522252 11811618
0.53062844 0.51048571 1.3988537 11746082
0.63147992 0.59216344 1.6226703 11680292
0.64743084 0.59216344 1.6226703 11614759
0.69102269 0.61683691 1.6902815 11548962
0.7076382 0.61683691 1.6902815 11680037
0.72425377 0.61683691 1.6902815 11614757
0.6585505 0.54829949 1.5024725 11548964
0.64927274 0.52871734 1.4488127 11286564
0.66351461 0.52871734 1.4488127 11287076
0.67775649 0.52871734 1.4488127 11483941
0.717628 0.54829949 1.5024725 11352355
0.73239738 0.54829949 1.5024725 11156004
0.74716675 0.54829949 1.5024725 11221540
0.76193613 0.54829949 1.5024725 11155746
0.80657881 0.56938797 1.5602599 11024162
0.85479283 0.59216344 1.6226703 11024675
0.87074375 0.59216344 1.6226703 10958369
0.8525911 0.56938797 1.5602599 10893602
0.8679285 0.56938797 1.5602599 11024675
0.88326591 0.56938797 1.5602599 11221540
0.89860338 0.56938797 1.5602599 11089955
0.91394079 0.56938797 1.5602599 11155748
0.96644932 0.59216344 1.6226703 10958628
0.98240024 0.59216344 1.6226703 11090211
1.0399491 0.61683691 1.6902815 10696225
1.0565646 0.61683691 1.6902815 10893347
0.95393795 0.54829949 1.5024725 10565154
1.0059654 0.56938797 1.5602599 10499361
0.94835252 0.52871734 1.4488127 10893089
0.96259439 0.52871734 1.4488127 10565153
0.97683632 0.52871734 1.4488127 10564642
0.9910782 0.52871734 1.4488127 10695710
0.97065389 0.51048571 1.3988537 10301984
1.0573236 0.54829949 1.5024725 10892835
1.072093 0.54829949 1.5024725 10630691
1.0868623 0.54829949 1.5024725 10368290
1.0256571 0.51048571 1.3988537 10434083
1.0394078 0.51048571 1.3988537 10499363
1.0907714 0.52871734 1.4488127 10302497
1.1050134 0.52871734 1.4488127 10302240
1.1607091 0.54829949 1.5024725 10105891
1.2206893 0.56938797 1.5602599 9778468
1.2854677 0.59216344 1.6226703 9844261
1.3014187 0.59216344 1.6226703 9910053
1.2197866 0.54829949 1.5024725 9910052
1.2345561 0.54829949 1.5024725 9844004
1.2493254 0.54829949 1.5024725 9844261
1.3652223 0.59216344 1.6226703 9778981
1.3811733 0.59216344 1.6226703 9779749
1.3971242 0.59216344 1.6226703 9779494
1.4130751 0.59216344 1.6226703 9778983
1.4885688 0.61683691 1.6902815 9516327
1.4449769 0.59216344 1.6226703 9582885
1.4609278 0.59216344 1.6226703 9910823
1.4768788 0.59216344 1.6226703 9910310
1.5550309 0.61683691 1.6902815 9713701
1.7961674 0.70495647 1.9317503 9714471
2.9321761 1.1387759 3.1205199 9713958
1.6048776 0.61683691 1.6902815 9648167
1.5566334 0.59216344 1.6226703 9844775
1.2682132 0.47755116 1.3086051 9714473
1.2810768 0.47755116 1.3086051 9385508
1.2939404 0.47755116 1.3086051 9647397
1.3068041 0.47755116 1.3086051 9647653
1.4106793 0.51048571 1.3988537 9451046
1.4244301 0.51048571 1.3988537 9450789
1.3453951 0.47755116 1.3086051 9451045
1.4035339 0.49346954 1.3522252 9713446
1.4168264 0.49346954 1.3522252 9779237
1.7876486 0.61683691 1.6902815 9516579
1.7320936 0.59216344 1.6226703 9779751
1.7480445 0.59216344 1.6226703 9780006
1.6333292 0.54829949 1.5024725 9912104
1.6480985 0.54829949 1.5024725 10043691
1.7958972 0.59216344 1.6226703 10043437
2.0589182 0.67291301 1.8439435 10174766
2.1759512 0.70495647 1.9317503 9847599
2.0951705 0.67291301 1.8439435 9977643
2.3246262 0.74020433 2.028338 10109484
0 0 0 9781549
0 0 0 9715243
0 0 0 8274477
0 0 0 6830122
0 0 0 5646881
0 0 0 5712674
0 0 0 5909795
0 0 0 5647139
0 0 0 5385252
0 0 0 5451557
0 0 0 5517347
0 0 0 5845029
0 0 0 6960167
0 0 0 8667439
0 0 0 9650475
0 0 0 3547163
0 0 0 1969418
-0.84939408 0.26671684 0.71169752 1575437
-0.84239805 0.26671684 0.71169752 1575438
-0.83540207 0.26671684 0.71169752 1575695
-0.82840604 0.26671684 0.71169752 1509902
-0.83607799 0.27147964 0.72440636 1575438
-0.84402901 0.27641562 0.73757738 1509645
-0.85227454 0.28153443 0.75123626 1575438
-0.84488982 0.28153443 0.75123626 1378316
-0.85330707 0.2868464 0.76541048 1378317
-0.84578305 0.2868464 0.76541048 1378317
-0.83825904 0.2868464 0.76541048 1378060
-0.81535107 0.28153443 0.75123626 1443852
-0.79327607 0.27641562 0.73757738 1378316
-0.78602564 0.27641562 0.73757738 1378316
-0.79319704 0.28153443 0.75123626 1246731
-0.78581238 0.28153443 0.75123626 1444110
-0.77842766 0.28153443 0.75123626 1444368
-0.78559089 0.2868464 0.76541048 2036247
-0.79302979 0.29236269 0.78012997 2102810
-0.78536105 0.29236269 0.78012997 2102813
-0.77769232 0.29236269 0.78012997 2103070
-0.75549483 0.2868464 0.76541048 2496284
-0.74797082 0.2868464 0.76541048 3021598
-0.74044681 0.2868464 0.76541048 3217944
-0.73292279 0.2868464 0.76541048 3283225
-0.76892269 0.30405718 0.81133515 3152409
-0.76094723 0.30405718 0.81133515 3283994
-0.72401136 0.29236269 0.78012997 4006427
-0.71634263 0.29236269 0.78012997 4990496
-0.70867395 0.29236269 0.78012997 6369579
-0.70100522 0.29236269 0.78012997 7681838
-0.68025464 0.2868464 0.76541048 9058858
-0.67273062 0.2868464 0.76541048 9975587
-0.67799908 0.29236269 0.78012997 10303523
-0.67033035 0.29236269 0.78012997 10369060
-0.67565501 0.29809529 0.79542661 10303780
-0.69509453 0.31026244 0.82789302 10237987
0 0 0 10237987
0 0 0 10433826
-0.80154425 0.37080145 0.98943311 10631714
-0.79181802 0.37080145 0.98943311 10631459
-0.78209186 0.37080145 0.98943311 10499362
-0.77236569 0.37080145 0.98943311 10500132
-0.76263952 0.37080145 0.98943311 10500644
-0.75291336 0.37080145 0.98943311 10566437
-0.76176691 0.38007149 1.014169 10828837
-0.97006136 0.49041483 1.3086051 10696996
0 0 0 10499874
0 0 0 10631203
0 0 0 10565154
-1.0170289 0.54295927 1.4488127 10696481
-1.0399272 0.56306887 1.5024725 10959650
-1.0251579 0.56306887 1.5024725 10893605
-1.0492496 0.58472538 1.5602599 10893859
-1.0752687 0.60811436 1.6226703 10828324
-1.103456 0.63345248 1.6902815 10828580
-1.1340944 0.66099387 1.763772 10893858
-1.5109057 0.89428586 2.3862798 10762787
-1.5804141 0.95017874 2.5354223 11090466
-1.6591901 1.0135239 2.7044504 11156261
-1.8837754 1.1694508 3.1205199 10828581
-2.4090307 1.520286 4.0566759 10763043
-2.3691535 1.520286 4.0566759 10828580
-1.7917508 1.1694508 3.1205199 10959650
-1.5262657 1.0135239 2.7044504 10828066
-1.6068009 1.0859185 2.8976254 11155748
-1.5783172 1.0859185 2.8976254 11090724
-1.5498334 1.0859185 2.8976254 11156003
-1.5213495 1.0859185 2.8976254 11089953
-1.2294189 0.89428586 2.3862798 11090466
-1.2059617 0.89428586 2.3862798 11222052
-1.1825044 0.89428586 2.3862798 11352867
-1.1590472 0.89428586 2.3862798 11417891
-0.77220118 0.60811436 1.6226703 11287076
-0.59082049 0.47508937 1.2677112 11156261
-0.50020224 0.41088808 1.0963988 11548964
-0.44167587 0.37080145 0.98943311 11155748
-0.42166516 0.36197284 0.96587515 11024675
-0.41217056 0.36197284 0.96587515 10958882
-0.40267596 0.36197284 0.96587515 11221539
-0.39318138 0.36197284 0.96587515 11024160
-0.36624646 0.34551951 0.92197174 11024160
-0.35718346 0.34551951 0.92197174 11024162
-0.37359267 0.37080145 0.98943311 11089953
-0.33152279 0.3378413 0.90148348 11221282
-0.32999438 0.34551951 0.92197174 11351584
-0.31379956 0.3378413 0.90148348 11155747
-0.31186834 0.34551951 0.92197174 11089696
-0.3098473 0.35355487 0.94341296 11285791
-0.3005735 0.35355487 0.94341296 11155233
-0.2912997 0.35355487 0.94341296 10958882
-0.27561623 0.34551951 0.92197174 11089183
-0.2606298 0.3378413 0.90148348 10826781
-0.24629496 0.33049694 0.88188601 10958369
-0.24290656 0.3378413 0.90148348 10892576
-0.23936415 0.34551951 0.92197174 11089697
-0.23030111 0.34551951 0.92197174 11154976
-0.23177324 0.36197284 0.96587515 11024162
-0.22770008 0.37080145 0.98943311 11417378
-0.2179739 0.37080145 0.98943311 11219999
-0.1985618 0.35355487 0.94341296 11417378
-0.18928801 0.35355487 0.94341296 11285792
-0.20370029 0.40007526 1.0675462 11090211
-0.19842805 0.41088808 1.0963988 11024419
-0.1876504 0.41088808 1.0963988 11155490
-0.1487339 0.34551951 0.92197174 10958369
-0.13359824 0.33049694 0.88188601 10892575
-0.12492926 0.33049694 0.88188601 10958881
-0.1485548 0.42230168 1.1268544 11089695
-0.14556471 0.44714293 1.1931399 11024673
0 0 0 11089697
0 0 0 11482915
0 0 0 10892574
-0.090651557 0.41088808 1.0963988 11089953
-0.079873905 0.41088808 1.0963988 11482656
-0.06909626 0.41088808 1.0963988 11352353
-0.058318608 0.41088808 1.0963988 11351585
-0.048861541 0.42230168 1.1268544 11548703
0 0 0 11483169
-0.032048978 0.50676197 1.3522252 11417378
-0.016549891 0.44714293 1.1931399 11024675
-0.0045534233 0.42230168 1.1268544 11351585
0.0067099947 0.43436742 1.1590502 11220769
0.021120761 0.50676197 1.3522252 11155746
0.035599858 0.5242365 1.3988537 11090466
0 0 0 11024675
0 0 0 11287330
0 0 0 11548703
0.16421801 0.95017874 2.5354223 11483171
0.18914132 0.95017874 2.5354223 11877154
0.21406464 0.95017874 2.5354223 11482656
0.23898795 0.95017874 2.5354223 11482656
0.28150535 1.0135239 2.7044504 11548962
0.30809021 1.0135239 2.7044504 11811363
0.33467507 1.0135239 2.7044504 11745826
0.36125994 1.0135239 2.7044504 11811364
0.3878448 1.0135239 2.7044504 11548449
0.62164456 1.520286 4.0566759 11548705
0.66152191 1.520286 4.0566759 11482914
0.70139921 1.520286 4.0566759 11614755
0.5294832 1.0859185 2.8976254 11484713
0.48822111 0.95017874 2.5354223 11614242
0.51314443 0.95017874 2.5354223 11549734
0.50641668 0.89428586 2.3862798 11745828
0.52987391 0.89428586 2.3862798 11876641
0.55333114 0.89428586 2.3862798 11680548
0.57678843 0.89428586 2.3862798 11811361
0.60024565 0.89428586 2.3862798 11745825
0.62370288 0.89428586 2.3862798 11746084
0.61120683 0.84460336 2.2537088 11614755
0.49567369 0.66099387 1.763772 11877667
0.49163616 0.63345248 1.6902815 11746082
0.43564433 0.54295927 1.4488127 11680548
0.4198938 0.50676197 1.3522252 11548964
0.41921249 0.49041483 1.3086051 11746341
0.41857377 0.47508937 1.2677112 11680549
0.43103543 0.47508937 1.2677112 11943207
0.44349706 0.47508937 1.2677112 11746084
0.45595872 0.47508937 1.2677112 11287331
0.49964839 0.50676197 1.3522252 11417887
0.51294082 0.50676197 1.3522252 11418917
0.63147992 0.60811436 1.6226703 11418403
0.64743084 0.60811436 1.6226703 11614244
0.69102269 0.63345248 1.6902815 11286562
0.7076382 0.63345248 1.6902815 11483426
0.62078893 0.54295927 1.4488127 11418147
0.6585505 0.56306887 1.5024725 11811109
0.64927274 0.54295927 1.4488127 11482658
0.66351461 0.54295927 1.4488127 11417634
0.67775649 0.54295927 1.4488127 11352353
0.717628 0.56306887 1.5024725 11352869
0.73239738 0.56306887 1.5024725 11352356
0.74716675 0.56306887 1.5024725 11155491
0.76193613 0.56306887 1.5024725 11089955
0.80657881 0.58472538 1.5602599 11089955
0.82191622 0.58472538 1.5602599 10631201
0.87074375 0.60811436 1.6226703 10433824
0.8525911 0.58472538 1.5602599 10433825
0.8679285 0.58472538 1.5602599 10761503
0.88326591 0.58472538 1.5602599 10958882
0.89860338 0.58472538 1.5602599 10827296
0.91394079 0.58472538 1.5602599 10893346
0.96644932 0.60811436 1.6226703 11089955
0.98240024 0.60811436 1.6226703 10827553
0.99835116 0.60811436 1.6226703 10761249
0.97529048 0.58472538 1.5602599 10893089
1.0731802 0.63345248 1.6902815 11024675
1.0059654 0.58472538 1.5602599 10893604
1.0213027 0.58472538 1.5602599 10564894
1.0366402 0.58472538 1.5602599 10499361
1.0519776 0.58472538 1.5602599 10499361
1.067315 0.58472538 1.5602599 10696480
1.0826524 0.58472538 1.5602599 10434082
1.0573236 0.56306887 1.5024725 10368032
1.1133273 0.58472538 1.5602599 10433568
1.1286647 0.58472538 1.5602599 10368032
1.1440022 0.58472538 1.5602599 10302497
1.1164011 0.56306887 1.5024725 10499105
1.0907714 0.54295927 1.4488127 10368291
1.1050134 0.54295927 1.4488127 10236704
1.1607091 0.56306887 1.5024725 10237472
1.2695168 0.60811436 1.6226703 9844261
1.2854677 0.60811436 1.6226703 10041380
1.3014187 0.60811436 1.6226703 9646882
1.3173696 0.60811436 1.6226703 9845285
1.2820389 0.58472538 1.5602599 9778210
1.3492714 0.60811436 1.6226703 9778981
1.3652223 0.60811436 1.6226703 9712932
1.4387221 0.63345248 1.6902815 9844774
1.4553376 0.63345248 1.6902815 9910053
1.4719532 0.63345248 1.6902815 9778467
1.429026 0.60811436 1.6226703 9581861
1.4449769 0.60811436 1.6226703 9385766
1.5217998 0.63345248 1.6902815 9452069
1.605303 0.66099387 1.763772 9714471
1.7771782 0.72394568 1.9317503 9582373
2.9015014 1.1694508 3.1205199 9780266
3.1765239 1.266905 3.380563 9713958
2.962851 1.1694508 3.1205199 9648680
2.993526 1.1694508 3.1205199 9910567
1.5725844 0.60811436 1.6226703 9778981
1.2810768 0.49041483 1.3086051 9516581
1.2939404 0.49041483 1.3086051 9516580
1.3068041 0.49041483 1.3086051 9713442
1.3196678 0.49041483 1.3086051 9648680
1.3325315 0.49041483 1.3086051 9451301
1.3453951 0.49041483 1.3086051 9582631
1.3582587 0.49041483 1.3086051 9648680
1.7001917 0.60811436 1.6226703 9517094
1.8653724 0.66099387 1.763772 9516579
1.8827103 0.66099387 1.763772 9582885
1.7480445 0.60811436 1.6226703 9517864
1.5749959 0.54295927 1.4488127 9123622
1.5892377 0.54295927 1.4488127 9780264
1.7958972 0.60811436 1.6226703 9583657
2.1569622 0.72394568 1.9317503 9847342
2.284749 0.76014298 2.028338 9978158
2.3046875 0.76014298 2.028338 10043438
0 0 0 9716013
0 0 0 9584427
0 0 0 9584432
0 0 0 9321258
0 0 0 8338733
0 0 0 6434850
0 0 0 5515807
0 0 0 5844772
0 0 0 6040866
0 0 0 5516068
0 0 0 5188387
0 0 0 5516838
0 0 0 5385252
0 0 0 5648166
0 0 0 6830124
0 0 0 8469288
0 0 0 1641230
0 0 0 1641231
-0.83474934 0.26899365 0.69942683 1838611
-0.82787395 0.26899365 0.69942683 3812141
-0.83540207 0.27371287 0.71169752 5322541
-0.82840604 0.27371287 0.71169752 4730411
-0.82141 0.27371287 0.71169752 2626579
-0.81441402 0.27371287 0.71169752 1444109
-0.83677858 0.28366604 0.73757738 1444109
-0.84488982 0.28891912 0.75123626 1509645
-0.83750516 0.28891912 0.75123626 1575695
-0.83012044 0.28891912 0.75123626 1707280
-0.80777693 0.28366604 0.73757738 1707023
-0.8005265 0.28366604 0.73757738 1970710
-0.79327607 0.28366604 0.73757738 2169116
-0.78602564 0.28366604 0.73757738 1971737
-0.77877522 0.28366604 0.73757738 1971221
-0.78581238 0.28891912 0.75123626 1970449
-0.77842766 0.28891912 0.75123626 3022367
-0.771043 0.28891912 0.75123626 3547685
-0.77806687 0.29437041 0.76541048 3678243
-0.78536105 0.30003139 0.78012997 3678241
-0.76301885 0.29437041 0.76541048 3350044
-0.75549483 0.29437041 0.76541048 3415837
-0.74797082 0.29437041 0.76541048 3350559
-0.74044681 0.29437041 0.76541048 3678494
-0.77689815 0.31203264 0.81133515 4858140
-0.78461504 0.31840068 0.82789302 6695200
-0.7764768 0.31840068 0.82789302 7877162
-0.72401136 0.30003139 0.78012997 8861481
-0.71634263 0.30003139 0.78012997 9713958
-0.72256947 0.30591437 0.79542661 9910565
-0.71475041 0.30591437 0.79542661 10106658
-0.70693129 0.30591437 0.79542661 10041379
-0.67273062 0.29437041 0.76541048 10041378
-0.66520661 0.29437041 0.76541048 10171938
-0.67033035 0.30003139 0.78012997 10565667
-0.66266167 0.30003139 0.78012997 10500644
-0.68119264 0.31203264 0.81133515 10500388
-0.67321718 0.31203264 0.81133515 10565154
-0.73915744 0.34670293 0.90148348 10237216
-0.73029584 0.34670293 0.90148348 10565154
-0.72143424 0.34670293 0.90148348 10434081
-0.7287674 0.35458255 0.92197174 10303265
-0.73644173 0.36282867 0.94341296 10434851
-0.7271679 0.36282867 0.94341296 10566182
-0.75291336 0.38052762 0.98943311 10566439
-0.78129935 0.40004188 1.0401733 10631460
-0.79136586 0.41056928 1.0675462 10500644
0 0 0 10631460
-1.0455127 0.55720115 1.4488127 10893859
-1.0312707 0.55720115 1.4488127 10828580
-1.0170289 0.55720115 1.4488127 10762533
-1.002787 0.55720115 1.4488127 10828068
-1.0645871 0.60006279 1.5602599 10958885
-1.0912197 0.62406528 1.6226703 10762787
-1.1687703 0.67833185 1.763772 10696994
-1.1514323 0.67833185 1.763772 10762273
-1.2421033 0.74293488 1.9317503 10762275
-1.6053374 0.97510201 2.5354223 10696994
-1.5804141 0.97510201 2.5354223 10630690
-1.6591901 1.0401088 2.7044504 10762533
-1.8837754 1.2001256 3.1205199 10894115
-2.1900277 1.4183302 3.687887 11156261
-2.3691535 1.5601634 4.0566759 10828323
-2.3292761 1.5601634 4.0566759 10762787
-1.9078321 1.300136 3.380563 10959394
-1.7304012 1.2001256 3.1205199 11024673
-1.5783172 1.1144023 2.8976254 11024159
-1.5498334 1.1144023 2.8976254 11155744
-1.5213495 1.1144023 2.8976254 10959137
-1.3933414 1.0401088 2.7044504 11090468
-1.2059617 0.91774309 2.3862798 10959650
-1.1825044 0.91774309 2.3862798 11287075
-0.82099175 0.65006799 1.6902815 11155746
-0.77220118 0.62406528 1.6226703 11155490
-0.57291681 0.47277671 1.2292956 11286820
-0.50020224 0.42166573 1.0963988 11220769
-0.45271778 0.39004084 1.014169 10630947
-0.4319497 0.38052762 0.98943311 11024674
-0.41217056 0.37146744 0.96587515 10433568
-0.40267596 0.37146744 0.96587515 10499359
-0.39318138 0.37146744 0.96587515 11024419
-0.39304501 0.38052762 0.98943311 11024160
-0.38331884 0.38052762 0.98943311 11351585
-0.37359267 0.38052762 0.98943311 11024160
-0.33905742 0.35458255 0.92197174 10893345
-0.32266116 0.34670293 0.90148348 11090466
-0.28818327 0.31840068 0.82789302 11221026
-0.28587931 0.32503399 0.84514076 11286563
-0.2960763 0.34670293 0.90148348 11155491
-0.29374227 0.35458255 0.92197174 11155489
-0.28467926 0.35458255 0.92197174 11286562
-0.26949143 0.34670293 0.90148348 11024675
-0.2606298 0.34670293 0.90148348 11351585
-0.25176817 0.34670293 0.90148348 10761503
-0.24290656 0.34670293 0.90148348 10892576
-0.23404494 0.34670293 0.90148348 10827552
-0.23030111 0.35458255 0.92197174 10958368
-0.22123809 0.35458255 0.92197174 10958369
-0.21217507 0.35458255 0.92197174 10958367
-0.2179739 0.38052762 0.98943311 10958369
-0.19404903 0.35458255 0.92197174 11351583
-0.184986 0.35458255 0.92197174 11154976
-0.17592297 0.35458255 0.92197174 11089183
-0.16315195 0.34670293 0.90148348 11155746
-0.15429033 0.34670293 0.90148348 11352098
-0.1454287 0.34670293 0.90148348 11155232
-0.12803164 0.32503399 0.84514076 11351841
-0.11972387 0.32503399 0.84514076 11483170
-0.1485548 0.4333787 1.1268544 11155231
0 0 0 11090209
0 0 0 11220769
0 0 0 11155234
0 0 0 11155233
-0.093169659 0.4333787 1.1268544 11023905
-0.079873905 0.42166573 1.0963988 11483171
-0.058103669 0.35458255 0.92197174 11416863
-0.058318608 0.42166573 1.0963988 11024160
0 0 0 11286305
0 0 0 11286560
-0.032048978 0.5200544 1.3522252 11089951
-0.017051402 0.47277671 1.2292956 11548962
-0.0048212716 0.45887154 1.1931399 11351585
0.0065236059 0.4333787 1.1268544 11417376
0.018635966 0.45887154 1.1931399 11417376
0.035599858 0.53798729 1.3988537 11351585
0 0 0 11024675
0 0 0 11286564
0 0 0 11220769
0 0 0 11286562
0.20175074 1.0401088 2.7044504 11155232
0.2283356 1.0401088 2.7044504 11483170
0.25492048 1.0401088 2.7044504 11483682
0.28150535 1.0401088 2.7044504 11746083
0.30809021 1.0401088 2.7044504 11417633
0.35858044 1.1144023 2.8976254 11614498
0.38706425 1.1144023 2.8976254 11352357
0.64640808 1.7335148 4.5074177 11483427
0.69071621 1.7335148 4.5074177 11549474
0.66152191 1.5601634 4.0566759 11614499
0.70139921 1.5601634 4.0566759 11483171
0.57021266 1.2001256 3.1205199 11483169
0.52076918 1.0401088 2.7044504 11483171
0.51314443 0.97510201 2.5354223 11484193
0.50641668 0.91774309 2.3862798 11680035
0.52987391 0.91774309 2.3862798 12008740
0.55333114 0.91774309 2.3862798 11811620
0.57678843 0.91774309 2.3862798 11483684
0.60024565 0.91774309 2.3862798 11681317
0.62370288 0.91774309 2.3862798 11746340
0.61120683 0.86675739 2.2537088 11811621
0.47502062 0.65006799 1.6902815 11746341
0.45381802 0.60006279 1.5602599 11745828
0.42062211 0.53798729 1.3988537 11877414
0.4198938 0.5200544 1.3522252 11680035
0.43318623 0.5200544 1.3522252 11680291
0.41857377 0.487551 1.2677112 11614756
0.43103543 0.487551 1.2677112 11680292
0.43005773 0.47277671 1.2292956 11549476
0.45595872 0.487551 1.2677112 11418148
0.48353073 0.50327849 1.3086051 11287329
0.53062844 0.53798729 1.3988537 11221538
0.54437923 0.53798729 1.3988537 11287332
0.62252969 0.60006279 1.5602599 11352357
0.63786709 0.60006279 1.5602599 11352611
0.60654706 0.55720115 1.4488127 11221283
0.62078893 0.55720115 1.4488127 11221539
0.63503081 0.55720115 1.4488127 11418148
0.64927274 0.55720115 1.4488127 11090210
0.66351461 0.55720115 1.4488127 11287332
0.67775649 0.55720115 1.4488127 11483171
0.69199842 0.55720115 1.4488127 11024417
0.73239738 0.57783824 1.5024725 11483169
0.74716675 0.57783824 1.5024725 11352355
0.76193613 0.57783824 1.5024725 11154978
0.7767055 0.57783824 1.5024725 11286564
0.82191622 0.60006279 1.5602599 11090210
0.90702474 0.65006799 1.6902815 10893860
0.92364031 0.65006799 1.6902815 10499874
0.94025582 0.65006799 1.6902815 10499618
0.91859657 0.62406528 1.6226703 10565156
0.93454748 0.62406528 1.6226703 10499104
0.9504984 0.62406528 1.6226703 10433568
0.96644932 0.62406528 1.6226703 10761503
0.98240024 0.62406528 1.6226703 10696226
0.99835116 0.62406528 1.6226703 10564640
1.014302 0.62406528 1.6226703 10696483
0.91986871 0.55720115 1.4488127 10893603
1.046204 0.62406528 1.6226703 10892835
1.0213027 0.60006279 1.5602599 10696738
1.0366402 0.60006279 1.5602599 10827296
1.0519776 0.60006279 1.5602599 10762274
1.067315 0.60006279 1.5602599 10499104
1.0826524 0.60006279 1.5602599 10433568
1.0979899 0.60006279 1.5602599 10433826
1.1133273 0.60006279 1.5602599 10630433
1.1286647 0.60006279 1.5602599 10564641
1.1440022 0.60006279 1.5602599 10301982
1.1593395 0.60006279 1.5602599 10433570
1.1311704 0.57783824 1.5024725 10302499
1.1459398 0.57783824 1.5024725 10105888
1.1607091 0.57783824 1.5024725 10040095
1.2695168 0.62406528 1.6226703 9778211
1.2854677 0.62406528 1.6226703 9646882
1.3014187 0.62406528 1.6226703 9778722
1.37226 0.65006799 1.6902815 10041640
1.4492614 0.67833185 1.763772 10041125
1.4665993 0.67833185 1.763772 9844517
1.4839373 0.67833185 1.763772 9646884
1.4387221 0.65006799 1.6902815 9778981
1.4553376 0.65006799 1.6902815 9778468
1.4719532 0.65006799 1.6902815 9778467
1.4885688 0.65006799 1.6902815 9580834
1.5706271 0.67833185 1.763772 9580837
1.6601453 0.7091651 1.8439435 9909540
1.758189 0.74293488 1.9317503 9647396
2.8708265 1.2001256 3.1205199 9450018
3.1432929 1.300136 3.380563 9450534
3.1765239 1.300136 3.380563 9581606
3.2097552 1.300136 3.380563 9582374
3.2429862 1.300136 3.380563 9778727
3.5740552 1.4183302 3.687887 9647395
1.2810768 0.50327849 1.3086051 9778981
1.2939404 0.50327849 1.3086051 9778983
1.3068041 0.50327849 1.3086051 9648423
1.3196678 0.50327849 1.3086051 9582628
1.3325315 0.50327849 1.3086051 9517092
1.3453951 0.50327849 1.3086051 9451301
1.3582587 0.50327849 1.3086051 9648165
1.3711224 0.50327849 1.3086051 9648167
1.9501621 0.7091651 1.8439435 9582376
1.8827103 0.67833185 1.763772 9517094
1.9000483 0.67833185 1.763772 9517864
1.9173863 0.67833185 1.763772 9452841
1.6480985 0.57783824 1.5024725 9517864
2.2448716 0.78008169 2.028338 9714473
2.0589182 0.7091651 1.8439435 9780266
2.284749 0.78008169 2.028338 9780264
2.0951705 0.7091651 1.8439435 9912622
2.3246262 0.78008169 2.028338 9780781
0 0 0 9649706
0 0 0 9387563
0 0 0 9255721
0 0 0 9190186
0 0 0 8009253
0 0 0 5975328
0 0 0 5581600
0 0 0 6172452
0 0 0 5910565
0 0 0 5450017
0 0 0 5253409
0 0 0 5319459
0 0 0 5254178
0 0 0 5320486
0 0 0 6106399
0 0 0 1379087
0 0 0 1773075
-0.80692434 0.26667342 0.67611259 2035727
-0.80027813 0.26667342 0.67611259 2495762
-0.82099855 0.27586904 0.69942683 2034955
-0.81412315 0.27586904 0.69942683 1837837
-0.80724776 0.27586904 0.69942683 2101780
-0.81441402 0.28070888 0.71169752 2365209
-0.80741799 0.28070888 0.71169752 2233882
-0.80042195 0.28070888 0.71169752 1642515
-0.80759424 0.28572151 0.72440636 1445649
-0.80047327 0.28572151 0.72440636 1773844
-0.79335231 0.28572151 0.72440636 2102807
-0.7862314 0.28572151 0.72440636 3022622
-0.77911043 0.28572151 0.72440636 3942179
-0.77198946 0.28572151 0.72440636 4073249
-0.77877522 0.29091644 0.73757738 3941661
-0.78581238 0.29630381 0.75123626 3612441
-0.77842766 0.29630381 0.75123626 3284249
-0.771043 0.29630381 0.75123626 3941665
-0.77806687 0.30189443 0.76541048 3679261
-0.80076027 0.31373343 0.79542661 3941920
-0.76301885 0.30189443 0.76541048 4992040
-0.72802228 0.29091644 0.73757738 6828069
-0.74797082 0.30189443 0.76541048 8532518
-0.74044681 0.30189443 0.76541048 9384741
-0.7470175 0.30770013 0.78012997 9647143
-0.76892269 0.3200081 0.81133515 9647395
-0.76094723 0.3200081 0.81133515 9975844
-0.75297177 0.3200081 0.81133515 10172194
-0.74499631 0.3200081 0.81133515 10040610
-0.72256947 0.31373343 0.79542661 10171939
-0.71475041 0.31373343 0.79542661 10171938
-0.70693129 0.31373343 0.79542661 10303525
-0.69911224 0.31373343 0.79542661 10106403
-0.67799908 0.30770013 0.78012997 10172194
-0.67033035 0.30770013 0.78012997 10237987
-0.66266167 0.30770013 0.78012997 10434082
-0.66783589 0.31373343 0.79542661 10630946
-0.67321718 0.3200081 0.81133515 10368290
-0.66524172 0.3200081 0.81133515 10565408
-0.73029584 0.35556456 0.90148348 10433825
-0.72143424 0.35556456 0.90148348 10434081
-0.7287674 0.36364558 0.92197174 10697253
-0.73644173 0.37210247 0.94341296 10565408
-0.7271679 0.37210247 0.94341296 10565154
-0.8343094 0.43244338 1.0963988 10565412
-0.82353175 0.43244338 1.0963988 10565408
-0.81275409 0.43244338 1.0963988 10565667
-0.84780371 0.45715445 1.1590502 10434596
-0.88710165 0.48486075 1.2292956 10697507
-0.99570972 0.55173808 1.3988537 10434082
-1.0170289 0.57144302 1.4488127 10696997
-1.0799245 0.61540025 1.5602599 10893607
-1.1533027 0.66668355 1.6902815 10827814
-1.136687 0.66668355 1.6902815 10893859
-1.1687703 0.69566977 1.763772 10696738
-1.2610925 0.76192403 1.9317503 10828323
-1.534363 0.94120032 2.3862798 10434081
-1.6053374 1.0000254 2.5354223 10499361
-1.6857749 1.0666937 2.7044504 10894117
-2.0739877 1.3333671 3.380563 10893860
-1.8837754 1.2308005 3.1205199 10762788
-2.0075254 1.3333671 3.380563 10828326
-2.1537757 1.4545823 3.687887 10894119
-2.3292761 1.6000407 4.0566759 10828580
-2.2893987 1.6000407 4.0566759 10894115
-2.2495215 1.6000407 4.0566759 10762530
-1.5783172 1.142886 2.8976254 11156259
-1.4465111 1.0666937 2.7044504 11286818
-1.5213495 1.142886 2.8976254 10893605
-1.4928658 1.142886 2.8976254 10959139
-1.4643821 1.142886 2.8976254 10958624
-1.1825044 0.94120032 2.3862798 11024675
-0.93827629 0.76192403 1.9317503 11156261
-0.77220118 0.6400162 1.6226703 11155744
-0.57291681 0.48486075 1.2292956 11286562
-0.4626871 0.40001017 1.014169 10959140
-0.45271778 0.40001017 1.014169 10958882
-0.44274846 0.40001017 1.014169 11155490
-0.42222351 0.39025378 0.98943311 10499359
-0.41249734 0.39025378 0.98943311 10892835
-0.40277117 0.39025378 0.98943311 10630433
-0.39304501 0.39025378 0.98943311 10696222
-0.38331884 0.39025378 0.98943311 11023648
-0.37359267 0.39025378 0.98943311 11024673
-0.33152279 0.35556456 0.90148348 10893087
-0.3089309 0.34043413 0.86312246 11024160
-0.28818327 0.32653889 0.82789302 11154976
-0.28587931 0.33334178 0.84514076 11154978
-0.28963986 0.34783489 0.88188601 11023391
-0.28721467 0.35556456 0.90148348 10958881
-0.27835307 0.35556456 0.90148348 10892575
-0.26949143 0.35556456 0.90148348 10892574
-0.2606298 0.35556456 0.90148348 11089955
-0.25176817 0.35556456 0.90148348 10958369
-0.23257011 0.34043413 0.86312246 11024675
-0.22408557 0.34043413 0.86312246 10827809
-0.22028802 0.34783489 0.88188601 10762019
-0.22123809 0.36364558 0.92197174 11155491
-0.20746008 0.35556456 0.90148348 10958881
-0.19859844 0.35556456 0.90148348 11089954
-0.18973683 0.35556456 0.90148348 11351583
-0.184986 0.36364558 0.92197174 11089183
-0.17201358 0.35556456 0.90148348 10892574
-0.16315195 0.35556456 0.90148348 11286562
-0.15429033 0.35556456 0.90148348 11417378
-0.13355698 0.32653889 0.82789302 11220511
-0.12541875 0.32653889 0.82789302 10958111
-0.11728053 0.32653889 0.82789302 11154975
0 0 0 11154718
0 0 0 11155489
0 0 0 10892832
0 0 0 10958880
0 0 0 10958881
-0.093169659 0.44445574 1.1268544 11090210
-0.079873905 0.43244338 1.0963988 11088669
-0.058103669 0.36364558 0.92197174 11088669
-0.052628987 0.39025378 0.98943311 11089441
-0.047540955 0.43244338 1.0963988 11220771
-0.036763307 0.43244338 1.0963988 11220256
-0.026707483 0.44445574 1.1268544 11351585
-0.015630454 0.44445574 1.1268544 11286304
-0.0044303578 0.43244338 1.0963988 11417635
0.0063472921 0.43244338 1.0963988 11482658
0.018635966 0.47060016 1.1931399 11221025
0.036871281 0.57144302 1.4488127 11548449
0 0 0 11286048
0 0 0 11351583
0 0 0 11089955
0 0 0 11155489
0.23278932 1.2308005 3.1205199 11156003
0.2446453 1.142886 2.8976254 11286820
0.25492048 1.0666937 2.7044504 11351842
0.30161285 1.142886 2.8976254 11352098
0.33009666 1.142886 2.8976254 11221026
0.38616356 1.2308005 3.1205199 11352097
0.60209996 1.777823 4.5074177 11155233
0.72720903 2.0000508 5.0708447 11483171
0.77705568 2.0000508 5.0708447 11548449
0.73502433 1.777823 4.5074177 11416863
0.77933246 1.777823 4.5074177 11286564
0.82364053 1.777823 4.5074177 11417630
0.55796695 1.142886 2.8976254 11746341
0.51314443 1.0000254 2.5354223 11680548
0.53806776 1.0000254 2.5354223 11482913
0.56299102 1.0000254 2.5354223 11942434
0.58791435 1.0000254 2.5354223 11877152
0.57678843 0.94120032 2.3862798 11943205
0.60024565 0.94120032 2.3862798 12075047
0.62370288 0.94120032 2.3862798 11812389
0.64716011 0.94120032 2.3862798 11680550
0.47502062 0.66668355 1.6902815 11877927
0.42140242 0.57144302 1.4488127 11614755
0.42062211 0.55173808 1.3988537 11746595
0.4343729 0.55173808 1.3988537 11548962
0.43318623 0.53334683 1.3522252 11680548
0.40588969 0.48486075 1.2292956 11614756
0.40568039 0.47060016 1.1931399 11483171
0.417409 0.47060016 1.1931399 11745828
0.47066709 0.51614213 1.3086051 11548962
0.51687765 0.55173808 1.3988537 11746595
0.53062844 0.55173808 1.3988537 11680289
0.54437923 0.55173808 1.3988537 11548962
0.55813003 0.55173808 1.3988537 11352098
0.57188082 0.55173808 1.3988537 11155746
0.58563161 0.55173808 1.3988537 11352357
0.62078893 0.57144302 1.4488127 11286564
0.71123457 0.6400162 1.6226703 10892574
0.67331988 0.59260762 1.5024725 11024418
0.66351461 0.57144302 1.4488127 10893345
0.67775649 0.57144302 1.4488127 11286562
0.717628 0.59260762 1.5024725 11286562
0.73239738 0.59260762 1.5024725 10827296
0.74716675 0.59260762 1.5024725 11417379
0.7347241 0.57144302 1.4488127 11089956
0.7767055 0.59260762 1.5024725 11024675
0.79147488 0.59260762 1.5024725 10893088
0.90702474 0.66668355 1.6902815 11089953
0.92364031 0.66668355 1.6902815 11220771
0.94025582 0.66668355 1.6902815 10761247
0.95687139 0.66668355 1.6902815 10565154
0.9734869 0.66668355 1.6902815 10827555
0.9504984 0.6400162 1.6226703 10499361
0.96644932 0.6400162 1.6226703 10433825
0.98240024 0.6400162 1.6226703 10171681
0.95995307 0.61540025 1.5602599 10171425
0.93916857 0.59260762 1.5024725 10105888
0.91986871 0.57144302 1.4488127 10433569
1.0897957 0.66668355 1.6902815 10499876
1.1064112 0.66668355 1.6902815 10499620
1.0781058 0.6400162 1.6226703 10499875
1.0519776 0.61540025 1.5602599 10499361
1.1100076 0.6400162 1.6226703 10564640
1.0826524 0.61540025 1.5602599 10433568
1.0573236 0.59260762 1.5024725 10368034
1.1133273 0.61540025 1.5602599 10498848
1.1286647 0.61540025 1.5602599 10433568
1.1897622 0.6400162 1.6226703 10367776
1.1593395 0.61540025 1.5602599 10629665
1.1311704 0.59260762 1.5024725 10368033
1.1459398 0.59260762 1.5024725 10237217
1.1607091 0.59260762 1.5024725 10105888
1.2695168 0.6400162 1.6226703 9974817
1.2854677 0.6400162 1.6226703 9712933
1.3014187 0.6400162 1.6226703 9319202
1.3173696 0.6400162 1.6226703 9319456
1.4492614 0.69566977 1.763772 9778981
1.4665993 0.69566977 1.763772 10172199
1.4839373 0.69566977 1.763772 9975847
1.4387221 0.66668355 1.6902815 9647909
1.4553376 0.66668355 1.6902815 9910054
1.5359511 0.69566977 1.763772 9844774
1.5532892 0.69566977 1.763772 9778981
1.5706271 0.69566977 1.763772 9712934
1.7391998 0.76192403 1.9317503 9778468
0 0 0 9582374
0 0 0 9516840
3.1432929 1.3333671 3.380563 9646884
2.9321761 1.2308005 3.1205199 9516583
3.2097552 1.3333671 3.380563 9319202
3.2429862 1.3333671 3.380563 9515811
3.5740552 1.4545823 3.687887 9384740
3.6103072 1.4545823 3.687887 9319461
1.3370718 0.53334683 1.3522252 9253923
1.2659665 0.5000127 1.2677112 9057059
1.3636566 0.53334683 1.3522252 9319715
1.2908897 0.5000127 1.2677112 9319202
1.3033514 0.5000127 1.2677112 9647396
1.3158131 0.5000127 1.2677112 9450275
1.2880239 0.48486075 1.2292956 9517094
1.9501621 0.72729117 1.8439435 9582374
0 0 0 9582886
0 0 0 9714214
0 0 0 9386024
0 0 0 9386794
0 0 0 9780264
2.1569622 0.76192403 1.9317503 9780266
0 0 0 9912365
0 0 0 9518634
0 0 0 9452583
0 0 0 9648934
0 0 0 9714215
0 0 0 9648936
0 0 0 9125162
0 0 0 8338730
0 0 0 7288616
0 0 0 5647137
0 0 0 5778465
0 0 0 6041379
0 0 0 5844257
0 0 0 5515807
0 0 0 4727840
0 0 0 4596765
0 0 0 4596250
0 0 0 5122334
0 0 0 1707281
0 0 0 1773589
-0.79369611 0.268839 0.66502881 2037788
-0.78715885 0.268839 0.66502881 1906714
-0.78062159 0.268839 0.66502881 1709078
-0.7869857 0.27331963 0.67611259 1708308
-0.78033948 0.27331963 0.67611259 2627352
-0.78680676 0.27795219 0.68757218 3744288
-0.79349691 0.28274444 0.69942683 4467496
-0.80042195 0.28770489 0.71169752 4467496
-0.79342592 0.28770489 0.71169752 4467495
-0.78642994 0.28770489 0.71169752 4269601
-0.77943391 0.28770489 0.71169752 3809823
-0.77243787 0.28770489 0.71169752 3415835
-0.79327607 0.29816687 0.73757738 3415837
-0.78602564 0.29816687 0.73757738 3613472
-0.77877522 0.29816687 0.73757738 4334622
-0.77152479 0.29816687 0.73757738 5120539
-0.77842766 0.3036885 0.75123626 6237218
-0.771043 0.3036885 0.75123626 6959655
-0.77806687 0.30941844 0.76541048 7681064
-0.77054286 0.30941844 0.76541048 8663587
-0.76301885 0.30941844 0.76541048 9450786
-0.75549483 0.30941844 0.76541048 9450016
-0.74797082 0.30941844 0.76541048 9449503
-0.74044681 0.30941844 0.76541048 9581601
-0.7470175 0.31536883 0.78012997 9581600
-0.73934877 0.31536883 0.78012997 9712675
-0.74602669 0.32155252 0.79542661 9909540
-0.75297177 0.32798356 0.81133515 9975075
-0.74499631 0.32798356 0.81133515 10040868
-0.72256947 0.32155252 0.79542661 10171681
-0.71475041 0.32155252 0.79542661 10040608
-0.70693129 0.32155252 0.79542661 10172194
-0.72764742 0.33467713 0.82789302 9909538
-0.69129318 0.32155252 0.79542661 10040609
-0.67033035 0.31536883 0.78012997 10303267
-0.65015858 0.30941844 0.76541048 10368290
-0.65499294 0.31536883 0.78012997 10433568
-0.67321718 0.32798356 0.81133515 10499618
-0.66524172 0.32798356 0.81133515 10499361
0 0 0 10434081
0 0 0 10499874
0 0 0 10499618
-0.8558647 0.44322103 1.0963988 10565412
-0.84508705 0.44322103 1.0963988 10499617
-0.8343094 0.44322103 1.0963988 10499876
-0.84640765 0.45553276 1.1268544 10368292
-0.8591972 0.46854797 1.1590502 10696741
-0.87273908 0.48232877 1.1931399 10959655
-0.88710165 0.49694479 1.2292956 10630947
-0.93147039 0.52900577 1.3086051 10893607
-0.98195893 0.56548887 1.3988537 11025188
-1.0799245 0.63073766 1.5602599 11024932
-1.1071706 0.65596712 1.6226703 10828066
-1.136687 0.68329906 1.6902815 10959652
-1.1687703 0.71300775 1.763772 10762533
