# .PCD v0.7 - Point Cloud Data file format
VERSION 0.7
FIELDS x y z rgb
SIZE 4 4 4 4
TYPE F F F U
COUNT 1 1 1 1
WIDTH 1229
HEIGHT 1
VIEWPOINT 0 0 0 1 0 0 0
POINTS 1229
DATA ascii
0.37197798 -0.56731939 1.9317503 12090195
0.39096716 -0.56731939 1.9317503 12156243
0.40995637 -0.56731939 1.9317503 12483924
0.37532735 -0.49640447 1.6902815 12615251
0.39194289 -0.49640447 1.6902815 12615762
0.40855846 -0.49640447 1.6902815 12550486
0.53706187 -0.62703723 2.1350925 12812889
0.62370288 -0.70080632 2.3862798 12813399
0.64716011 -0.70080632 2.3862798 13075543
0.67061734 -0.70080632 2.3862798 13010009
0.58996344 -0.59568542 2.028338 13338715
0.7175318 -0.70080632 2.3862798 13338458
0.74098909 -0.70080632 2.3862798 13272922
0.76444632 -0.70080632 2.3862798 13601114
0.78790355 -0.70080632 2.3862798 13601114
0.81136078 -0.70080632 2.3862798 13666907
0.74694246 -0.62703723 2.1350925 13601889
0.85827523 -0.70080632 2.3862798 13929822
0.88173252 -0.70080632 2.3862798 13799517
0.90518975 -0.70080632 2.3862798 13865054
0.87705553 -0.66187268 2.2537088 13865055
0.80928862 -0.59568542 2.028338 14258270
0.8728708 -0.62703723 2.1350925 14061152
0.89385885 -0.62703723 2.1350925 14192477
1.0863807 -0.74460673 2.5354223 14322784
1.2700616 -0.85097909 2.8976254 14127454
1.1362273 -0.74460673 2.5354223 14259041
1.1611506 -0.74460673 2.5354223 14193507
1.4597833 -0.91643906 3.1205199 14127456
1.4904583 -0.91643906 3.1205199 14127200
1.5211331 -0.91643906 3.1205199 14127456
1.5518079 -0.91643906 3.1205199 14126434
1.5824827 -0.91643906 3.1205199 13995616
1.3106905 -0.74460673 2.5354223 14258274
1.1247275 -0.62703723 2.1350925 13864544
1.1457155 -0.62703723 2.1350925 13799521
1.1667036 -0.62703723 2.1350925 13733470
1.1876916 -0.62703723 2.1350925 13470045
1.2086797 -0.62703723 2.1350925 13535839
1.2296677 -0.62703723 2.1350925 13272922
1.188123 -0.59568542 2.028338 13404509
1.2080617 -0.59568542 2.028338 13010780
1.1695241 -0.56731939 1.9317503 13142109
0.99835116 -0.47654831 1.6226703 13010783
1.2075025 -0.56731939 1.9317503 13010269
1.8397374 -0.85097909 2.8976254 12878682
2.1795914 -0.99280894 3.380563 12878937
0 0 0 12747611
1.6845403 -0.74460673 2.5354223 12681562
1.6089069 -0.70080632 2.3862798 12419418
1.6323642 -0.70080632 2.3862798 12485209
2.1653049 -0.91643906 3.1205199 12287315
2.1959798 -0.91643906 3.1205199 12287830
2.2266545 -0.91643906 3.1205199 12025173
1.5444885 -0.62703723 2.1350925 11893845
1.4163835 -0.56731939 1.9317503 12286549
1.2559512 -0.49640447 1.6902815 12024918
1.2725667 -0.49640447 1.6902815 11828054
1.2891822 -0.49640447 1.6902815 11433550
2.4107037 -0.91643906 3.1205199 11499348
1.5868961 -0.59568542 2.028338 11301969
1.8903937 -0.70080632 2.3862798 11498579
1.9138509 -0.70080632 2.3862798 11827799
2.1956158 -0.79424715 2.7044504 11301970
1.3888755 -0.49640447 1.6902815 10974032
1.405491 -0.49640447 1.6902815 11302738
1.4221066 -0.49640447 1.6902815 11235662
1.5012753 -0.51798725 1.763772 11301969
1.5876411 -0.54153216 1.8439435 11039312
1.6057671 -0.54153216 1.8439435 11170128
1.6238931 -0.54153216 1.8439435 10907472
1.6420193 -0.54153216 1.8439435 10776146
1.9222735 -0.62703723 2.1350925 10711379
2.0512207 -0.66187268 2.2537088 10712147
2.0733747 -0.66187268 2.2537088 10645839
2.0955288 -0.66187268 2.2537088 10709577
1.9059145 -0.59568542 2.028338 10775886
1.9258533 -0.59568542 2.028338 10645331
1.9457918 -0.59568542 2.028338 10710610
2.06919 -0.62703723 2.1350925 10645331
2.2062991 -0.66187268 2.2537088 10381643
2.3595386 -0.70080632 2.3862798 10448722
2.3829956 -0.70080632 2.3862798 10250830
2.4064529 -0.70080632 2.3862798 10316620
2.9506052 -0.85097909 2.8976254 10382669
2.6067028 -0.74460673 2.5354223 10316107
2.6316261 -0.74460673 2.5354223 10381645
2.3613775 -0.66187268 2.2537088 10184781
2.3835316 -0.66187268 2.2537088 10053709
2.4056857 -0.66187268 2.2537088 10251086
2.4278398 -0.66187268 2.2537088 10645070
2.9399922 -0.79424715 2.7044504 10513741
3.1784754 -0.85097909 2.8976254 10579022
3.4536486 -0.91643906 3.1205199 10776146
3.2354431 -0.85097909 2.8976254 10842192
3.5149984 -0.91643906 3.1205199 10907986
3.8411458 -0.99280894 3.380563 10776401
3.8743768 -0.99280894 3.380563 10973778
3.907608 -0.99280894 3.380563 10907987
3.9408391 -0.99280894 3.380563 10777171
3.6683726 -0.91643906 3.1205199 10777169
4.0073013 -0.99280894 3.380563 10907987
4.848639 -1.1913708 4.0566759 10841425
4.8885164 -1.1913708 4.0566759 11039318
5.4759932 -1.3237454 4.5074177 11039829
0 0 0 11235667
0 0 0 10842964
0 0 0 10973780
0 0 0 10907219
0 0 0 10579025
0 0 0 10907734
0 0 0 10776916
0 0 0 10710608
0 0 0 10053196
0 0 0 11367507
-5.3794961 -1.2794372 4.5074177 11760974
-5.3351879 -1.2794372 4.5074177 11695951
-9.5235834 -2.3029871 8.1133518 11630415
-9.4438286 -2.3029871 8.1133518 11761232
-6.6886239 -1.6449906 5.7952509 11761234
-5.1579552 -1.2794372 4.5074177 11630418
-5.1136475 -1.2794372 4.5074177 11433296
-5.0693393 -1.2794372 4.5074177 11499090
-5.0250311 -1.2794372 4.5074177 11302224
-4.9807229 -1.2794372 4.5074177 11170639
-4.9364147 -1.2794372 4.5074177 11301453
-4.8921065 -1.2794372 4.5074177 11235917
-4.8477983 -1.2794372 4.5074177 11301712
-4.8034906 -1.2794372 4.5074177 11433298
-4.7591825 -1.2794372 4.5074177 11170383
-3.8576241 -1.0468122 3.687887 11301969
-3.821372 -1.0468122 3.687887 11236174
-3.78512 -1.0468122 3.687887 11235917
-3.1721191 -0.88576424 3.1205199 11301712
-2.7225847 -0.76766229 2.7044504 11235662
-2.6959999 -0.76766229 2.7044504 11104590
-2.5025768 -0.71968341 2.5354223 11235919
-2.4776535 -0.71968341 2.5354223 11170126
-2.4527302 -0.71968341 2.5354223 11038540
-3.2370756 -0.95957786 3.380563 11104331
-3.4951031 -1.0468122 3.687887 11104333
-3.1706135 -0.95957786 3.380563 10842188
-3.4225991 -1.0468122 3.687887 10841931
-2.8653705 -0.88576424 3.1205199 10906954
-5.2644348 -1.6449906 5.7952509 10972494
-4.5565338 -1.4393668 5.0708447 11038799
-4.5066872 -1.4393668 5.0708447 10907726
-4.4568405 -1.4393668 5.0708447 11235662
-4.4069939 -1.4393668 5.0708447 10842444
-4.3571472 -1.4393668 5.0708447 10645067
-4.3073006 -1.4393668 5.0708447 10973519
0 0 0 10972747
-4.2076073 -1.4393668 5.0708447 10776394
-3.6957874 -1.2794372 4.5074177 10776649
-3.6514795 -1.2794372 4.5074177 10972746
-3.6071713 -1.2794372 4.5074177 10843214
-3.5628631 -1.2794372 4.5074177 10842188
-3.9583743 -1.4393668 5.0708447 10973517
-3.9085276 -1.4393668 5.0708447 10972745
-3.858681 -1.4393668 5.0708447 11170636
-3.8088343 -1.4393668 5.0708447 11038794
-3.7589877 -1.4393668 5.0708447 11104331
-3.2970145 -1.2794372 4.5074177 11235916
-3.2527063 -1.2794372 4.5074177 11366732
-3.2083981 -1.2794372 4.5074177 11300685
-4.0681157 -1.6449906 5.7952509 11235662
-4.011148 -1.6449906 5.7952509 11433038
-3.9541805 -1.6449906 5.7952509 11694925
-3.4100614 -1.4393668 5.0708447 11432781
-3.3602147 -1.4393668 5.0708447 11760718
-2.9425495 -1.2794372 4.5074177 11498830
-3.2605214 -1.4393668 5.0708447 11563852
-3.2106748 -1.4393668 5.0708447 11433295
-3.1608281 -1.4393668 5.0708447 11695695
-3.1109815 -1.4393668 5.0708447 11761486
-3.0611348 -1.4393668 5.0708447 11695695
-3.0112882 -1.4393668 5.0708447 12351568
-2.6323926 -1.2794372 4.5074177 12089679
-2.5880845 -1.2794372 4.5074177 12090450
-2.5437765 -1.2794372 4.5074177 12089680
-2.4994683 -1.2794372 4.5074177 12417361
-1.3810276 -0.71968341 2.5354223 12352592
-0.86790669 -0.4605974 1.6226703 12418897
-0.56049722 -0.30302459 1.0675462 12484176
-0.55000323 -0.30302459 1.0675462 12155472
-0.53950918 -0.30302459 1.0675462 12353622
-0.51545066 -0.29525474 1.0401733 12156242
-0.41049588 -0.23989446 0.84514076 12352593
-0.47085437 -0.28085208 0.98943311 12484176
0 0 0 12680530
0 0 0 12614993
0 0 0 12352077
0 0 0 12089938
-0.34622329 -0.2302987 0.81133515 11562824
-0.31910172 -0.21726291 0.76541048 5645582
-0.30580774 -0.21323954 0.75123626 2101262
-0.29842305 -0.21323954 0.75123626 3219228
-0.28574675 -0.20936243 0.73757738 5779495
-0.27849633 -0.20936243 0.73757738 5910571
-0.27626902 -0.21323954 0.75123626 5516327
-0.26888433 -0.21323954 0.75123626 5384996
-0.26149964 -0.21323954 0.75123626 5122596
-0.25411496 -0.21323954 0.75123626 5121825
-0.25138554 -0.21726291 0.76541048 5055776
-0.24386151 -0.21726291 0.76541048 4858143
-0.2363375 -0.21726291 0.76541048 4858397
-0.22881347 -0.21726291 0.76541048 4857627
-0.22128946 -0.21726291 0.76541048 4595223
-0.21376544 -0.21726291 0.76541048 4201494
-0.20624141 -0.21726291 0.76541048 4398360
-0.1987174 -0.21726291 0.76541048 4201496
-0.19119337 -0.21726291 0.76541048 3610388
-0.18366936 -0.21726291 0.76541048 2296589
-0.17953277 -0.22144106 0.78012997 2034704
-0.17186405 -0.22144106 0.78012997 1312266
-0.16419533 -0.22144106 0.78012997 1114891
-0.15652663 -0.22144106 0.78012997 918282
-0.15177669 -0.22578304 0.79542661 1443852
-0.14683676 -0.2302987 0.81133515 2100495
-0.1388613 -0.2302987 0.81133515 8343350
-0.13355698 -0.23499867 0.82789302 10512966
-0.12541875 -0.23499867 0.82789302 11235660
-0.12227119 -0.2449986 0.86312246 11235914
-0.11884384 -0.25588742 0.90148348 11433293
-0.13024209 -0.30302459 1.0675462 11695180
-0.12298451 -0.31121445 1.0963988 11892045
-0.11220685 -0.31121445 1.0963988 12155472
-0.10424669 -0.3198593 1.1268544 12221524
0 0 0 12155473
0 0 0 12221779
0 0 0 12549713
0 0 0 12549714
0 0 0 12680788
0 0 0 12549971
-0.056557018 -0.67734909 2.3862798 12417872
-0.033099782 -0.67734909 2.3862798 12221267
-0.0096425433 -0.67734909 2.3862798 12221522
0.013814694 -0.67734909 2.3862798 12155473
0.037271932 -0.67734909 2.3862798 12221266
0.060729168 -0.67734909 2.3862798 12024400
0.089448057 -0.71968341 2.5354223 11893585
0.11437137 -0.71968341 2.5354223 11892300
0.13929468 -0.71968341 2.5354223 11761487
0.15455812 -0.67734909 2.3862798 11893070
0.18914132 -0.71968341 2.5354223 11958608
0.2014726 -0.67734909 2.3862798 11892815
0.20125301 -0.60604918 2.1350925 11695952
0.22224107 -0.60604918 2.1350925 11893587
0.2718443 -0.67734909 2.3862798 11893328
0.29530156 -0.67734909 2.3862798 11761743
0.31875879 -0.67734909 2.3862798 11827278
0.34221601 -0.67734909 2.3862798 11827535
0.36567327 -0.67734909 2.3862798 12155216
0.3891305 -0.67734909 2.3862798 12221265
0.36915746 -0.60604918 2.1350925 11958865
0.39014551 -0.60604918 2.1350925 12484435
0.3905769 -0.57574677 2.028338 12156755
0.39096716 -0.54833019 1.9317503 12418644
0.39132199 -0.52340609 1.8439435 12550228
0.39164594 -0.50064933 1.763772 12812373
0.39194289 -0.47978893 1.6902815 12485207
0.61283767 -0.71968341 2.5354223 12878166
0.637761 -0.71968341 2.5354223 12944729
0.66268432 -0.71968341 2.5354223 13010520
0.64716011 -0.67734909 2.3862798 13010520
0.67061734 -0.67734909 2.3862798 13075801
0.69407457 -0.67734909 2.3862798 13141848
0.7175318 -0.67734909 2.3862798 13338969
0.74098909 -0.67734909 2.3862798 13339226
0.76444632 -0.67734909 2.3862798 13667677
0.78790355 -0.67734909 2.3862798 13667423
0.76628524 -0.63971859 2.2537088 13995872
0.78843927 -0.63971859 2.2537088 14061665
0.81059337 -0.63971859 2.2537088 13733727
0.8327474 -0.63971859 2.2537088 13930846
0.85490143 -0.63971859 2.2537088 14127456
0.87705553 -0.63971859 2.2537088 14127200
0.95210421 -0.67734909 2.3862798 13930592
1.0365341 -0.71968341 2.5354223 13995870
1.0614574 -0.71968341 2.5354223 14258529
1.0863807 -0.71968341 2.5354223 14128228
1.2700616 -0.82249528 2.8976254 13931106
1.1362273 -0.71968341 2.5354223 13996382
1.3270292 -0.82249528 2.8976254 14259042
1.4597833 -0.88576424 3.1205199 13930848
1.4904583 -0.88576424 3.1205199 14192739
1.5211331 -0.88576424 3.1205199 14192736
1.3449001 -0.76766229 2.7044504 13799263
1.2857672 -0.71968341 2.5354223 14061410
1.1037394 -0.60604918 2.1350925 13798752
1.1247275 -0.60604918 2.1350925 13733727
1.1457155 -0.60604918 2.1350925 13799009
1.2315204 -0.63971859 2.2537088 13864544
1.2536745 -0.63971859 2.2537088 13601887
1.2086797 -0.60604918 2.1350925 13470301
1.2296677 -0.60604918 2.1350925 13404253
1.2506558 -0.60604918 2.1350925 13470045
1.2716439 -0.60604918 2.1350925 13076828
1.2926319 -0.60604918 2.1350925 13207132
0.99835116 -0.4605974 1.6226703 13076057
1.1025022 -0.50064933 1.763772 13011035
1.2264916 -0.54833019 1.9317503 12877912
2.1795914 -0.95957786 3.380563 12813145
2.2128224 -0.95957786 3.380563 12747611
1.7968428 -0.76766229 2.7044504 12615769
1.8234277 -0.76766229 2.7044504 12484952
2.3125157 -0.95957786 3.380563 12156503
3.1276627 -1.2794372 4.5074177 12287062
2.378978 -0.95957786 3.380563 12352601
2.412209 -0.95957786 3.380563 12156247
2.2573295 -0.88576424 3.1205199 11893847
2.2880044 -0.88576424 3.1205199 11828054
1.4353727 -0.54833019 1.9317503 12090198
1.4543619 -0.54833019 1.9317503 11630675
1.4733511 -0.54833019 1.9317503 11828056
2.4107037 -0.88576424 3.1205199 11630676
1.8669364 -0.67734909 2.3862798 11695441
2.4720535 -0.88576424 3.1205199 11762006
2.1690309 -0.76766229 2.7044504 11499348
2.1956158 -0.76766229 2.7044504 11564627
1.9607655 -0.67734909 2.3862798 11236689
1.9842227 -0.67734909 2.3862798 11433298
1.6252646 -0.54833019 1.9317503 11367763
2.3019555 -0.76766229 2.7044504 11170642
1.6632431 -0.54833019 1.9317503 11236179
1.6822323 -0.54833019 1.9317503 11301457
1.7012215 -0.54833019 1.9317503 11039058
2.1249661 -0.67734909 2.3862798 11104598
2.1484234 -0.67734909 2.3862798 10841426
2.1718805 -0.67734909 2.3862798 10907729
2.0733747 -0.63971859 2.2537088 10710863
2.0955288 -0.63971859 2.2537088 10710863
1.9059145 -0.57574677 2.028338 10973265
1.9258533 -0.57574677 2.028338 10710354
1.9457918 -0.57574677 2.028338 10775634
1.9657305 -0.57574677 2.028338 10513231
2.2062991 -0.63971859 2.2537088 10579535
2.3595386 -0.67734909 2.3862798 10514255
2.3829956 -0.67734909 2.3862798 10512974
2.4064529 -0.67734909 2.3862798 10513488
2.5817795 -0.71968341 2.5354223 10447693
2.6067028 -0.71968341 2.5354223 10316364
2.6316261 -0.71968341 2.5354223 10054220
2.5002818 -0.67734909 2.3862798 10053966
2.5237391 -0.67734909 2.3862798 10054221
2.5471964 -0.67734909 2.3862798 10120271
2.4278398 -0.63971859 2.2537088 10381131
2.594111 -0.67734909 2.3862798 10775118
3.4229739 -0.88576424 3.1205199 10644046
3.4536486 -0.88576424 3.1205199 10710864
3.4843235 -0.88576424 3.1205199 10711121
3.5149984 -0.88576424 3.1205199 10907732
3.5456731 -0.88576424 3.1205199 10841681
3.5763481 -0.88576424 3.1205199 10710606
4.262845 -1.0468122 3.687887 10842192
3.377862 -0.82249528 2.8976254 10842705
3.4063458 -0.82249528 2.8976254 10841935
3.4348295 -0.82249528 2.8976254 11104081
4.848639 -1.1514935 4.0566759 10775634
4.8885164 -1.1514935 4.0566759 10645329
5.4759932 -1.2794372 4.5074177 10775888
0 0 0 11170133
0 0 0 10842452
0 0 0 10776918
0 0 0 10973267
0 0 0 10841940
0 0 0 10710099
0 0 0 10579027
0 0 0 10514516
0 0 0 9526337
0 0 0 9790275
-4.4014053 -1.0105602 3.687887 11367762
-5.3351879 -1.2351291 4.5074177 11629904
-9.5235834 -2.2232325 8.1133518 11499343
-9.4438286 -2.2232325 8.1133518 11565136
-5.2022634 -1.2351291 4.5074177 11630161
-5.1579552 -1.2351291 4.5074177 11499089
-5.1136475 -1.2351291 4.5074177 11499089
-5.0693393 -1.2351291 4.5074177 11498832
-4.5225282 -1.1116163 4.0566759 11301710
-4.0751367 -1.0105602 3.687887 11301711
-4.0388846 -1.0105602 3.687887 11564113
-3.6690798 -0.92634678 3.380563 11432783
-3.6358488 -0.92634678 3.380563 11301454
-3.9301283 -1.0105602 3.687887 11170639
-4.7591825 -1.2351291 4.5074177 11170897
-3.5361555 -0.92634678 3.380563 11170898
-3.2334688 -0.85508937 3.1205199 11170384
-3.2027938 -0.85508937 3.1205199 11302222
-3.1721191 -0.85508937 3.1205199 11170636
-2.9170551 -0.79401153 2.8976254 11235918
-2.6959999 -0.74107742 2.7044504 11235662
-2.3553662 -0.65389186 2.3862798 11169869
-2.3319092 -0.65389186 2.3862798 11170896
-2.4527302 -0.69476008 2.5354223 11039054
-2.4278069 -0.69476008 2.5354223 11104333
-3.2038445 -0.92634678 3.380563 11105617
-2.9267204 -0.85508937 3.1205199 11301712
-2.8960454 -0.85508937 3.1205199 10908239
-2.3281136 -0.69476008 2.5354223 10907726
-2.3031902 -0.69476008 2.5354223 11170383
-2.2782669 -0.69476008 2.5354223 11104847
-4.5066872 -1.3895202 5.0708447 11038798
-4.4568405 -1.3895202 5.0708447 10972748
-4.4069939 -1.3895202 5.0708447 11170122
-4.3571472 -1.3895202 5.0708447 10776136
-4.3073006 -1.3895202 5.0708447 10907980
-4.2574539 -1.3895202 5.0708447 10907467
-4.2076073 -1.3895202 5.0708447 10973003
-3.6957874 -1.2351291 4.5074177 10974028
-4.107914 -1.3895202 5.0708447 10907724
-3.6071713 -1.2351291 4.5074177 10972745
-3.5628631 -1.2351291 4.5074177 11105101
-3.5185549 -1.2351291 4.5074177 11104846
-3.9085276 -1.3895202 5.0708447 11038540
-3.858681 -1.3895202 5.0708447 10907724
-4.3529534 -1.5880231 5.7952509 11301454
-5.0119834 -1.8526936 6.761126 11169867
-4.9455214 -1.8526936 6.761126 11235660
-3.2527063 -1.2351291 4.5074177 11301454
-1.3750277 -0.52934104 1.9317503 11498320
-1.3560386 -0.52934104 1.9317503 11563857
-3.5097547 -1.3895202 5.0708447 11564110
-3.9541805 -1.5880231 5.7952509 11499086
-3.4100614 -1.3895202 5.0708447 11564365
-2.9868577 -1.2351291 4.5074177 11892560
-3.3103681 -1.3895202 5.0708447 11629903
-3.2605214 -1.3895202 5.0708447 11893074
-3.6693425 -1.5880231 5.7952509 11958867
0 0 0 12089937
-3.5554073 -1.5880231 5.7952509 11958865
-3.0611348 -1.3895202 5.0708447 11958865
-2.6767008 -1.2351291 4.5074177 12090450
-2.6323926 -1.2351291 4.5074177 12156241
-2.5880845 -1.2351291 4.5074177 12221265
-2.5437765 -1.2351291 4.5074177 12614992
0 0 0 12615762
-1.6997262 -0.85508937 3.1205199 12352338
-0.90406948 -0.46317339 1.6902815 12746838
-0.62643808 -0.32694593 1.1931399 12353876
-0.56486815 -0.30043679 1.0963988 12682070
-0.53950918 -0.29253057 1.0675462 12747348
-0.49030674 -0.27112588 0.98943311 12943184
-0.41049588 -0.23158669 0.84514076 12746838
-0.52175754 -0.30043679 1.0963988 13139793
-0.55606633 -0.32694593 1.1931399 12878164
0 0 0 12878422
0 0 0 12549714
0 0 0 12549716
-0.35328907 -0.22686045 0.82789302 12285774
-0.31910172 -0.2097389 0.76541048 6039823
-0.30580774 -0.20585485 0.75123626 2952974
-0.29842305 -0.20585485 0.75123626 3152665
-0.29103836 -0.20585485 0.75123626 6567468
-0.27849633 -0.20211202 0.73757738 6305324
-0.27626902 -0.20585485 0.75123626 5911081
-0.26888433 -0.20585485 0.75123626 5516325
-0.26149964 -0.20585485 0.75123626 5187873
-0.25411496 -0.20585485 0.75123626 4989983
-0.24673025 -0.20585485 0.75123626 4727325
-0.23934558 -0.20585485 0.75123626 4595998
-0.2277434 -0.20211202 0.73757738 4792863
-0.22049299 -0.20211202 0.73757738 4727324
-0.22128946 -0.2097389 0.76541048 4464666
-0.21376544 -0.2097389 0.76541048 4398874
-0.20242214 -0.20585485 0.75123626 4070167
-0.19503745 -0.20585485 0.75123626 4135702
-0.18765277 -0.20585485 0.75123626 4004116
-0.18366936 -0.2097389 0.76541048 3348245
-0.17953277 -0.21377234 0.78012997 1837323
-0.17186405 -0.21377234 0.78012997 1180937
-0.16419533 -0.21377234 0.78012997 1049352
-0.15959577 -0.21796395 0.79542661 1180938
-0.15177669 -0.21796395 0.79542661 1312523
-0.14683676 -0.22232322 0.81133515 1772045
-0.1416952 -0.22686045 0.82789302 8212273
-0.13355698 -0.22686045 0.82789302 11301453
-0.12541875 -0.22686045 0.82789302 11695696
-0.11972387 -0.23158669 0.84514076 11761230
-0.11626028 -0.24165568 0.88188601 11892301
-0.11248181 -0.25264004 0.92197174 12220751
-0.12298451 -0.30043679 1.0963988 12352081
-0.11220685 -0.30043679 1.0963988 12090962
0 0 0 12484181
0 0 0 12681043
0 0 0 12746836
0 0 0 12549971
0 0 0 12747350
0 0 0 12812371
0 0 0 12615509
-0.056557018 -0.65389186 2.3862798 12485206
-0.033099782 -0.65389186 2.3862798 12681303
-0.0096425433 -0.65389186 2.3862798 12418131
0.013814694 -0.65389186 2.3862798 12746837
0.037271932 -0.65389186 2.3862798 12286801
0.060729168 -0.65389186 2.3862798 12221265
0.084186405 -0.65389186 2.3862798 12286545
0.11437137 -0.69476008 2.5354223 12023886
0.13929468 -0.69476008 2.5354223 11958863
0.16421801 -0.69476008 2.5354223 11893842
0.18914132 -0.69476008 2.5354223 12221267
0.2014726 -0.65389186 2.3862798 12023890
0.22492984 -0.65389186 2.3862798 11761486
0.2345878 -0.61756456 2.2537088 11695949
0.25674185 -0.61756456 2.2537088 12089423
0.25100634 -0.55580813 2.028338 12154959
0.31875879 -0.65389186 2.3862798 12023631
0.34221601 -0.65389186 2.3862798 12090448
0.36567327 -0.65389186 2.3862798 12155729
0.34816939 -0.58506113 2.1350925 12024914
0.3506996 -0.55580813 2.028338 12155987
0.37063825 -0.55580813 2.028338 12352596
0.3905769 -0.55580813 2.028338 12616534
0.39096716 -0.52934104 1.9317503 12549715
0.39132199 -0.50528008 1.8439435 12812373
0.40944803 -0.50528008 1.8439435 12943957
0.55333114 -0.65389186 2.3862798 12748119
0.61283767 -0.69476008 2.5354223 12944729
0.68027836 -0.74107742 2.7044504 13207129
0.66268432 -0.69476008 2.5354223 12813656
0.64716011 -0.65389186 2.3862798 13272665
0.67061734 -0.65389186 2.3862798 13338457
0.69407457 -0.65389186 2.3862798 13470044
0.76237756 -0.69476008 2.5354223 13339225
0.74098909 -0.65389186 2.3862798 13732956
0.76444632 -0.65389186 2.3862798 13864799
0.78790355 -0.65389186 2.3862798 13930595
0.81136078 -0.65389186 2.3862798 13930079
0.83481801 -0.65389186 2.3862798 14192479
0.81059337 -0.61756456 2.2537088 14126686
0.8327474 -0.61756456 2.2537088 14258270
0.85490143 -0.61756456 2.2537088 14127199
0.87705553 -0.61756456 2.2537088 14390115
0.95210421 -0.65389186 2.3862798 14193252
1.0365341 -0.69476008 2.5354223 14127455
1.0614574 -0.69476008 2.5354223 14193251
1.0863807 -0.69476008 2.5354223 14258272
1.111304 -0.69476008 2.5354223 14127454
1.2119757 -0.74107742 2.7044504 14259042
1.3270292 -0.79401153 2.8976254 14127198
1.4597833 -0.85508937 3.1205199 14259042
1.4904583 -0.85508937 3.1205199 14192222
1.5211331 -0.85508937 3.1205199 14193250
1.5518079 -0.85508937 3.1205199 13996642
1.2857672 -0.69476008 2.5354223 14062435
1.1037394 -0.58506113 2.1350925 14061923
1.1247275 -0.58506113 2.1350925 14192227
1.1457155 -0.58506113 2.1350925 13667682
1.2315204 -0.61756456 2.2537088 13601117
1.2536745 -0.61756456 2.2537088 13601630
1.2086797 -0.58506113 2.1350925 13339227
1.2296677 -0.58506113 2.1350925 13208414
1.2506558 -0.58506113 2.1350925 13338715
1.3422908 -0.61756456 2.2537088 13272924
1.4447062 -0.65389186 2.3862798 13141854
1.5599236 -0.69476008 2.5354223 13207131
1.584847 -0.69476008 2.5354223 12944475
1.9812558 -0.85508937 3.1205199 12813658
2.1795914 -0.92634678 3.380563 12682588
2.0426054 -0.85508937 3.1205199 12747613
1.9251888 -0.79401153 2.8976254 12549719
2.2792847 -0.92634678 3.380563 12287830
2.3125157 -0.92634678 3.380563 12222039
2.3457468 -0.92634678 3.380563 12091223
2.378978 -0.92634678 3.380563 12419162
2.2266545 -0.85508937 3.1205199 12155222
2.2573295 -0.85508937 3.1205199 12025433
2.2880044 -0.85508937 3.1205199 11958869
1.5071415 -0.55580813 2.028338 11696468
1.5270802 -0.55580813 2.028338 11696212
1.5470188 -0.55580813 2.028338 11827799
2.8490133 -1.0105602 3.687887 11762265
2.8852654 -1.0105602 3.687887 11564886
2.9215176 -1.0105602 3.687887 11499348
2.7112887 -0.92634678 3.380563 11105618
2.1956158 -0.74107742 2.7044504 11367505
2.2222006 -0.74107742 2.7044504 11236691
2.2487855 -0.74107742 2.7044504 11236691
2.2753706 -0.74107742 2.7044504 11105620
2.3019555 -0.74107742 2.7044504 11105618
2.0545943 -0.65389186 2.3862798 11104851
2.0780516 -0.65389186 2.3862798 11301457
1.8802974 -0.58506113 2.1350925 11038803
2.1249661 -0.65389186 2.3862798 11038802
2.1484234 -0.65389186 2.3862798 10842707
2.1718805 -0.65389186 2.3862798 10776399
1.8660372 -0.55580813 2.028338 10907726
1.8859758 -0.55580813 2.028338 10776399
1.9059145 -0.55580813 2.028338 10776399
1.9258533 -0.55580813 2.028338 10579535
1.9457918 -0.55580813 2.028338 10514000
1.9657305 -0.55580813 2.028338 10645073
1.9856691 -0.55580813 2.028338 10447694
2.3595386 -0.65389186 2.3862798 10447694
2.3829956 -0.65389186 2.3862798 10447182
2.5568564 -0.69476008 2.5354223 10512975
2.7538981 -0.74107742 2.7044504 10185550
2.780483 -0.74107742 2.7044504 10251343
2.6316261 -0.69476008 2.5354223 10053964
2.6565495 -0.69476008 2.5354223 9988171
2.5237391 -0.65389186 2.3862798 10250314
2.5471964 -0.65389186 2.3862798 10316362
2.4278398 -0.61756456 2.2537088 10710350
2.7562428 -0.69476008 2.5354223 10644813
3.4229739 -0.85508937 3.1205199 10513997
3.4536486 -0.85508937 3.1205199 10382413
3.4843235 -0.85508937 3.1205199 10513744
3.5149984 -0.85508937 3.1205199 10579536
3.5456731 -0.85508937 3.1205199 10710865
3.5763481 -0.85508937 3.1205199 11104596
4.6891298 -1.1116163 4.0566759 10972751
4.7290072 -1.1116163 4.0566759 10776399
3.4063458 -0.79401153 2.8976254 10973267
4.0073013 -0.92634678 3.380563 10972497
4.0405321 -0.92634678 3.380563 10776402
4.8885164 -1.1116163 4.0566759 10841937
4.9283938 -1.1116163 4.0566759 11104338
0 0 0 11104852
0 0 0 10973780
0 0 0 10973780
0 0 0 10644815
0 0 0 10710865
0 0 0 10776145
0 0 0 10776146
0 0 0 10776661
0 0 0 9198914
0 0 0 9067584
-4.4014053 -0.97430801 3.687887 10579792
-5.3351879 -1.1908211 4.5074177 11499089
-9.5235834 -2.1434777 8.1133518 11433550
-5.2465715 -1.1908211 4.5074177 11498316
-4.6820374 -1.0717388 4.0566759 11564627
-4.6421599 -1.0717388 4.0566759 11629648
-4.6022825 -1.0717388 4.0566759 11762261
-4.1476407 -0.97430801 3.687887 11433551
-3.7687731 -0.8931157 3.380563 11433809
-3.7355418 -0.8931157 3.380563 11301968
-3.7023108 -0.8931157 3.380563 11499089
-3.386843 -0.82441455 3.1205199 11498575
-3.3561683 -0.82441455 3.1205199 11432526
-3.3254933 -0.82441455 3.1205199 11498832
-3.0594742 -0.76552773 2.8976254 11433294
-3.0309904 -0.76552773 2.8976254 11367504
-3.2334688 -0.82441455 3.1205199 11498320
-2.9740229 -0.76552773 2.8976254 11498833
-2.945539 -0.76552773 2.8976254 11301963
-2.9170551 -0.76552773 2.8976254 11301962
-2.5275002 -0.66983676 2.5354223 11235917
-2.5025768 -0.66983676 2.5354223 11104847
-2.4776535 -0.66983676 2.5354223 11104847
-2.4527302 -0.66983676 2.5354223 10973260
-2.4278069 -0.66983676 2.5354223 11170124
-2.2615373 -0.63043463 2.3862798 11038539
-2.23808 -0.63043463 2.3862798 11367505
-2.6891849 -0.76552773 2.8976254 11038797
-2.660701 -0.76552773 2.8976254 11235660
-2.1677084 -0.63043463 2.3862798 10908237
-1.3018668 -0.38276386 1.4488127 10908239
-1.3353148 -0.39694032 1.5024725 10908237
-3.5654726 -1.0717388 4.0566759 10842444
-4.4069939 -1.3396735 5.0708447 10973770
-4.3571472 -1.3396735 5.0708447 10907979
-4.3073006 -1.3396735 5.0708447 11038542
0 0 0 11038540
0 0 0 11039312
-4.1577606 -1.3396735 5.0708447 11236175
-4.107914 -1.3396735 5.0708447 11235660
-3.6071713 -1.1908211 4.5074177 11301454
-3.2065768 -1.0717388 4.0566759 11039051
-3.5185549 -1.1908211 4.5074177 11170125
-3.9085276 -1.3396735 5.0708447 11039310
-3.858681 -1.3396735 5.0708447 11301710
-4.3529534 -1.5310555 5.7952509 11302480
0 0 0 11433551
-4.9455214 -1.7862314 6.761126 11236686
-3.2527063 -1.1908211 4.5074177 11301710
-1.3750277 -0.51035184 1.9317503 11301453
-1.3560386 -0.51035184 1.9317503 11433296
-1.4777914 -0.56407309 2.1350925 11761231
-3.459908 -1.3396735 5.0708447 11762260
-3.4100614 -1.3396735 5.0708447 11499343
-1.3440859 -0.53586942 2.028338 11826768
-3.3103681 -1.3396735 5.0708447 12089683
-3.2605214 -1.3396735 5.0708447 12155218
-3.6693425 -1.5310555 5.7952509 12023888
0 0 0 12221267
-4.9775705 -2.1434777 8.1133518 12155987
-3.4984398 -1.5310555 5.7952509 12156241
-2.4090307 -1.0717388 4.0566759 12353105
-2.3691535 -1.0717388 4.0566759 12615509
-2.3292761 -1.0717388 4.0566759 12418898
0 0 0 12484435
0 0 0 12943700
-0.96071482 -0.46597341 1.763772 12812628
-0.86790669 -0.42869553 1.6226703 12943961
-0.64542103 -0.32476932 1.2292956 12747864
-0.61470944 -0.31521732 1.1931399 13010263
-0.5540905 -0.28965914 1.0963988 13141333
-0.52901512 -0.28203654 1.0675462 12943957
-0.5325352 -0.28965914 1.0963988 12747602
-0.53625083 -0.29770526 1.1268544 13206613
-0.52517378 -0.29770526 1.1268544 12944214
0 0 0 12878676
0 0 0 12943957
0 0 0 12812625
-0.35328907 -0.21872222 0.82789302 11893838
-0.33824784 -0.21434776 0.81133515 10380605
-0.30580774 -0.19847016 0.75123626 3872275
-0.29842305 -0.19847016 0.75123626 2560785
-0.29103836 -0.19847016 0.75123626 6633774
-0.28365368 -0.19847016 0.75123626 6567211
-0.27626902 -0.19847016 0.75123626 5844519
-0.2639955 -0.19486161 0.73757738 4989983
-0.25674507 -0.19486161 0.73757738 4661791
-0.24949466 -0.19486161 0.73757738 4464670
-0.23791845 -0.19138193 0.72440636 4333339
-0.2307975 -0.19138193 0.72440636 4201755
-0.22367656 -0.19138193 0.72440636 3677212
-0.21655561 -0.19138193 0.72440636 2822160
-0.21324256 -0.19486161 0.73757738 1968652
-0.20231372 -0.19138193 0.72440636 1902858
-0.19874173 -0.19486161 0.73757738 2297102
-0.19149131 -0.19486161 0.73757738 2428174
-0.18765277 -0.19847016 0.75123626 2953487
-0.18026808 -0.19847016 0.75123626 3676179
-0.17614534 -0.20221487 0.76541048 3216146
-0.17186405 -0.20610364 0.78012997 1640459
-0.16419533 -0.20610364 0.78012997 1115145
-0.15959577 -0.21014488 0.79542661 1180680
-0.15481222 -0.21434776 0.81133515 1312266
-0.14683676 -0.21434776 0.81133515 1443852
-0.1416952 -0.21872222 0.82789302 8869956
-0.13355698 -0.21872222 0.82789302 11104586
-0.12541875 -0.21872222 0.82789302 11629901
-0.11972387 -0.22327892 0.84514076 12023887
-0.11626028 -0.2329867 0.88188601 12221265
-0.10759129 -0.2329867 0.88188601 12483666
-0.10582387 -0.24924159 0.94341296 12550226
0 0 0 12616021
0 0 0 12878678
0 0 0 12682068
0 0 0 13206872
0 0 0 12813653
0 0 0 13009493
0 0 0 13207381
0 0 0 12878163
0 0 0 13010265
-0.033099782 -0.63043463 2.3862798 12747348
-0.0096425433 -0.63043463 2.3862798 12877911
0.013814694 -0.63043463 2.3862798 12681558
0.037271932 -0.63043463 2.3862798 12812371
0.060729168 -0.63043463 2.3862798 12352851
0.084186405 -0.63043463 2.3862798 12221265
0.11437137 -0.66983676 2.5354223 12221519
0.13929468 -0.66983676 2.5354223 12352338
0.16421801 -0.66983676 2.5354223 12484439
0.18914132 -0.66983676 2.5354223 12352338
0.21406464 -0.66983676 2.5354223 12089681
0.23898795 -0.66983676 2.5354223 12089679
0.2345878 -0.59541053 2.2537088 12286547
0.23106767 -0.53586942 2.028338 12089681
0.25100634 -0.53586942 2.028338 12023888
0.25804281 -0.51035184 1.9317503 12221010
0.27703202 -0.51035184 1.9317503 12221265
0.29602119 -0.51035184 1.9317503 12286805
0.3150104 -0.51035184 1.9317503 12418645
0.3339996 -0.51035184 1.9317503 12549970
0.35298878 -0.51035184 1.9317503 12681046
0.37197798 -0.51035184 1.9317503 12550740
0.39096716 -0.51035184 1.9317503 12878938
0.43045419 -0.53586942 2.028338 12878679
0.52987391 -0.63043463 2.3862798 12878936
0.55333114 -0.63043463 2.3862798 12944470
0.61283767 -0.66983676 2.5354223 12945240
0.637761 -0.66983676 2.5354223 13207383
0.62370288 -0.63043463 2.3862798 13272922
0.64716011 -0.63043463 2.3862798 13470044
0.67061734 -0.63043463 2.3862798 13469528
0.73745424 -0.66983676 2.5354223 13601114
0.76237756 -0.66983676 2.5354223 13536091
0.78730088 -0.66983676 2.5354223 13799006
0.76444632 -0.63043463 2.3862798 13798749
0.78790355 -0.63043463 2.3862798 13996383
0.81136078 -0.63043463 2.3862798 13931106
0.83481801 -0.63043463 2.3862798 14061663
0.81059337 -0.59541053 2.2537088 14061663
0.8327474 -0.59541053 2.2537088 14194019
0.85490143 -0.59541053 2.2537088 14257760
0.87705553 -0.59541053 2.2537088 14192740
0.95210421 -0.63043463 2.3862798 14258272
1.0365341 -0.66983676 2.5354223 14258271
1.0614574 -0.66983676 2.5354223 14193761
1.0863807 -0.66983676 2.5354223 14194020
1.0459331 -0.63043463 2.3862798 14127456
1.0693904 -0.63043463 2.3862798 14455649
1.2385606 -0.71449256 2.7044504 14324063
1.355513 -0.76552773 2.8976254 14127456
1.3839968 -0.76552773 2.8976254 14323813
1.5211331 -0.82441455 3.1205199 13930851
1.4409643 -0.76552773 2.8976254 14259044
1.2857672 -0.66983676 2.5354223 13668192
1.1650583 -0.59541053 2.2537088 13733727
1.1247275 -0.56407309 2.1350925 13667680
1.1457155 -0.56407309 2.1350925 13929825
1.1667036 -0.56407309 2.1350925 13667681
1.1876916 -0.56407309 2.1350925 13733216
1.2086797 -0.56407309 2.1350925 13404254
1.2296677 -0.56407309 2.1350925 13404510
1.2506558 -0.56407309 2.1350925 13404255
1.3422908 -0.59541053 2.2537088 13076833
1.4447062 -0.63043463 2.3862798 12814174
1.4681635 -0.63043463 2.3862798 12879196
1.4916207 -0.63043463 2.3862798 12747609
1.5150779 -0.63043463 2.3862798 12878682
1.7436731 -0.71449256 2.7044504 12682074
1.7702579 -0.71449256 2.7044504 12550236
1.7968428 -0.71449256 2.7044504 12681820
2.1039553 -0.82441455 3.1205199 12615514
2.3125157 -0.8931157 3.380563 12025433
2.3457468 -0.8931157 3.380563 12222807
2.039124 -0.76552773 2.8976254 12287576
2.0676076 -0.76552773 2.8976254 12024919
2.2573295 -0.82441455 3.1205199 12090199
2.2880044 -0.82441455 3.1205199 11893335
1.5071415 -0.53586942 2.028338 11630677
1.5270802 -0.53586942 2.028338 11828056
1.5470188 -0.53586942 2.028338 11630421
2.8490133 -0.97430801 3.687887 11499093
2.8852654 -0.97430801 3.687887 11564628
3.2136695 -1.0717388 4.0566759 11827286
2.7112887 -0.8931157 3.380563 11301710
1.9373082 -0.63043463 2.3862798 11367505
1.9607655 -0.63043463 2.3862798 11170644
1.9842227 -0.63043463 2.3862798 11039571
2.0076799 -0.63043463 2.3862798 11170643
2.0311372 -0.63043463 2.3862798 11039569
2.0545943 -0.63043463 2.3862798 11039825
2.0780516 -0.63043463 2.3862798 10842965
2.1015089 -0.63043463 2.3862798 10711636
2.1249661 -0.63043463 2.3862798 10711378
2.1484234 -0.63043463 2.3862798 10842194
2.1718805 -0.63043463 2.3862798 10776403
2.1953378 -0.63043463 2.3862798 11038288
1.8859758 -0.53586942 2.028338 10775886
1.9059145 -0.53586942 2.028338 10776401
1.9258533 -0.53586942 2.028338 10579280
1.9457918 -0.53586942 2.028338 10447695
1.9657305 -0.53586942 2.028338 10447438
1.9856691 -0.53586942 2.028338 10710095
2.0056078 -0.53586942 2.028338 10316366
2.3829956 -0.63043463 2.3862798 10447954
2.5568564 -0.66983676 2.5354223 10315850
3.1775749 -0.82441455 3.1205199 10381389
3.2082498 -0.82441455 3.1205199 10316109
2.8070679 -0.71449256 2.7044504 10251597
2.8336527 -0.71449256 2.7044504 10184264
2.6814728 -0.66983676 2.5354223 10185032
2.7063961 -0.66983676 2.5354223 10447436
2.7313194 -0.66983676 2.5354223 10185804
3.1499918 -0.76552773 2.8976254 10250573
3.4229739 -0.82441455 3.1205199 10644302
3.4536486 -0.82441455 3.1205199 10513488
3.7746835 -0.8931157 3.380563 10776399
3.5149984 -0.82441455 3.1205199 10645585
4.190341 -0.97430801 3.687887 10514001
4.226593 -0.97430801 3.687887 10579538
4.6891298 -1.0717388 4.0566759 10710866
5.2544522 -1.1908211 4.5074177 10841939
3.9740701 -0.8931157 3.380563 10776147
3.4348295 -0.76552773 2.8976254 10711124
4.0405321 -0.8931157 3.380563 10776917
4.4441056 -0.97430801 3.687887 10907985
4.4803576 -0.97430801 3.687887 10776401
5.5203009 -1.1908211 4.5074177 10842194
0 0 0 10842194
0 0 0 10907475
0 0 0 10973013
0 0 0 10972497
0 0 0 10382159
0 0 0 10120531
0 0 0 10185811
0 0 0 9198656
0 0 0 8935743
-4.4014053 -0.93805593 3.687887 9265478
-4.8016691 -1.0318615 4.0566759 10973519
-5.2908797 -1.1465129 4.5074177 11695695
-6.7455916 -1.4740878 5.7952509 11564879
-4.2563972 -0.93805593 3.687887 11498576
-4.6421599 -1.0318615 4.0566759 11433296
-4.1838932 -0.93805593 3.687887 11367503
-4.1476407 -0.93805593 3.687887 11498573
-3.4788675 -0.79373968 3.1205199 11433035
-3.4481928 -0.79373968 3.1205199 11499343
-3.4175179 -0.79373968 3.1205199 11367501
-3.386843 -0.79373968 3.1205199 11367503
-3.1164417 -0.73704392 2.8976254 11301711
-3.0879579 -0.73704392 2.8976254 11367248
-3.0594742 -0.73704392 2.8976254 11301712
-3.0309904 -0.73704392 2.8976254 11367503
-3.0025065 -0.73704392 2.8976254 11827281
-2.9740229 -0.73704392 2.8976254 11630159
-2.945539 -0.73704392 2.8976254 11367501
-2.9170551 -0.73704392 2.8976254 11433292
-3.1107693 -0.79373968 3.1205199 11498316
-2.5025768 -0.64491343 2.5354223 11367505
-2.4776535 -0.64491343 2.5354223 11105616
-2.3084519 -0.6069774 2.3862798 11235662
-2.1580505 -0.57325643 2.2537088 11367759
-2.0234809 -0.54308504 2.1350925 11301452
-2.23808 -0.6069774 2.3862798 11301710
-2.6891849 -0.73704392 2.8976254 11301451
-2.8653705 -0.79373968 3.1205199 11366476
-2.8346958 -0.79373968 3.1205199 11039308
-1.3018668 -0.36852196 1.4488127 11235917
-1.3353148 -0.38217095 1.5024725 11170124
-1.3205453 -0.38217095 1.5024725 11235918
-4.4069939 -1.2898269 5.0708447 10907466
-4.3571472 -1.2898269 5.0708447 11104844
-4.3073006 -1.2898269 5.0708447 10907724
0 0 0 10974030
0 0 0 10973772
0 0 0 11170124
-4.6947589 -1.4740878 5.7952509 11170126
-4.6377912 -1.4740878 5.7952509 11170894
-3.5628631 -1.1465129 4.5074177 11104331
-3.5185549 -1.1465129 4.5074177 11563856
-3.9085276 -1.2898269 5.0708447 11235919
-3.858681 -1.2898269 5.0708447 11629648
-4.3529534 -1.4740878 5.7952509 11433039
0 0 0 11433295
0 0 0 11498834
-1.4637178 -0.51593077 2.028338 11433293
-1.3750277 -0.49136263 1.9317503 11302478
-1.3560386 -0.49136263 1.9317503 11499854
-1.4039019 -0.51593077 2.028338 11892301
-1.4568033 -0.54308504 2.1350925 11695441
-1.4358153 -0.54308504 2.1350925 11826511
-1.4148272 -0.54308504 2.1350925 12023887
-3.3103681 -1.2898269 5.0708447 12090449
-3.2605214 -1.2898269 5.0708447 11958865
-3.2106748 -1.2898269 5.0708447 12221265
0 0 0 12352852
-2.765317 -1.1465129 4.5074177 12222034
-2.721009 -1.1465129 4.5074177 12484439
-2.0075254 -0.85988462 3.380563 12549199
-1.1845767 -0.51593077 2.028338 12681299
-1.164638 -0.51593077 2.028338 12747350
-1.1446993 -0.51593077 2.028338 12944730
-0.97805274 -0.44863543 1.763772 13141080
-0.96071482 -0.44863543 1.763772 13272407
-0.69992477 -0.33285856 1.3086051 13009752
-0.64542103 -0.31268531 1.2292956 12945242
-0.63333696 -0.31268531 1.2292956 13142364
-0.62125295 -0.31268531 1.2292956 13141336
-0.60916895 -0.31268531 1.2292956 13141849
-0.54732788 -0.28662822 1.1268544 13141850
-0.53625083 -0.28662822 1.1268544 13273434
-0.49753305 -0.27154252 1.0675462 13404507
-0.50020224 -0.27888149 1.0963988 13338969
0 0 0 13338712
0 0 0 13010516
-0.35328907 -0.21058398 0.82789302 12550737
-0.33824784 -0.20637231 0.81133515 11894094
-0.31756958 -0.19843492 0.78012997 8212533
-0.29842305 -0.19108547 0.75123626 2231823
-0.28574675 -0.18761118 0.73757738 4858653
-0.27352318 -0.18426098 0.72440636 3609871
-0.26640224 -0.18426098 0.72440636 2886411
-0.25928131 -0.18426098 0.72440636 3216661
-0.25216034 -0.18426098 0.72440636 3347990
-0.24074048 -0.18102835 0.71169752 4004892
-0.23374446 -0.18102835 0.71169752 3741720
-0.2307975 -0.18426098 0.72440636 3215378
-0.22367656 -0.18426098 0.72440636 1903374
-0.21655561 -0.18426098 0.72440636 1509130
-0.20943466 -0.18426098 0.72440636 1706511
-0.20231372 -0.18426098 0.72440636 2035218
-0.19519277 -0.18426098 0.72440636 2625556
-0.19149131 -0.18761118 0.73757738 2953489
-0.18424089 -0.18761118 0.73757738 2954259
-0.18026808 -0.19108547 0.75123626 2953489
-0.17614534 -0.19469085 0.76541048 4070169
-0.16862132 -0.19469085 0.76541048 2296588
-0.16419533 -0.19843492 0.78012997 1180937
-0.15959577 -0.20232579 0.79542661 1180680
-0.15481222 -0.20637231 0.81133515 1312266
-0.14983343 -0.21058398 0.82789302 1180681
-0.1416952 -0.21058398 0.82789302 6108715
-0.13355698 -0.21058398 0.82789302 11760461
-0.12541875 -0.21058398 0.82789302 11958863
-0.12227119 -0.21954501 0.86312246 12418386
-0.11626028 -0.22431771 0.88188601 12614996
-0.10759129 -0.22431771 0.88188601 12615253
-0.10582387 -0.23996781 0.94341296 13010262
0 0 0 12943700
0 0 0 13010520
0 0 0 13273434
0 0 0 13404246
0 0 0 13207383
0 0 0 13206613
0 0 0 13207382
0 0 0 13272917
-0.056557018 -0.6069774 2.3862798 13338714
-0.033099782 -0.6069774 2.3862798 13207126
-0.0096425433 -0.6069774 2.3862798 13075027
0.013814694 -0.6069774 2.3862798 12812887
0.037271932 -0.6069774 2.3862798 12483924
0.060729168 -0.6069774 2.3862798 12483924
0.084186405 -0.6069774 2.3862798 12418385
0.11437137 -0.64491343 2.5354223 12418898
0.13110088 -0.6069774 2.3862798 12418131
0.15455812 -0.6069774 2.3862798 12156244
0.18914132 -0.64491343 2.5354223 12090449
0.21406464 -0.64491343 2.5354223 12155213
0.23898795 -0.64491343 2.5354223 12287058
0.24838707 -0.6069774 2.3862798 12286545
0.23106767 -0.51593077 2.028338 12221265
0.23905364 -0.49136263 1.9317503 12155472
0.25804281 -0.49136263 1.9317503 12089423
0.26443964 -0.46902797 1.8439435 12417362
0.29602119 -0.49136263 1.9317503 12418389
0.3150104 -0.49136263 1.9317503 12418645
0.3339996 -0.49136263 1.9317503 12550230
0.32229412 -0.44863543 1.763772 12681557
0.37197798 -0.49136263 1.9317503 12746836
0.41051555 -0.51593077 2.028338 12681814
0.50641668 -0.6069774 2.3862798 12812632
0.52987391 -0.6069774 2.3862798 13141849
0.55333114 -0.6069774 2.3862798 13207128
0.57678843 -0.6069774 2.3862798 13207129
0.60024565 -0.6069774 2.3862798 13076313
0.62370288 -0.6069774 2.3862798 13535321
0.64716011 -0.6069774 2.3862798 13470301
0.67061734 -0.6069774 2.3862798 13404505
0.73745424 -0.64491343 2.5354223 13470555
0.76237756 -0.64491343 2.5354223 13470296
0.78730088 -0.64491343 2.5354223 13930077
0.76444632 -0.6069774 2.3862798 14126944
0.78790355 -0.6069774 2.3862798 13930334
0.81136078 -0.6069774 2.3862798 14258528
0.83481801 -0.6069774 2.3862798 14259042
0.85827523 -0.6069774 2.3862798 14062692
0.8327474 -0.57325643 2.2537088 14389345
0.85490143 -0.57325643 2.2537088 14126688
0.87705553 -0.57325643 2.2537088 13995612
0.89920956 -0.57325643 2.2537088 14389856
0.97556144 -0.6069774 2.3862798 14389856
1.0614574 -0.64491343 2.5354223 14192738
1.0863807 -0.64491343 2.5354223 14193250
1.0459331 -0.6069774 2.3862798 14193505
1.0693904 -0.6069774 2.3862798 14061663
1.1611506 -0.64491343 2.5354223 14127457
1.355513 -0.73704392 2.8976254 13930849
1.3839968 -0.73704392 2.8976254 14258272
1.4124806 -0.73704392 2.8976254 13996642
1.4409643 -0.73704392 2.8976254 13799519
1.2857672 -0.64491343 2.5354223 13799264
1.2335911 -0.6069774 2.3862798 14192224
1.1247275 -0.54308504 2.1350925 13799265
1.1457155 -0.54308504 2.1350925 13930079
1.1667036 -0.54308504 2.1350925 13863775
1.1876916 -0.54308504 2.1350925 13601889
1.2086797 -0.54308504 2.1350925 13601632
1.2296677 -0.54308504 2.1350925 13339488
1.3201367 -0.57325643 2.2537088 13207647
1.3422908 -0.57325643 2.2537088 13207132
1.3644449 -0.57325643 2.2537088 12943705
1.4681635 -0.6069774 2.3862798 13075292
1.4916207 -0.6069774 2.3862798 12879449
1.9812558 -0.79373968 3.1205199 12747864
2.0119307 -0.79373968 3.1205199 12485207
1.896705 -0.73704392 2.8976254 12418649
1.9251888 -0.73704392 2.8976254 12353625
1.9536726 -0.73704392 2.8976254 12419416
2.13463 -0.79373968 3.1205199 12353623
1.7593102 -0.64491343 2.5354223 12287060
1.7842335 -0.64491343 2.5354223 12090455
1.8091568 -0.64491343 2.5354223 11893844
1.4672642 -0.51593077 2.028338 12025688
1.4872029 -0.51593077 2.028338 11827799
1.5071415 -0.51593077 2.028338 11696469
1.6074528 -0.54308504 2.1350925 11959127
3.8675468 -1.2898269 5.0708447 11958615
5.2231913 -1.7197692 6.761126 11761238
3.5264359 -1.1465129 4.5074177 11433557
3.2136695 -1.0318615 4.0566759 11302484
2.7112887 -0.85988462 3.380563 11170899
1.6467121 -0.51593077 2.028338 11236691
1.6666507 -0.51593077 2.028338 11498834
1.6865894 -0.51593077 2.028338 11367506
1.8961422 -0.57325643 2.2537088 11235921
1.9182963 -0.57325643 2.2537088 11236689
1.9404503 -0.57325643 2.2537088 11235662
1.9626044 -0.57325643 2.2537088 11235922
2.1015089 -0.6069774 2.3862798 10776400
2.1249661 -0.6069774 2.3862798 10973267
2.1484234 -0.6069774 2.3862798 10842194
2.1718805 -0.6069774 2.3862798 11169876
2.1953378 -0.6069774 2.3862798 11038543
2.2187951 -0.6069774 2.3862798 10842191
1.9059145 -0.51593077 2.028338 10775887
1.9258533 -0.51593077 2.028338 10710864
1.9457918 -0.51593077 2.028338 10316619
1.9657305 -0.51593077 2.028338 10447436
1.9856691 -0.51593077 2.028338 10513229
2.0056078 -0.51593077 2.028338 10447951
2.132154 -0.54308504 2.1350925 10447952
2.4064529 -0.6069774 2.3862798 10578765
2.7538981 -0.6879077 2.7044504 10185550
3.2082498 -0.79373968 3.1205199 10185552
2.8070679 -0.6879077 2.7044504 10447182
2.8336527 -0.6879077 2.7044504 10185291
2.8602376 -0.6879077 2.7044504 10120013
3.3309493 -0.79373968 3.1205199 10251087
3.361624 -0.79373968 3.1205199 10185550
3.3922989 -0.79373968 3.1205199 10185550
3.4229739 -0.79373968 3.1205199 10578507
3.7414525 -0.85988462 3.380563 10448206
3.7746835 -0.85988462 3.380563 10512975
3.8079147 -0.85988462 3.380563 10579793
4.190341 -0.93805593 3.687887 10776400
4.6492524 -1.0318615 4.0566759 10776401
5.210144 -1.1465129 4.5074177 10776401
5.2544522 -1.1465129 4.5074177 10841938
5.2987604 -1.1465129 4.5074177 10907217
4.0073013 -0.85988462 3.380563 11170131
4.848639 -1.0318615 4.0566759 10907985
4.4441056 -0.93805593 3.687887 10842193
4.4803576 -0.93805593 3.687887 11038803
4.5166097 -0.93805593 3.687887 11103824
0 0 0 10907730
0 0 0 10710866
0 0 0 10711124
0 0 0 10514515
0 0 0 10645074
0 0 0 10710354
0 0 0 10775634
0 0 0 9132350
0 0 0 8935740
-3.7242663 -0.7630648 3.1205199 8738880
-4.3651533 -0.90180385 3.687887 9856330
-4.7617917 -0.99198431 4.0566759 11367247
-5.2465715 -1.1022048 4.5074177 11367246
-5.2022634 -1.1022048 4.5074177 11367246
-4.6421599 -0.99198431 4.0566759 11564625
-4.1838932 -0.90180385 3.687887 11433039
-3.8020041 -0.82665354 3.380563 11433039
-3.4788675 -0.7630648 3.1205199 11302222
-3.4481928 -0.7630648 3.1205199 11368016
-3.4175179 -0.7630648 3.1205199 11564109
-3.386843 -0.7630648 3.1205199 11433296
-3.1164417 -0.70856017 2.8976254 11170894
-3.0879579 -0.70856017 2.8976254 11236689
-3.0594742 -0.70856017 2.8976254 11499089
-3.0309904 -0.70856017 2.8976254 11367505
-3.0025065 -0.70856017 2.8976254 11301453
-2.7757545 -0.66132277 2.7044504 11301453
-2.5773466 -0.61999017 2.5354223 11301964
-2.9170551 -0.70856017 2.8976254 11629648
-3.1107693 -0.7630648 3.1205199 11235919
-2.5025768 -0.61999017 2.5354223 11498832
-2.4776535 -0.61999017 2.5354223 11236175
-2.1802046 -0.5511024 2.2537088 11432271
-2.1580505 -0.5511024 2.2537088 11105103
-2.1358964 -0.5511024 2.2537088 10974798
-2.23808 -0.58352011 2.3862798 11171152
-2.6891849 -0.70856017 2.8976254 11235917
0 0 0 11235660
0 0 0 11301712
0 0 0 11235918
-1.3353148 -0.36740157 1.5024725 11236171
-1.3205453 -0.36740157 1.5024725 11170126
-4.4069939 -1.2399803 5.0708447 11301712
-4.3571472 -1.2399803 5.0708447 11105102
-4.3073006 -1.2399803 5.0708447 11104846
0 0 0 11235917
0 0 0 11236687
0 0 0 11235917
-4.107914 -1.2399803 5.0708447 11301710
-4.0580673 -1.2399803 5.0708447 11301710
-3.5628631 -1.1022048 4.5074177 11367504
-3.5185549 -1.1022048 4.5074177 11301710
-3.9085276 -1.2399803 5.0708447 11433550
-3.858681 -1.2399803 5.0708447 11498062
-3.8088343 -1.2399803 5.0708447 11629902
-3.7589877 -1.2399803 5.0708447 11761231
-3.709141 -1.2399803 5.0708447 11498575
-1.4637178 -0.49599215 2.028338 11958095
-1.3750277 -0.47237343 1.9317503 11696464
-1.4238405 -0.49599215 2.028338 11761229
-1.3370494 -0.47237343 1.9317503 11762515
-1.3839632 -0.49599215 2.028338 12090193
-1.4358153 -0.52209699 2.1350925 11828047
-2.9868577 -1.1022048 4.5074177 11893840
0 0 0 12221009
0 0 0 12090452
-3.2106748 -1.2399803 5.0708447 12287057
-2.8096251 -1.1022048 4.5074177 12222037
-2.765317 -1.1022048 4.5074177 12616022
-2.721009 -1.1022048 4.5074177 12681557
-1.2045153 -0.49599215 2.028338 12681555
-1.1845767 -0.49599215 2.028338 12813141
-1.164638 -0.49599215 2.028338 12878936
-1.2049466 -0.52209699 2.1350925 13206872
-0.97805274 -0.43129748 1.763772 13141077
-0.92068499 -0.41332677 1.6902815 13207384
-0.69992477 -0.31999493 1.3086051 13272922
-0.66559047 -0.30999509 1.2677112 13404249
-0.6531288 -0.30999509 1.2677112 13536091
-0.64066714 -0.30999509 1.2677112 13207383
-0.62820548 -0.30999509 1.2677112 13536091
-0.59708488 -0.30060127 1.2292956 13731674
-0.52175754 -0.26810384 1.0963988 13667423
-0.49753305 -0.2610485 1.0675462 13601370
-0.50020224 -0.26810384 1.0963988 13797721
0 0 0 13798491
0 0 0 13470297
-0.39343554 -0.22545096 0.92197174 13207126
-0.33824784 -0.19839685 0.81133515 12616276
-0.32379642 -0.19450672 0.79542661 11696205
-0.29842305 -0.18370079 0.75123626 3084813
-0.28574675 -0.18036076 0.73757738 2561304
-0.27352318 -0.17714004 0.72440636 2101782
-0.26640224 -0.17714004 0.72440636 1707282
-0.25928131 -0.17714004 0.72440636 1772047
-0.25216034 -0.17714004 0.72440636 2100497
-0.24074048 -0.17403233 0.71169752 3283999
-0.23374446 -0.17403233 0.71169752 4070169
-0.2307975 -0.17714004 0.72440636 3281683
