# .PCD v0.7 - Point Cloud Data file format
VERSION 0.7
FIELDS x y z rgb
SIZE 4 4 4 4
TYPE F F F U
COUNT 1 1 1 1
WIDTH 1234
HEIGHT 1
VIEWPOINT 0 0 0 1 0 0 0
POINTS 1234
DATA ascii
1.7984191 -0.30465862 4.5074177 13076058
1.8427273 -0.30465862 4.5074177 13075802
1.2130941 -0.19585197 2.8976254 12615510
1.0863807 -0.17137048 2.5354223 12616023
0.98782581 -0.15232931 2.2537088 12222037
1.0099798 -0.15232931 2.2537088 12154960
1.0321339 -0.15232931 2.2537088 11497292
0.99879909 -0.14431198 2.1350925 11168581
1.076442 -0.15232931 2.2537088 9722425
1.0985961 -0.15232931 2.2537088 5188893
1.1207502 -0.15232931 2.2537088 984075
1.0827513 -0.14431198 2.1350925 1115661
1.1037394 -0.14431198 2.1350925 918539
1.0684911 -0.13709639 2.028338 722188
1.0884298 -0.13709639 2.028338 853261
1.1083684 -0.13709639 2.028338 721675
1.1283071 -0.13709639 2.028338 853259
1.1482457 -0.13709639 2.028338 853002
1.1681844 -0.13709639 2.028338 918282
1.188123 -0.13709639 2.028338 787468
1.2080617 -0.13709639 2.028338 918540
1.2280003 -0.13709639 2.028338 852746
1.247939 -0.13709639 2.028338 853003
1.334608 -0.14431198 2.1350925 853004
1.3555961 -0.14431198 2.1350925 852746
1.307755 -0.13709639 2.028338 852489
1.3276936 -0.13709639 2.028338 853003
1.3476323 -0.13709639 2.028338 918282
1.3675709 -0.13709639 2.028338 1115661
1.3875096 -0.13709639 2.028338 787466
1.4074482 -0.13709639 2.028338 787468
1.4273869 -0.13709639 2.028338 721675
1.4473255 -0.13709639 2.028338 721675
1.4672642 -0.13709639 2.028338 721673
1.4872029 -0.13709639 2.028338 852489
1.5071415 -0.13709639 2.028338 852489
1.4543619 -0.13056798 1.9317503 852746
1.5470188 -0.13709639 2.028338 787466
1.4923403 -0.13056798 1.9317503 918282
1.5113295 -0.13056798 1.9317503 983305
1.5303187 -0.13056798 1.9317503 1640452
1.4788848 -0.12463307 1.8439435 9593917
1.4970108 -0.12463307 1.8439435 10250568
1.515137 -0.12463307 1.8439435 10119242
1.533263 -0.12463307 1.8439435 10119242
1.551389 -0.12463307 1.8439435 9856585
1.5695151 -0.12463307 1.8439435 9725001
1.5876411 -0.12463307 1.8439435 10185038
1.6822323 -0.13056798 1.9317503 10184522
1.7012215 -0.13056798 1.9317503 10119757
1.6420193 -0.12463307 1.8439435 9988173
1.6601453 -0.12463307 1.8439435 9987661
1.6782713 -0.12463307 1.8439435 9856845
1.6963974 -0.12463307 1.8439435 9922382
1.7145234 -0.12463307 1.8439435 10185036
1.7326494 -0.12463307 1.8439435 9791049
1.8341458 -0.13056798 1.9317503 9922380
2.1619909 -0.15232931 2.2537088 9988171
2.312624 -0.16128986 2.3862798 9791049
2.3360813 -0.16128986 2.3862798 9659721
2.3595386 -0.16128986 2.3862798 9725512
2.3829956 -0.16128986 2.3862798 9791307
2.4064529 -0.16128986 2.3862798 9725512
2.4299102 -0.16128986 2.3862798 9659721
1.8957839 -0.12463307 1.8439435 9594444
2.6316261 -0.17137048 2.5354223 9659464
2.6565495 -0.17137048 2.5354223 9725514
2.6814728 -0.17137048 2.5354223 9725259
2.5471964 -0.16128986 2.3862798 9724746
2.5706537 -0.16128986 2.3862798 9593415
2.7562428 -0.17137048 2.5354223 9527880
2.7811661 -0.17137048 2.5354223 9659465
2.6410253 -0.16128986 2.3862798 9592131
2.5164559 -0.15232931 2.2537088 9593671
2.4049988 -0.14431198 2.1350925 9856330
2.3046875 -0.13709639 2.028338 9856330
2.2139297 -0.13056798 1.9317503 9921867
2.2329187 -0.13056798 1.9317503 10250318
2.1495485 -0.12463307 1.8439435 9725514
2.1676745 -0.12463307 1.8439435 9856587
2.1858006 -0.12463307 1.8439435 9132866
2.2039268 -0.12463307 1.8439435 8212791
2.2220528 -0.12463307 1.8439435 9658436
2.346854 -0.13056798 1.9317503 9856328
0 0 0 10053450
0 0 0 10381387
0 0 0 10118219
0 0 0 10053198
0 0 0 9856587
0 0 0 9856589
0 0 0 9659211
0 0 0 9658956
0 0 0 3744275
0 0 0 4598301
-3.7242663 -0.18024266 3.1205199 3085838
-3.6935916 -0.18024266 3.1205199 2888720
-3.9681594 -0.19526288 3.380563 3349017
-3.9349284 -0.19526288 3.380563 3414808
-3.9016974 -0.19526288 3.380563 3545878
-4.2201452 -0.21301405 3.687887 3415062
-4.1838932 -0.21301405 3.687887 3545878
-4.1476407 -0.21301405 3.687887 3939353
-4.1113887 -0.21301405 3.687887 3545365
-4.4826508 -0.23431547 4.0566759 3546137
-4.4427733 -0.23431547 4.0566759 3611671
-4.4028959 -0.23431547 4.0566759 3611415
-4.8477983 -0.26035053 4.5074177 3808793
-4.8034906 -0.26035053 4.5074177 3808792
-4.7591825 -0.26035053 4.5074177 3940121
-4.7148743 -0.26035053 4.5074177 4071448
-4.6705661 -0.26035053 4.5074177 4071192
-4.1636324 -0.23431547 4.0566759 3610644
-3.4364622 -0.19526288 3.380563 3612194
-3.1414442 -0.18024266 3.1205199 7624268
-3.1107693 -0.18024266 3.1205199 8738876
-3.0800946 -0.18024266 3.1205199 9066812
-2.6428301 -0.15621029 2.7044504 9263421
-2.4527302 -0.14644715 2.5354223 9198913
-2.4278069 -0.14644715 2.5354223 9330756
-2.4028835 -0.14644715 2.5354223 9527876
-2.23808 -0.13783261 2.3862798 9790276
-2.214623 -0.13783261 2.3862798 9593667
-2.1911657 -0.13783261 2.3862798 9791559
-2.1677084 -0.13783261 2.3862798 9922632
-2.1442511 -0.13783261 2.3862798 10118469
-2.1207941 -0.13783261 2.3862798 10184262
-2.2284203 -0.14644715 2.5354223 10119496
-2.0738795 -0.13783261 2.3862798 10053447
-2.0504222 -0.13783261 2.3862798 10119750
-2.0269649 -0.13783261 2.3862798 10447688
-2.128727 -0.14644715 2.5354223 10382152
-2.1038036 -0.14644715 2.5354223 10709323
-2.0788803 -0.14644715 2.5354223 10775885
-2.053957 -0.14644715 2.5354223 10578760
-2.0290337 -0.14644715 2.5354223 10776397
-2.2904119 -0.16736817 2.8976254 10775881
-2.1111329 -0.15621029 2.7044504 11104843
-2.2334442 -0.16736817 2.8976254 10907722
-2.2049606 -0.16736817 2.8976254 11170124
-2.1764767 -0.16736817 2.8976254 11170123
-2.0047934 -0.15621029 2.7044504 11433293
-1.6485072 -0.13017526 2.2537088 11367246
-0.97581184 -0.078105144 1.3522252 11433039
-0.96251935 -0.078105144 1.3522252 11564366
-0.91860676 -0.075585634 1.3086051 11433293
-0.96820813 -0.080798432 1.3988537 11761231
-0.95445734 -0.080798432 1.3988537 11564877
-0.94070655 -0.080798432 1.3988537 11630672
-0.92695576 -0.080798432 1.3988537 11630670
-0.91320497 -0.080798432 1.3988537 11828047
-0.89945418 -0.080798432 1.3988537 12089936
-0.88570338 -0.080798432 1.3988537 12287312
-0.63216567 -0.058578867 1.014169 12221519
-0.565633 -0.053253513 0.92197174 12287058
-0.55656999 -0.053253513 0.92197174 12287058
-0.56023967 -0.054491967 0.94341296 12418642
-0.5778423 -0.057150111 0.98943311 12352850
-0.51761687 -0.0520701 0.90148348 12550228
-0.47695804 -0.04881572 0.84514076 12878166
-0.46865028 -0.04881572 0.84514076 12484178
-0.4603425 -0.04881572 0.84514076 12549971
-0.44280955 -0.04781948 0.82789302 12681813
-0.4176254 -0.045944206 0.79542661 12746836
-0.39434192 -0.04421046 0.76541048 13141079
-0.39425671 -0.045060664 0.78012997 12877907
-0.38658801 -0.045060664 0.78012997 12616275
-0.3789193 -0.045060664 0.78012997 12813908
-0.36424583 -0.04421046 0.76541048 9463110
-0.35011587 -0.043391753 0.75123626 3676962
-0.34273118 -0.043391753 0.75123626 2755858
-0.33534649 -0.043391753 0.75123626 2624785
-0.3279618 -0.043391753 0.75123626 2625299
-0.32057711 -0.043391753 0.75123626 2232083
-0.31319243 -0.043391753 0.75123626 1837838
-0.30580774 -0.043391753 0.75123626 1640718
-0.29299718 -0.042602807 0.73757738 1312266
-0.28574675 -0.042602807 0.73757738 1378060
-0.27849633 -0.042602807 0.73757738 1378060
-0.27626902 -0.043391753 0.75123626 1574667
-0.27395758 -0.04421046 0.76541048 1574666
-0.26643357 -0.04421046 0.76541048 1771275
-0.2638886 -0.045060664 0.78012997 2297104
-0.26124379 -0.045944206 0.79542661 3084562
-0.2534247 -0.045944206 0.79542661 2954259
-0.25563037 -0.04781948 0.82789302 3479320
-0.24749213 -0.04781948 0.82789302 3741975
-0.23935391 -0.04781948 0.82789302 3872790
-0.23121569 -0.04781948 0.82789302 4004118
-0.22772489 -0.04881572 0.84514076 4005144
-0.22408557 -0.049854349 0.86312246 4135705
-0.22028802 -0.050938141 0.88188601 4464409
-0.21161905 -0.050938141 0.88188601 4529945
-0.20746008 -0.0520701 0.90148348 4529945
0 0 0 4595738
0 0 0 4398618
0 0 0 4792603
0 0 0 5777951
0 0 0 6106656
0 0 0 1573637
0 0 0 1246988
0 0 0 1837069
0 0 0 4004618
0 0 0 8736560
-2.4745998 -1.1715772 20.283379 12222038
-1.5168089 -0.78105152 13.522252 13273180
-0.51895672 -0.2928943 5.0708447 13799263
-0.34117097 -0.21301405 3.687887 13995102
-0.18633932 -0.13017526 2.2537088 13864284
-0.16418526 -0.13017526 2.2537088 13733725
-0.18261153 -0.16736817 2.8976254 13601884
-0.23975429 -0.26035053 4.5074177 13470301
0 0 0 13075542
0 0 0 8014117
0 0 0 5647134
-0.080385178 -0.33473635 5.7952509 5778977
-0.020490404 -0.2928943 5.0708447 6040604
0.033549972 -0.33473635 5.7952509 5713184
0.079202853 -0.2928943 5.0708447 5910817
0.14748512 -0.33473635 5.7952509 5581600
0.17889611 -0.2928943 5.0708447 4858908
0.26142028 -0.33473635 5.7952509 5647391
0.27858937 -0.2928943 5.0708447 5187358
0.37535542 -0.33473635 5.7952509 5253405
0.37828264 -0.2928943 5.0708447 5712414
0.4892906 -0.33473635 5.7952509 1902598
0.54625815 -0.33473635 5.7952509 1378316
0.60322571 -0.33473635 5.7952509 1378059
0.66019332 -0.33473635 5.7952509 1443852
0.71716088 -0.33473635 5.7952509 1246731
0.7741285 -0.33473635 5.7952509 7688000
0.83109605 -0.33473635 5.7952509 8476222
1.0360743 -0.39052576 6.761126 9132864
1.1025364 -0.39052576 6.761126 9790789
1.4027984 -0.46863094 8.1133518 10184777
1.482553 -0.46863094 8.1133518 10579276
1.5623076 -0.46863094 8.1133518 11366991
1.6420622 -0.46863094 8.1133518 12286803
1.7218168 -0.46863094 8.1133518 12418387
1.8015715 -0.46863094 8.1133518 12550487
1.8813261 -0.46863094 8.1133518 12812888
1.9610807 -0.46863094 8.1133518 12747864
2.0408354 -0.46863094 8.1133518 13141336
1.7671582 -0.39052576 6.761126 13010523
1.8336203 -0.39052576 6.761126 13404508
1.6286421 -0.33473635 5.7952509 13272667
0.98327231 -0.19526288 3.380563 13272922
1.0165035 -0.19526288 3.380563 13339226
0.96898574 -0.18024266 3.1205199 13338715
0.99966061 -0.18024266 3.1205199 13273176
1.0303354 -0.18024266 3.1205199 13338713
1.0610102 -0.18024266 3.1205199 13141338
1.1826588 -0.19526288 3.380563 13207131
1.2158899 -0.19526288 3.380563 13273948
1.2491211 -0.19526288 3.380563 13207388
1.2823521 -0.19526288 3.380563 13075545
1.2143846 -0.18024266 3.1205199 12945240
1.4714338 -0.21301405 3.687887 12878938
1.8427273 -0.26035053 4.5074177 12878682
1.6983318 -0.23431547 4.0566759 12022605
1.3370839 -0.18024266 3.1205199 1640459
1.2700616 -0.16736817 2.8976254 1575436
1.0099798 -0.13017526 2.2537088 1509902
1.0321339 -0.13017526 2.2537088 1575438
1.054288 -0.13017526 2.2537088 1575438
1.076442 -0.13017526 2.2537088 1509645
1.0985961 -0.13017526 2.2537088 1378316
1.0617633 -0.12332392 2.1350925 918536
1.0827513 -0.12332392 2.1350925 787466
1.1037394 -0.12332392 2.1350925 853002
1.1247275 -0.12332392 2.1350925 787466
1.0884298 -0.11715773 2.028338 787467
1.1083684 -0.11715773 2.028338 787468
1.1283071 -0.11715773 2.028338 918282
1.1482457 -0.11715773 2.028338 787465
1.1681844 -0.11715773 2.028338 787466
1.188123 -0.11715773 2.028338 787466
1.2080617 -0.11715773 2.028338 1115661
1.2280003 -0.11715773 2.028338 787468
1.247939 -0.11715773 2.028338 918796
1.334608 -0.12332392 2.1350925 721675
1.3555961 -0.12332392 2.1350925 853004
1.307755 -0.11715773 2.028338 852746
1.3276936 -0.11715773 2.028338 853003
1.3476323 -0.11715773 2.028338 1049355
1.3675709 -0.11715773 2.028338 918284
1.3875096 -0.11715773 2.028338 787211
1.4074482 -0.11715773 2.028338 787210
1.4273869 -0.11715773 2.028338 721673
1.4473255 -0.11715773 2.028338 721673
1.4672642 -0.11715773 2.028338 721674
1.4872029 -0.11715773 2.028338 787468
1.4353727 -0.11157878 1.9317503 721675
1.4543619 -0.11157878 1.9317503 655882
1.4063807 -0.10650703 1.8439435 983559
1.4245067 -0.10650703 1.8439435 918536
1.4426327 -0.10650703 1.8439435 787466
1.4607588 -0.10650703 1.8439435 1246211
1.4788848 -0.10650703 1.8439435 9723965
1.4970108 -0.10650703 1.8439435 10250057
1.515137 -0.10650703 1.8439435 10118987
1.533263 -0.10650703 1.8439435 10052168
1.4839373 -0.10187628 1.763772 10184264
1.5695151 -0.10650703 1.8439435 10250057
1.5876411 -0.10650703 1.8439435 9921353
1.6057671 -0.10650703 1.8439435 9790024
1.4885688 -0.09763144 1.6902815 9593932
1.5051843 -0.09763144 1.6902815 9593929
1.587965 -0.10187628 1.763772 9790794
1.6782713 -0.10650703 1.8439435 9725515
1.6963974 -0.10650703 1.8439435 9725513
1.7145234 -0.10650703 1.8439435 9856843
1.7326494 -0.10650703 1.8439435 9725001
1.7507756 -0.10650703 1.8439435 9791052
1.7689016 -0.10650703 1.8439435 9856844
2.312624 -0.13783261 2.3862798 9659721
2.3360813 -0.13783261 2.3862798 9659466
2.3595386 -0.13783261 2.3862798 9659210
2.3829956 -0.13783261 2.3862798 9790794
1.9480809 -0.11157878 1.9317503 9790794
1.9670701 -0.11157878 1.9317503 9855819
2.4533675 -0.13783261 2.3862798 9856587
2.6316261 -0.14644715 2.5354223 9921612
2.6565495 -0.14644715 2.5354223 9659210
2.6814728 -0.14644715 2.5354223 9921612
2.5471964 -0.13783261 2.3862798 9791307
2.5706537 -0.13783261 2.3862798 9528135
2.594111 -0.13783261 2.3862798 9462858
2.617568 -0.13783261 2.3862798 9199686
2.6410253 -0.13783261 2.3862798 9462344
2.6644826 -0.13783261 2.3862798 9527624
2.53861 -0.13017526 2.2537088 9592902
2.4259868 -0.12332392 2.1350925 9593671
2.3246262 -0.11715773 2.028338 9658951
2.1314225 -0.10650703 1.8439435 10118733
2.1495485 -0.10650703 1.8439435 9725002
2.1676745 -0.10650703 1.8439435 9659722
2.2898865 -0.11157878 1.9317503 9790538
2.3088756 -0.11157878 1.9317503 9396809
2.3278649 -0.11157878 1.9317503 9790281
2.346854 -0.11157878 1.9317503 9921868
0 0 0 9922125
0 0 0 9988174
0 0 0 10053707
0 0 0 10053709
0 0 0 9988430
0 0 0 9857359
0 0 0 9791311
0 0 0 9725262
0 0 0 2823692
0 0 0 3086358
-3.7242663 -0.14956781 3.1205199 2297871
-3.6935916 -0.14956781 3.1205199 2363409
-3.9681594 -0.16203178 3.380563 3151640
-3.9349284 -0.16203178 3.380563 3282967
-4.2563972 -0.17676196 3.687887 3479574
-4.2201452 -0.17676196 3.687887 3151636
-4.1838932 -0.17676196 3.687887 3283221
-4.1476407 -0.17676196 3.687887 3611158
-4.5225282 -0.19443816 4.0566759 3677210
-4.4826508 -0.19443816 4.0566759 3874589
-4.4427733 -0.19443816 4.0566759 4072223
-4.4028959 -0.19443816 4.0566759 4072479
-4.8477983 -0.2160424 4.5074177 3349269
-4.8034906 -0.2160424 4.5074177 3480341
-4.7591825 -0.2160424 4.5074177 3808022
-4.7148743 -0.2160424 4.5074177 3808535
-4.2035093 -0.19443816 4.0566759 3939864
-4.1636324 -0.19443816 4.0566759 3742229
-4.123755 -0.19443816 4.0566759 3085847
-3.4032311 -0.16203178 3.380563 6571587
-3.3699999 -0.16203178 3.380563 8147775
-3.3367689 -0.16203178 3.380563 8476221
-3.0494196 -0.14956781 3.1205199 9133120
-2.8031201 -0.1388844 2.8976254 9264192
-2.4278069 -0.12152384 2.5354223 9067584
-2.4028835 -0.12152384 2.5354223 9264706
-2.3779602 -0.12152384 2.5354223 9329728
-2.3530369 -0.12152384 2.5354223 9593411
-2.3281136 -0.12152384 2.5354223 9593667
-2.3031902 -0.12152384 2.5354223 9790276
-2.1442511 -0.11437538 2.3862798 10053190
-2.1207941 -0.11437538 2.3862798 10053189
-2.2284203 -0.12152384 2.5354223 10118981
-2.0738795 -0.11437538 2.3862798 10118728
-2.0504222 -0.11437538 2.3862798 10250313
-2.0269649 -0.11437538 2.3862798 10185030
-2.128727 -0.12152384 2.5354223 10316359
-2.1038036 -0.12152384 2.5354223 10381641
-2.0788803 -0.12152384 2.5354223 10512970
-2.053957 -0.12152384 2.5354223 10447434
-2.0290337 -0.12152384 2.5354223 10382411
-2.2904119 -0.1388844 2.8976254 11038542
-2.2619281 -0.1388844 2.8976254 10842187
-2.2334442 -0.1388844 2.8976254 10841933
-2.2049606 -0.1388844 2.8976254 11038540
-2.3438981 -0.14956781 3.1205199 10973517
-2.3132234 -0.14956781 3.1205199 11366988
-1.9782085 -0.12962542 2.7044504 11170378
-1.8296472 -0.12152384 2.5354223 11169868
-1.6041991 -0.1080212 2.2537088 11301710
-0.98195893 -0.067047633 1.3988537 11301453
-0.96820813 -0.067047633 1.3988537 11432782
-0.95445734 -0.067047633 1.3988537 11367505
-0.94070655 -0.067047633 1.3988537 11695695
-0.92695576 -0.067047633 1.3988537 11958609
-0.91320497 -0.067047633 1.3988537 11761487
-0.89945418 -0.067047633 1.3988537 11631183
-0.69419992 -0.052550849 1.0963988 12155729
-0.68342227 -0.052550849 1.0963988 12155218
-0.62219632 -0.04860954 1.014169 12155731
-0.56951344 -0.045218173 0.94341296 12155986
-0.54750693 -0.044190489 0.92197174 12549202
-0.53844392 -0.044190489 0.92197174 12287057
-0.50636435 -0.042269163 0.88188601 12287058
-0.49769536 -0.042269163 0.88188601 12352593
-0.46865028 -0.040507946 0.84514076 12550228
-0.48035741 -0.042269163 0.88188601 12352851
-0.47168842 -0.042269163 0.88188601 12484437
-0.43467131 -0.039681256 0.82789302 12550230
-0.40980631 -0.038125128 0.79542661 12878934
-0.41839486 -0.039681256 0.82789302 13074000
-0.41880363 -0.040507946 0.84514076 12878164
-0.41049588 -0.040507946 0.84514076 12944214
-0.41967455 -0.042269163 0.88188601 12944209
-0.37071091 -0.038125128 0.79542661 10315062
-0.35591316 -0.037391953 0.78012997 2427664
-0.34167376 -0.036686443 0.76541048 1706254
-0.33414975 -0.036686443 0.76541048 2823448
-0.32662573 -0.036686443 0.76541048 2691346
-0.31319243 -0.036007065 0.75123626 1969424
-0.30024758 -0.03535239 0.73757738 1443852
-0.29299718 -0.03535239 0.73757738 1312524
-0.28574675 -0.03535239 0.73757738 1180681
-0.28365368 -0.036007065 0.75123626 1246473
-0.27626902 -0.036007065 0.75123626 1312010
-0.27395758 -0.036686443 0.76541048 1312008
-0.2715573 -0.037391953 0.78012997 1771788
-0.2638886 -0.037391953 0.78012997 2493967
-0.26124379 -0.038125128 0.79542661 2822675
-0.25849321 -0.038887631 0.81133515 2953491
-0.25563037 -0.039681256 0.82789302 3282454
-0.24749213 -0.039681256 0.82789302 3610134
-0.23935391 -0.039681256 0.82789302 3610389
-0.23603266 -0.040507946 0.84514076 3807510
-0.22772489 -0.040507946 0.84514076 4070167
-0.22408557 -0.041369818 0.86312246 3938840
-0.22028802 -0.042269163 0.88188601 4135703
-0.21161905 -0.042269163 0.88188601 4201240
-0.20295006 -0.042269163 0.88188601 4464154
0 0 0 4398619
0 0 0 4530201
0 0 0 4989723
0 0 0 6041122
0 0 0 4726034
0 0 0 1115404
0 0 0 918795
0 0 0 1181194
0 0 0 1312524
0 0 0 1509645
-2.4745998 -0.97219074 20.283379 1837839
-1.5168089 -0.64812714 13.522252 2166025
-0.41516539 -0.19443816 4.0566759 3740932
-0.15011522 -0.077775262 1.6226703 6171924
-0.1341643 -0.077775262 1.6226703 13076829
-0.1284928 -0.084538326 1.763772 13601884
-0.12782808 -0.09721908 2.028338 13338713
0 0 0 13207126
0 0 0 12944474
0 0 0 7883048
0 0 0 5450013
0 0 0 5647648
-0.023417605 -0.27776879 5.7952509 6041376
0.029356226 -0.24304768 5.0708447 5451036
0.079202853 -0.24304768 5.0708447 6107685
0.14748512 -0.27776879 5.7952509 5647645
0.17889611 -0.24304768 5.0708447 4858906
0.26142028 -0.27776879 5.7952509 5844254
0.27858937 -0.24304768 5.0708447 5187612
0.37535542 -0.27776879 5.7952509 5319198
0.37828264 -0.24304768 5.0708447 5450525
0.4892906 -0.27776879 5.7952509 1968389
0.54625815 -0.27776879 5.7952509 1444109
0.60322571 -0.27776879 5.7952509 1378317
0.66019332 -0.27776879 5.7952509 1443852
0.71716088 -0.27776879 5.7952509 1444108
0.7741285 -0.27776879 5.7952509 7162687
0.83109605 -0.27776879 5.7952509 8212797
0.88806361 -0.27776879 5.7952509 8804414
1.1025364 -0.32406357 6.761126 9592899
1.1689986 -0.32406357 6.761126 9922117
1.482553 -0.38887632 8.1133518 10447434
1.5623076 -0.38887632 8.1133518 10709576
1.6420622 -0.38887632 8.1133518 11629902
1.7218168 -0.38887632 8.1133518 12090449
1.8015715 -0.38887632 8.1133518 12616023
1.8813261 -0.38887632 8.1133518 12550231
1.6342338 -0.32406357 6.761126 12878425
1.275522 -0.24304768 5.0708447 13141081
1.3253686 -0.24304768 5.0708447 12944215
1.3752153 -0.24304768 5.0708447 13010265
1.2667217 -0.2160424 4.5074177 13273177
1.0726607 -0.17676196 3.687887 13272666
1.0165035 -0.16203178 3.380563 13339481
1.145165 -0.17676196 3.687887 13010521
1.0829656 -0.16203178 3.380563 13272669
1.1161966 -0.16203178 3.380563 13206872
1.1494278 -0.16203178 3.380563 12944473
1.1826588 -0.16203178 3.380563 13142108
1.2158899 -0.16203178 3.380563 12944216
1.2491211 -0.16203178 3.380563 12813143
1.2823521 -0.16203178 3.380563 13075545
1.3155832 -0.16203178 3.380563 13009493
1.7984191 -0.2160424 4.5074177 12944216
0 0 0 12943705
1.6983318 -0.19443816 4.0566759 11562826
1.4485075 -0.16203178 3.380563 1575695
1.3677588 -0.14956781 3.1205199 1444109
1.3984337 -0.14956781 3.1205199 1641230
1.0321339 -0.1080212 2.2537088 1575438
0.99879909 -0.10233587 2.1350925 1509902
1.0197872 -0.10233587 2.1350925 1509902
1.0407752 -0.10233587 2.1350925 1181452
1.0617633 -0.10233587 2.1350925 590600
1.0827513 -0.10233587 2.1350925 918536
1.1037394 -0.10233587 2.1350925 918282
1.1247275 -0.10233587 2.1350925 721673
1.0884298 -0.09721908 2.028338 918282
1.1083684 -0.09721908 2.028338 852746
1.1283071 -0.09721908 2.028338 721675
1.1482457 -0.09721908 2.028338 787468
1.1681844 -0.09721908 2.028338 787466
1.188123 -0.09721908 2.028338 1049098
1.2080617 -0.09721908 2.028338 852489
1.2280003 -0.09721908 2.028338 656393
1.247939 -0.09721908 2.028338 787467
1.334608 -0.10233587 2.1350925 787468
1.3555961 -0.10233587 2.1350925 918283
1.3765841 -0.10233587 2.1350925 918284
1.3276936 -0.09721908 2.028338 918282
1.2834592 -0.092589594 1.9317503 918284
1.3024484 -0.092589594 1.9317503 852748
1.3875096 -0.09721908 2.028338 787209
1.4074482 -0.09721908 2.028338 656138
1.4273869 -0.09721908 2.028338 786953
1.4473255 -0.09721908 2.028338 721673
1.3973943 -0.092589594 1.9317503 721675
1.4163835 -0.092589594 1.9317503 721931
1.4353727 -0.092589594 1.9317503 786955
1.3882545 -0.088380978 1.8439435 786953
1.4063807 -0.088380978 1.8439435 720903
1.4245067 -0.088380978 1.8439435 852489
1.4426327 -0.088380978 1.8439435 852746
1.4607588 -0.088380978 1.8439435 1115649
1.4788848 -0.088380978 1.8439435 9067836
1.4970108 -0.088380978 1.8439435 10183497
1.4492614 -0.084538326 1.763772 9725001
1.4665993 -0.084538326 1.763772 9987403
1.4839373 -0.084538326 1.763772 9986633
1.5012753 -0.084538326 1.763772 10118219
1.5876411 -0.088380978 1.8439435 9921866
1.6057671 -0.088380978 1.8439435 9856072
1.4885688 -0.081015892 1.6902815 9855817
1.5051843 -0.081015892 1.6902815 9855817
1.5217998 -0.081015892 1.6902815 9790792
1.605303 -0.084538326 1.763772 9856585
1.622641 -0.084538326 1.763772 10053194
1.6399789 -0.084538326 1.763772 9856073
1.6573169 -0.084538326 1.763772 9724746
1.6746548 -0.084538326 1.763772 9593160
1.7689016 -0.088380978 1.8439435 9855047
1.7870276 -0.088380978 1.8439435 9922382
2.3360813 -0.11437538 2.3862798 9593930
2.3595386 -0.11437538 2.3862798 9725003
2.3829956 -0.11437538 2.3862798 9855817
1.8595318 -0.088380978 1.8439435 9527879
1.8776579 -0.088380978 1.8439435 9528138
1.9860593 -0.092589594 1.9317503 9659723
1.9139099 -0.088380978 1.8439435 9725001
2.5002818 -0.11437538 2.3862798 9725259
2.5237391 -0.11437538 2.3862798 9659979
2.5471964 -0.11437538 2.3862798 9725003
2.5706537 -0.11437538 2.3862798 9724489
2.594111 -0.11437538 2.3862798 9658697
2.617568 -0.11437538 2.3862798 9659210
2.6410253 -0.11437538 2.3862798 9658696
2.6644826 -0.11437538 2.3862798 9658440
2.6879399 -0.11437538 2.3862798 9593417
2.4259868 -0.10233587 2.1350925 9659724
2.3246262 -0.09721908 2.028338 9856587
2.1314225 -0.088380978 1.8439435 10053194
2.1495485 -0.088380978 1.8439435 10053195
2.2708972 -0.092589594 1.9317503 9922128
2.2898865 -0.092589594 1.9317503 9856335
2.3088756 -0.092589594 1.9317503 9790542
2.3278649 -0.092589594 1.9317503 9725516
2.346854 -0.092589594 1.9317503 9921869
0 0 0 10053454
0 0 0 10053709
0 0 0 10184782
0 0 0 9791307
0 0 0 9660237
0 0 0 9790796
0 0 0 9659466
0 0 0 9725259
0 0 0 2298378
0 0 0 2166802
-3.7242663 -0.11889296 3.1205199 1706767
-4.0013905 -0.12880071 3.380563 2298389
-3.9681594 -0.12880071 3.380563 3151897
-3.9349284 -0.12880071 3.380563 3283222
-4.2563972 -0.14050986 3.687887 3349269
-4.2201452 -0.14050986 3.687887 3283222
-4.1838932 -0.14050986 3.687887 3282706
-4.5624051 -0.15456085 4.0566759 3413779
-4.5225282 -0.15456085 4.0566759 3348499
-4.9807229 -0.17173427 4.5074177 3217172
-4.9364147 -0.17173427 4.5074177 3282708
-4.4028959 -0.15456085 4.0566759 3480088
-4.3630185 -0.15456085 4.0566759 3348245
-4.3231416 -0.15456085 4.0566759 3414038
-4.7591825 -0.17173427 4.5074177 3283221
-4.2433867 -0.15456085 4.0566759 3480598
-4.2035093 -0.15456085 4.0566759 3611414
-4.1636324 -0.15456085 4.0566759 3480085
-4.123755 -0.15456085 4.0566759 2757141
-4.0838776 -0.15456085 4.0566759 5125943
-4.0440001 -0.15456085 4.0566759 6899257
-4.4490256 -0.17173427 4.5074177 7885373
-4.4047174 -0.17173427 4.5074177 8607038
-4.3604093 -0.17173427 4.5074177 8869436
-2.7746363 -0.1104006 2.8976254 8738619
-2.5630755 -0.10304056 2.7044504 8870720
-2.3779602 -0.096600525 2.5354223 8936000
-2.5099058 -0.10304056 2.7044504 8935739
-2.483321 -0.10304056 2.7044504 9133375
-2.4567361 -0.10304056 2.7044504 9199422
-2.4301512 -0.10304056 2.7044504 9921344
-2.2533436 -0.096600525 2.5354223 9986885
-2.2284203 -0.096600525 2.5354223 9790276
-2.2034969 -0.096600525 2.5354223 9790275
-2.1785736 -0.096600525 2.5354223 9856325
-2.1536503 -0.096600525 2.5354223 9790276
-2.270642 -0.10304056 2.7044504 9986885
-2.1038036 -0.096600525 2.5354223 10185032
-2.0788803 -0.096600525 2.5354223 10184775
-2.053957 -0.096600525 2.5354223 10381642
-2.0290337 -0.096600525 2.5354223 10250825
-2.0041103 -0.096600525 2.5354223 10644300
-2.2619281 -0.1104006 2.8976254 10644812
-2.2334442 -0.1104006 2.8976254 10776140
-2.374573 -0.11889296 3.1205199 10776651
-2.3438981 -0.11889296 3.1205199 10579272
-2.3132234 -0.11889296 3.1205199 10972745
-2.1195092 -0.1104006 2.8976254 11366476
-1.8296472 -0.096600525 2.5354223 11235919
-1.8047239 -0.096600525 2.5354223 11367503
-1.6751064 -0.090918146 2.3862798 11104331
-1.559891 -0.085867137 2.2537088 11301710
-1.3839632 -0.077280425 2.028338 11564367
-1.3640246 -0.077280425 2.028338 11629645
-1.3440859 -0.077280425 2.028338 11629901
-1.3241472 -0.077280425 2.028338 11695693
-0.89945418 -0.053296842 1.3988537 11695950
-0.71348333 -0.042933568 1.1268544 11827536
-0.68342227 -0.0417732 1.0963988 11762258
-0.6381501 -0.039630987 1.0401733 11696208
-0.59729463 -0.037697766 0.98943311 12024401
-0.54750693 -0.035127465 0.92197174 12351568
-0.52647847 -0.034346852 0.90148348 12286801
-0.51761687 -0.034346852 0.90148348 12221263
-0.50875527 -0.034346852 0.90148348 12352338
-0.49989364 -0.034346852 0.90148348 12352338
-0.491032 -0.034346852 0.90148348 12221265
-0.48217037 -0.034346852 0.90148348 12746578
-0.47330877 -0.034346852 0.90148348 13075288
-0.44468343 -0.032885283 0.86312246 12878166
-0.43619889 -0.032885283 0.86312246 12681303
-0.44672388 -0.034346852 0.90148348 12549969
-0.43786228 -0.034346852 0.90148348 12681557
-0.43875065 -0.035127465 0.92197174 12878166
-0.41100556 -0.033600181 0.88188601 12615764
-0.36289182 -0.030306047 0.79542661 12616021
-0.34824443 -0.02972324 0.78012997 7357485
-0.34057572 -0.02972324 0.78012997 2363669
-0.32662573 -0.029162422 0.76541048 1772047
-0.31910172 -0.029162422 0.76541048 1509645
-0.30580774 -0.02862238 0.75123626 1180937
-0.29299718 -0.028101971 0.73757738 1050122
-0.28574675 -0.028101971 0.73757738 983559
-0.28365368 -0.02862238 0.75123626 1246474
-0.28689474 -0.02972324 0.78012997 1114888
-0.27922603 -0.02972324 0.78012997 1574667
-0.2715573 -0.02972324 0.78012997 2297104
-0.26906288 -0.030306047 0.79542661 2756882
-0.26646867 -0.030912168 0.81133515 2691346
-0.25849321 -0.030912168 0.81133515 2953491
-0.25051776 -0.030912168 0.81133515 2954259
-0.2425423 -0.030912168 0.81133515 3216663
-0.23935391 -0.031543031 0.82789302 3413012
-0.23121569 -0.031543031 0.82789302 3545110
-0.22772489 -0.032200176 0.84514076 3807510
-0.21941712 -0.032200176 0.84514076 3807767
-0.21110936 -0.032200176 0.84514076 3807767
-0.20280159 -0.032200176 0.84514076 4070167
-0.19449382 -0.032200176 0.84514076 4201755
-0.18618605 -0.032200176 0.84514076 4595997
-0.17424811 -0.031543031 0.82789302 4793118
-0.16610989 -0.031543031 0.82789302 4990496
-0.15797167 -0.031543031 0.82789302 3018250
0 0 0 1376775
0 0 0 984329
0 0 0 984074
0 0 0 918537
0 0 0 1115915
0 0 0 1378830
0 0 0 1575438
0 0 0 1641231
-0.25947836 -0.096600525 2.5354223 1574925
-0.14434157 -0.05944648 1.5602599 1509903
-0.12900414 -0.05944648 1.5602599 1706253
-0.11821339 -0.061824337 1.6226703 3807756
-0.10652339 -0.064400353 1.6902815 10315588
-0.10788943 -0.077280425 2.028338 12682328
0 0 0 12812887
0 0 0 8212014
0 0 0 5384990
0 0 0 5713182
0 0 0 5713182
0.029356226 -0.19320105 5.0708447 5450782
0.079202853 -0.19320105 5.0708447 5976099
0.12904948 -0.19320105 5.0708447 5647392
0.15901878 -0.17173427 4.5074177 5121306
0.2033269 -0.17173427 4.5074177 5909280
0.24763502 -0.17173427 4.5074177 5450012
0.32843602 -0.19320105 5.0708447 5516063
0.37828264 -0.19320105 5.0708447 5253403
0.42812929 -0.19320105 5.0708447 2230790
0.4779759 -0.19320105 5.0708447 1378316
0.52782255 -0.19320105 5.0708447 1444110
0.66019332 -0.2208012 5.7952509 1378060
0.71716088 -0.2208012 5.7952509 1312523
0.67736244 -0.19320105 5.0708447 7162431
0.72720903 -0.19320105 5.0708447 8081722
0.88806361 -0.2208012 5.7952509 8607295
0.94503123 -0.2208012 5.7952509 9264708
1.0019988 -0.2208012 5.7952509 9462340
1.0589664 -0.2208012 5.7952509 9921604
1.5623076 -0.3091217 8.1133518 10250567
1.6420622 -0.3091217 8.1133518 10907467
1.7218168 -0.3091217 8.1133518 11959123
1.5013094 -0.25760141 6.761126 12353881
1.5677716 -0.25760141 6.761126 12549716
1.2256753 -0.19320105 5.0708447 12681815
1.1337974 -0.17173427 4.5074177 12681816
1.1781055 -0.17173427 4.5074177 12878421
1.2224137 -0.17173427 4.5074177 13076061
1.1400496 -0.15456085 4.0566759 13141850
1.0726607 -0.14050986 3.687887 13272666
1.1089128 -0.14050986 3.687887 13207388
1.145165 -0.14050986 3.687887 13273180
1.181417 -0.14050986 3.687887 12944730
1.1161966 -0.12880071 3.380563 13206873
1.1494278 -0.12880071 3.380563 13142108
1.1826588 -0.12880071 3.380563 12682072
1.2158899 -0.12880071 3.380563 13206873
1.2491211 -0.12880071 3.380563 13207387
1.2823521 -0.12880071 3.380563 12747096
1.4351816 -0.14050986 3.687887 12879193
1.4714338 -0.14050986 3.687887 12616022
1.8427273 -0.17173427 4.5074177 12747351
1.3064091 -0.11889296 3.1205199 11562567
1.3370839 -0.11889296 3.1205199 1509903
1.3677588 -0.11889296 3.1205199 1575438
1.5149697 -0.12880071 3.380563 1575438
1.0321339 -0.085867137 2.2537088 1509902
0.99879909 -0.081347816 2.1350925 1509645
1.0197872 -0.081347816 2.1350925 1509902
1.0407752 -0.081347816 2.1350925 1050122
1.0617633 -0.081347816 2.1350925 721673
1.0827513 -0.081347816 2.1350925 656393
1.1037394 -0.081347816 2.1350925 787467
1.1247275 -0.081347816 2.1350925 787979
1.0884298 -0.077280425 2.028338 721675
1.1083684 -0.077280425 2.028338 787466
1.1283071 -0.077280425 2.028338 722188
1.1482457 -0.077280425 2.028338 852747
1.1681844 -0.077280425 2.028338 852489
1.188123 -0.077280425 2.028338 918282
1.2080617 -0.077280425 2.028338 984075
1.2280003 -0.077280425 2.028338 852491
1.247939 -0.077280425 2.028338 918284
1.2678777 -0.077280425 2.028338 918284
1.3555961 -0.081347816 2.1350925 853003
1.3765841 -0.081347816 2.1350925 787468
1.3975722 -0.081347816 2.1350925 721931
1.3476323 -0.077280425 2.028338 721673
1.3675709 -0.077280425 2.028338 721673
1.3875096 -0.077280425 2.028338 852491
1.4074482 -0.077280425 2.028338 655882
1.4273869 -0.077280425 2.028338 590345
1.5235004 -0.081347816 2.1350925 590602
1.3973943 -0.073600397 1.9317503 656137
1.4163835 -0.073600397 1.9317503 852234
1.4353727 -0.073600397 1.9317503 852489
1.3882545 -0.070254929 1.8439435 786955
1.4063807 -0.070254929 1.8439435 655625
1.4245067 -0.070254929 1.8439435 852747
1.4426327 -0.070254929 1.8439435 786697
1.4607588 -0.070254929 1.8439435 1180673
1.4145855 -0.067200363 1.763772 9067836
1.4970108 -0.070254929 1.8439435 9986888
1.4492614 -0.067200363 1.763772 9790537
1.4665993 -0.067200363 1.763772 9790024
1.4839373 -0.067200363 1.763772 9592645
1.4387221 -0.064400353 1.6902815 9790022
1.5186132 -0.067200363 1.763772 9856330
1.6057671 -0.070254929 1.8439435 9856072
1.5532892 -0.067200363 1.763772 9528135
1.5051843 -0.064400353 1.6902815 9593928
1.5217998 -0.064400353 1.6902815 9790024
1.605303 -0.067200363 1.763772 9593415
1.622641 -0.067200363 1.763772 9725001
1.6399789 -0.067200363 1.763772 9790536
1.6573169 -0.067200363 1.763772 9790280
1.6746548 -0.067200363 1.763772 9593675
1.6919928 -0.067200363 1.763772 9593676
1.7093308 -0.067200363 1.763772 9659723
1.8051536 -0.070254929 1.8439435 9593930
1.8232797 -0.070254929 1.8439435 9725003
1.8414057 -0.070254929 1.8439435 9725003
1.8595318 -0.070254929 1.8439435 9855819
1.8776579 -0.070254929 1.8439435 9855817
1.9860593 -0.073600397 1.9317503 9725514
1.9139099 -0.070254929 1.8439435 9855819
2.5002818 -0.090918146 2.3862798 10053198
2.1451783 -0.077280425 2.028338 9725001
2.2790704 -0.081347816 2.1350925 9725001
2.3000586 -0.081347816 2.1350925 9790024
2.4499936 -0.085867137 2.2537088 9724231
2.4721477 -0.085867137 2.2537088 9527624
2.6410253 -0.090918146 2.3862798 9526084
2.6644826 -0.090918146 2.3862798 9461061
2.6879399 -0.090918146 2.3862798 9461831
2.5607641 -0.085867137 2.2537088 9593673
2.1132965 -0.070254929 1.8439435 9856329
2.0387518 -0.067200363 1.763772 10053451
2.2519081 -0.073600397 1.9317503 9921609
2.2708972 -0.073600397 1.9317503 9855816
2.2898865 -0.073600397 1.9317503 9790284
2.3088756 -0.073600397 1.9317503 9593675
2.3278649 -0.073600397 1.9317503 9725514
2.346854 -0.073600397 1.9317503 9921868
0 0 0 9856333
0 0 0 9987406
0 0 0 10249806
0 0 0 9921612
0 0 0 10053197
0 0 0 9659210
0 0 0 9724748
0 0 0 9856078
0 0 0 2166792
0 0 0 1838351
-4.0346217 -0.095569611 3.380563 1641231
-4.0013905 -0.095569611 3.380563 2166802
-3.9681594 -0.095569611 3.380563 3283482
-3.9349284 -0.095569611 3.380563 3282965
-4.2563972 -0.10425776 3.687887 3414294
-4.2201452 -0.10425776 3.687887 3348758
-4.1838932 -0.10425776 3.687887 3414292
-4.5624051 -0.11468355 4.0566759 3611671
-4.5225282 -0.11468355 4.0566759 3414805
-4.4826508 -0.11468355 4.0566759 3480855
-4.4427733 -0.11468355 4.0566759 3414806
-4.4028959 -0.11468355 4.0566759 3611929
-4.3630185 -0.11468355 4.0566759 3480342
-4.3231416 -0.11468355 4.0566759 3414807
-4.2832642 -0.11468355 4.0566759 3611671
-4.2433867 -0.11468355 4.0566759 3676697
-4.2035093 -0.11468355 4.0566759 3807767
-4.1636324 -0.11468355 4.0566759 3479831
-4.123755 -0.11468355 4.0566759 2756887
-4.0838776 -0.11468355 4.0566759 4732212
-4.4933338 -0.12742616 4.5074177 5847341
-4.4490256 -0.12742616 4.5074177 7228219
-4.4047174 -0.12742616 4.5074177 8212793
-4.3604093 -0.12742616 4.5074177 8146487
-4.3161011 -0.12742616 4.5074177 7753011
-3.8446138 -0.11468355 4.0566759 3873547
-3.4588511 -0.10425776 3.687887 2428683
-3.4225991 -0.10425776 3.687887 2428940
-3.3863468 -0.10425776 3.687887 2429195
-3.3500948 -0.10425776 3.687887 2494987
-3.6452272 -0.11468355 4.0566759 3020307
-4.0059443 -0.12742616 4.5074177 6704967
-3.5654726 -0.11468355 4.0566759 9461059
-2.7119963 -0.088218108 3.1205199 9330497
-2.1785736 -0.071677215 2.5354223 9199170
-2.2972269 -0.07645569 2.7044504 9528133
-2.270642 -0.07645569 2.7044504 9396288
-2.2440572 -0.07645569 2.7044504 9659460
-2.0788803 -0.071677215 2.5354223 9791046
-2.053957 -0.071677215 2.5354223 9856327
-2.0290337 -0.071677215 2.5354223 9791046
-2.0041103 -0.071677215 2.5354223 10316105
-1.9791871 -0.071677215 2.5354223 10381897
-2.4052479 -0.088218108 3.1205199 10446918
-2.374573 -0.088218108 3.1205199 10381896
-2.3438981 -0.088218108 3.1205199 10711116
-2.3132234 -0.088218108 3.1205199 10841931
-2.1195092 -0.081916809 2.8976254 10972746
-1.9516237 -0.07645569 2.7044504 11104333
-1.9250387 -0.07645569 2.7044504 11104332
-1.7798005 -0.071677215 2.5354223 11104589
-1.6516492 -0.067460902 2.3862798 11170382
-1.6281919 -0.067460902 2.3862798 11235404
-1.4358153 -0.060359757 2.1350925 11301453
-1.4148272 -0.060359757 2.1350925 11563853
-1.3938391 -0.060359757 2.1350925 11498315
-1.3728511 -0.060359757 2.1350925 11695695
-0.88570338 -0.039546046 1.3988537 11761743
-0.68342227 -0.030995551 1.0963988 11696465
-0.65494347 -0.030179879 1.0675462 11958865
-0.55656999 -0.026064441 0.92197174 11827023
-0.54750693 -0.026064441 0.92197174 12286029
-0.53844392 -0.026064441 0.92197174 12089167
-0.51761687 -0.025485231 0.90148348 11957580
-0.53241831 -0.02667059 0.94341296 12155728
-0.52314448 -0.02667059 0.94341296 12287312
-0.50219184 -0.026064441 0.92197174 12286545
-0.48217037 -0.025485231 0.90148348 11629129
-0.47330877 -0.025485231 0.90148348 8802359
-0.46444714 -0.025485231 0.90148348 10971976
-0.47677556 -0.02667059 0.94341296 12418385
-0.44672388 -0.025485231 0.90148348 12222289
-0.43786228 -0.025485231 0.90148348 12483921
-0.42900065 -0.025485231 0.90148348 12747348
-0.42013901 -0.025485231 0.90148348 12614992
-0.38557255 -0.023892403 0.84514076 12549456
-0.36217421 -0.022936707 0.81133515 11761228
-0.34057572 -0.022054527 0.78012997 3346696
-0.32662573 -0.021638403 0.76541048 1378060
-0.31910172 -0.021638403 0.76541048 1115145
-0.31157768 -0.021638403 0.76541048 852489
-0.30405366 -0.021638403 0.76541048 1772821
-0.29652965 -0.021638403 0.76541048 5979188
-0.30033919 -0.022486968 0.79542661 12157012
-0.29837051 -0.022936707 0.81133515 9330500
-0.29039505 -0.022936707 0.81133515 2231053
-0.28241959 -0.022936707 0.81133515 2362897
-0.27444413 -0.022936707 0.81133515 2625299
-0.26646867 -0.022936707 0.81133515 2756628
-0.25849321 -0.022936707 0.81133515 2822421
-0.24560563 -0.022486968 0.79542661 3085077
-0.2425423 -0.022936707 0.81133515 3085076
-0.23456684 -0.022936707 0.81133515 3150611
-0.22659136 -0.022936707 0.81133515 3413268
-0.22307746 -0.023404805 0.82789302 3807254
-0.21493924 -0.023404805 0.82789302 3676438
-0.20680101 -0.023404805 0.82789302 3873560
-0.19866279 -0.023404805 0.82789302 3938840
-0.19052456 -0.023404805 0.82789302 4267291
-0.17873861 -0.022936707 0.81133515 4398619
-0.17076315 -0.022936707 0.81133515 4136217
0 0 0 1573638
0 0 0 852490
0 0 0 918027
0 0 0 983562
0 0 0 918536
0 0 0 1049868
0 0 0 1246989
0 0 0 1443853
0 0 0 1312525
-0.28440168 -0.071677215 2.5354223 1443852
-0.21850809 -0.060359757 2.1350925 1443854
-0.15011522 -0.045873415 1.6226703 1247501
-0.12900414 -0.044109054 1.5602599 1378059
-0.11821339 -0.045873415 1.6226703 1444109
-0.10652339 -0.047784805 1.6902815 1575181
-0.10275183 -0.054611206 1.9317503 2428426
0 0 0 7949617
0 0 0 8081714
0 0 0 5318684
0 0 0 5778721
0 0 0 5713440
0.029356226 -0.14335443 5.0708447 5450782
0.079202853 -0.14335443 5.0708447 6107426
0.12904948 -0.14335443 5.0708447 5516575
0.15901878 -0.12742616 4.5074177 4793372
0.2033269 -0.12742616 4.5074177 5646876
0.24763502 -0.12742616 4.5074177 5384477
0.29194313 -0.12742616 4.5074177 5450527
0.37828264 -0.14335443 5.0708447 5253918
0.42812929 -0.14335443 5.0708447 2427657
0.4779759 -0.14335443 5.0708447 1247244
0.52782255 -0.14335443 5.0708447 1312780
0.57766914 -0.14335443 5.0708447 1312524
0.62751579 -0.14335443 5.0708447 1246990
0.67736244 -0.14335443 5.0708447 6768702
0.72720903 -0.14335443 5.0708447 7753273
0.88806361 -0.16383362 5.7952509 8147515
0.94503123 -0.16383362 5.7952509 9067587
1.0019988 -0.16383362 5.7952509 9264450
1.0589664 -0.16383362 5.7952509 9724999
1.1159339 -0.16383362 5.7952509 9922118
1.1729015 -0.16383362 5.7952509 10644039
1.4348472 -0.19113922 6.761126 11563853
1.5013094 -0.19113922 6.761126 12221525
1.5677716 -0.19113922 6.761126 12681046
1.4007719 -0.16383362 5.7952509 12615766
1.1337974 -0.12742616 4.5074177 12812119
1.1781055 -0.12742616 4.5074177 12812887
1.2224137 -0.12742616 4.5074177 12878683
1.2667217 -0.12742616 4.5074177 13075804
1.0726607 -0.10425776 3.687887 13076059
1.0165035 -0.095569611 3.380563 13075803
1.145165 -0.10425776 3.687887 13010267
1.181417 -0.10425776 3.687887 12813145
1.2176691 -0.10425776 3.687887 13206103
1.2539212 -0.10425776 3.687887 13076057
1.2901733 -0.10425776 3.687887 13075544
1.3264254 -0.10425776 3.687887 12943957
1.3626775 -0.10425776 3.687887 13010011
1.3989296 -0.10425776 3.687887 12550741
1.4351816 -0.10425776 3.687887 12615510
1.4714338 -0.10425776 3.687887 12484694
1.1846102 -0.081916809 2.8976254 12353110
1.3064091 -0.088218108 3.1205199 11300937
1.3370839 -0.088218108 3.1205199 1575438
1.3677588 -0.088218108 3.1205199 1509645
1.5149697 -0.095569611 3.380563 1509645
1.3270292 -0.081916809 2.8976254 1509645
1.054288 -0.063713081 2.2537088 1444109
1.0197872 -0.060359757 2.1350925 1444109
1.0407752 -0.060359757 2.1350925 1181451
1.0617633 -0.060359757 2.1350925 786696
1.0827513 -0.060359757 2.1350925 655880
1.1037394 -0.060359757 2.1350925 852489
1.1247275 -0.060359757 2.1350925 852489
1.0884298 -0.057341773 2.028338 655882
1.1083684 -0.057341773 2.028338 721160
1.1283071 -0.057341773 2.028338 721675
1.1482457 -0.057341773 2.028338 721673
1.2296677 -0.060359757 2.1350925 852489
1.2506558 -0.060359757 2.1350925 655880
1.2080617 -0.057341773 2.028338 721418
1.2280003 -0.057341773 2.028338 786696
1.247939 -0.057341773 2.028338 721674
1.2678777 -0.057341773 2.028338 852489
1.3555961 -0.060359757 2.1350925 787209
1.3765841 -0.060359757 2.1350925 721675
1.3975722 -0.060359757 2.1350925 787209
1.4185603 -0.060359757 2.1350925 918282
1.5195233 -0.063713081 2.2537088 786953
1.5416772 -0.063713081 2.2537088 655882
1.5638313 -0.063713081 2.2537088 721675
1.5859854 -0.063713081 2.2537088 721160
1.7027358 -0.067460902 2.3862798 786696
1.7261931 -0.067460902 2.3862798 786696
1.4872029 -0.057341773 2.028338 786698
1.4353727 -0.054611206 1.9317503 852489
1.3882545 -0.052128881 1.8439435 786951
1.4733511 -0.054611206 1.9317503 721673
1.5669575 -0.057341773 2.028338 852489
1.5113295 -0.054611206 1.9317503 852746
1.5303187 -0.054611206 1.9317503 1114624
1.4788848 -0.052128881 1.8439435 8935996
1.4970108 -0.052128881 1.8439435 9855815
1.4492614 -0.049862407 1.763772 9462085
1.4665993 -0.049862407 1.763772 9331781
1.4839373 -0.049862407 1.763772 9527622
1.4387221 -0.047784805 1.6902815 9330757
1.4553376 -0.047784805 1.6902815 9396553
1.5359511 -0.049862407 1.763772 9528137
1.5532892 -0.049862407 1.763772 9462343
1.5706271 -0.049862407 1.763772 9331012
1.587965 -0.049862407 1.763772 9659207
1.605303 -0.049862407 1.763772 9593415
1.622641 -0.049862407 1.763772 9725000
1.6399789 -0.049862407 1.763772 9725000
1.6573169 -0.049862407 1.763772 9527879
1.6746548 -0.049862407 1.763772 9658952
1.6919928 -0.049862407 1.763772 9396294
1.7093308 -0.049862407 1.763772 9724488
1.7266687 -0.049862407 1.763772 9658694
1.8232797 -0.052128881 1.8439435 9790024
1.8414057 -0.052128881 1.8439435 9659465
1.8595318 -0.052128881 1.8439435 9790281
1.8776579 -0.052128881 1.8439435 9659207
1.8957839 -0.052128881 1.8439435 9790792
2.2161064 -0.060359757 2.1350925 9790538
2.5002818 -0.067460902 2.3862798 9791309
2.2580824 -0.060359757 2.1350925 9593928
2.2790704 -0.060359757 2.1350925 9855817
2.3000586 -0.060359757 2.1350925 9331018
2.594111 -0.067460902 2.3862798 9199945
2.617568 -0.067460902 2.3862798 9396036
2.6410253 -0.067460902 2.3862798 9133893
2.6644826 -0.067460902 2.3862798 9330245
2.6879399 -0.067460902 2.3862798 9528133
2.7113969 -0.067460902 2.3862798 9724487
2.3246262 -0.057341773 2.028338 9987916
2.1314225 -0.052128881 1.8439435 9856586
2.3645036 -0.057341773 2.028338 9922121
2.3844423 -0.057341773 2.028338 9987401
2.2898865 -0.054611206 1.9317503 9856848
2.3088756 -0.054611206 1.9317503 9790026
2.3278649 -0.054611206 1.9317503 9725001
2.346854 -0.054611206 1.9317503 9593930
0 0 0 9528394
0 0 0 9725772
0 0 0 9725514
0 0 0 9988173
0 0 0 9528651
0 0 0 9528135
0 0 0 9593929
0 0 0 9593931
0 0 0 2100999
0 0 0 1576207
-4.0346217 -0.062338527 3.380563 1444366
-4.0013905 -0.062338527 3.380563 2298389
-3.9681594 -0.062338527 3.380563 3479833
-3.9349284 -0.062338527 3.380563 3611669
-3.9016974 -0.062338527 3.380563 3611669
-3.8684664 -0.062338527 3.380563 3677462
-4.1838932 -0.068005666 3.687887 3611671
-4.5624051 -0.074806236 4.0566759 3743257
-4.5225282 -0.074806236 4.0566759 3611670
-4.4826508 -0.074806236 4.0566759 3677206
-4.4427733 -0.074806236 4.0566759 3874328
-4.4028959 -0.074806236 4.0566759 3874328
-4.3630185 -0.074806236 4.0566759 3874328
-4.3231416 -0.074806236 4.0566759 3808535
-4.2832642 -0.074806236 4.0566759 3939351
-4.2433867 -0.074806236 4.0566759 3940121
-4.2035093 -0.074806236 4.0566759 3808535
-4.1636324 -0.074806236 4.0566759 3807765
-4.5819497 -0.083118044 4.5074177 2493967
-4.5376415 -0.083118044 4.5074177 4469295
-4.4933338 -0.083118044 4.5074177 5190438
-4.4490256 -0.083118044 4.5074177 5716525
-4.4047174 -0.083118044 4.5074177 7096119
-4.3604093 -0.083118044 4.5074177 7161907
-4.3161011 -0.083118044 4.5074177 6503463
-4.2717929 -0.083118044 4.5074177 2427908
-3.8047364 -0.074806236 4.0566759 984070
-3.4225991 -0.068005666 3.687887 918536
-3.3863468 -0.068005666 3.687887 984329
-3.6851046 -0.074806236 4.0566759 984072
-4.0502524 -0.083118044 4.5074177 1443856
-4.0059443 -0.083118044 4.5074177 5324603
-3.9616363 -0.083118044 4.5074177 9066560
-3.9173281 -0.083118044 4.5074177 8738620
-2.9047649 -0.062338527 3.380563 8870206
-2.8715336 -0.062338527 3.380563 8804154
-2.8383026 -0.062338527 3.380563 9330499
-2.4043469 -0.053433023 2.8976254 9133633
-2.2174723 -0.049870823 2.7044504 9527105
-2.053957 -0.046753898 2.5354223 9395776
-2.0290337 -0.046753898 2.5354223 9396546
-2.0041103 -0.046753898 2.5354223 9593924
-2.4359226 -0.057543259 3.1205199 9791046
-2.8425655 -0.068005666 3.687887 9987651
-2.374573 -0.057543259 3.1205199 9921857
-2.3438981 -0.057543259 3.1205199 10250567
-2.3132234 -0.057543259 3.1205199 10512969
-2.2825484 -0.057543259 3.1205199 10776140
-1.9516237 -0.049870823 2.7044504 10709575
-1.9250387 -0.049870823 2.7044504 10972747
-1.8984538 -0.049870823 2.7044504 10906954
-2.005574 -0.053433023 2.8976254 10972747
-1.8452841 -0.049870823 2.7044504 11038283
-1.8186992 -0.049870823 2.7044504 11169867
-1.7921144 -0.049870823 2.7044504 11235915
-1.8916389 -0.053433023 2.8976254 11367500
-1.863155 -0.053433023 2.8976254 11367503
-1.0274159 -0.029922495 1.6226703 11498832
-0.70240629 -0.020779511 1.1268544 11498059
-0.67264462 -0.020217901 1.0963988 11433293
-0.55656999 -0.017001417 0.92197174 11564366
-0.54750693 -0.017001417 0.92197174 11958865
-0.55096591 -0.017396798 0.94341296 11892302
-0.54169208 -0.017396798 0.94341296 11761486
-0.61875641 -0.020217901 1.0963988 11958607
-0.62486708 -0.020779511 1.1268544 12285775
-0.59720111 -0.020217901 1.0963988 11564107
-0.5166111 -0.017811008 0.96587515 11038533
-0.50711656 -0.017811008 0.96587515 7949628
-0.49762192 -0.017811008 0.96587515 9987655
-0.5000329 -0.018245423 0.98943311 11826509
-0.49030674 -0.018245423 0.98943311 12024658
-0.44781369 -0.017001417 0.92197174 12155730
-0.42900065 -0.016623607 0.90148348 11300935
-0.42013901 -0.016623607 0.90148348 11367498
-0.39377624 -0.015916219 0.86312246 11170378
-0.36956552 -0.015266579 0.82789302 11235147
-0.35419875 -0.014961247 0.81133515 10842183
-0.33943459 -0.014667889 0.79542661 6504235
-0.33161551 -0.014667889 0.79542661 5583914
-0.32379642 -0.014667889 0.79542661 9725772
-0.32229689 -0.014961247 0.81133515 9989704
-0.32073617 -0.015266579 0.82789302 12155472
-0.31259793 -0.015266579 0.82789302 12155726
-0.30445972 -0.015266579 0.82789302 6700585
-0.29632148 -0.015266579 0.82789302 2757397
-0.28818327 -0.015266579 0.82789302 2362127
-0.28004503 -0.015266579 0.82789302 2099727
-0.27190682 -0.015266579 0.82789302 2427922
-0.25849321 -0.014961247 0.81133515 2625553
-0.24560563 -0.014667889 0.79542661 3085075
-0.2425423 -0.014961247 0.81133515 3150867
-0.23456684 -0.014961247 0.81133515 3282456
-0.22659136 -0.014961247 0.81133515 3348246
-0.2186159 -0.014961247 0.81133515 3610903
-0.21064045 -0.014961247 0.81133515 3742233
-0.20266499 -0.014961247 0.81133515 4070170
-0.19468953 -0.014961247 0.81133515 4201755
-0.18671407 -0.014961247 0.81133515 4136475
-0.17523393 -0.014667889 0.79542661 2099723
-0.16419533 -0.014385815 0.78012997 1049353
-0.15959577 -0.014667889 0.79542661 917769
0 0 0 1049098
0 0 0 721673
0 0 0 918537
0 0 0 918281
0 0 0 983816
0 0 0 1115403
0 0 0 1049865
0 0 0 1181196
-0.28440168 -0.046753898 2.5354223 1180938
-0.24421492 -0.044003665 2.3862798 1115915
-0.18764403 -0.037403118 2.028338 1180938
-0.1341643 -0.029922495 1.6226703 1181708
-0.11821339 -0.029922495 1.6226703 1049865
-0.10652339 -0.031169264 1.6902815 983560
