# .PCD v0.7 - Point Cloud Data file format
VERSION 0.7
FIELDS x y z rgb
SIZE 4 4 4 4
TYPE F F F U
COUNT 1 1 1 1
WIDTH 1272
HEIGHT 1
VIEWPOINT 0 0 0 1 0 0 0
POINTS 1272
DATA ascii
0.76476151 3.5190997 8.1133518 11154975
0.52782255 2.1994371 5.0708447 11286563
0.57766914 2.1994371 5.0708447 11352098
0.62751579 2.1994371 5.0708447 11483171
0.67736244 2.1994371 5.0708447 11418147
0.72720903 2.1994371 5.0708447 11221537
0.77705568 2.1994371 5.0708447 11548962
0.73502433 1.9550554 4.5074177 11418146
0.77933246 1.9550554 4.5074177 11418148
0.57021266 1.3534999 3.1205199 11221541
0.48822111 1.0997186 2.5354223 11548964
0.51314443 1.0997186 2.5354223 11483428
0.53806776 1.0997186 2.5354223 11352866
0.52987391 1.0350293 2.3862798 11352355
0.55333114 1.0350293 2.3862798 11483428
0.57678843 1.0350293 2.3862798 11483170
0.5668987 0.97752768 2.2537088 11549476
0.58905274 0.97752768 2.2537088 11352355
0.61120683 0.97752768 2.2537088 11286562
0.57002479 0.87977493 2.028338 11352353
0.56186992 0.83788085 1.9317503 11548962
0.36963758 0.53319687 1.2292956 11746085
0.38172162 0.53319687 1.2292956 11548707
0.37130249 0.50272852 1.1590502 11680292
0.382696 0.50272852 1.1590502 11483170
0.40568039 0.51751465 1.1931399 11549477
0.417409 0.51751465 1.1931399 11680292
0.42913762 0.51751465 1.1931399 11548962
0.44086626 0.51751465 1.1931399 11483941
0.46630985 0.53319687 1.2292956 11615268
0.50925803 0.56759667 1.3086051 11352868
0.67440712 0.73314571 1.6902815 11156004
0.69102269 0.73314571 1.6902815 11417630
0.54784894 0.56759667 1.3086051 11024162
0.54319036 0.54985929 1.2677112 11024932
0.57357627 0.56759667 1.3086051 10958367
0.56811363 0.54985929 1.2677112 10762017
0.64063483 0.60674131 1.3988537 10827553
0.63257271 0.58651656 1.3522252 10958882
0.62503082 0.56759667 1.3086051 10696480
0.63789451 0.56759667 1.3086051 10762531
0.695638 0.60674131 1.3988537 10958628
0.70938879 0.60674131 1.3988537 11155490
0.72313958 0.60674131 1.3988537 10958882
0.76320785 0.62841064 1.4488127 10761249
0.77744979 0.62841064 1.4488127 10827554
0.79169166 0.62841064 1.4488127 10564897
0.77814275 0.60674131 1.3988537 10434083
0.79189354 0.60674131 1.3988537 10303269
0 0 0 9975331
0 0 0 9974817
1.1505349 0.83788085 1.9317503 10630947
1.0233335 0.73314571 1.6902815 10695713
1.1885133 0.83788085 1.9317503 10695456
1.2678777 0.87977493 2.028338 10630435
1.0302529 0.70381993 1.6226703 10434083
1.046204 0.70381993 1.6226703 10367776
1.0621549 0.70381993 1.6226703 10368035
1.0781058 0.70381993 1.6226703 10433570
1.0940567 0.70381993 1.6226703 10499108
1.1100076 0.70381993 1.6226703 10433572
1.1259586 0.70381993 1.6226703 10367776
1.0979899 0.67674994 1.5602599 10236962
1.1133273 0.67674994 1.5602599 10564642
1.1286647 0.67674994 1.5602599 10433826
1.1016316 0.65168512 1.5024725 10039325
1.1164011 0.65168512 1.5024725 9974304
1.0907714 0.62841064 1.4488127 10040609
1.1050134 0.62841064 1.4488127 10302754
1.0806602 0.60674131 1.3988537 10302496
1.094411 0.60674131 1.3988537 10041122
1.1477391 0.62841064 1.4488127 9712418
1.1619809 0.62841064 1.4488127 9646882
1.2197866 0.65168512 1.5024725 10106662
1.2345561 0.65168512 1.5024725 9844775
1.2493254 0.65168512 1.5024725 9844774
1.2640948 0.65168512 1.5024725 9845028
1.3280512 0.67674994 1.5602599 9910308
1.2474322 0.62841064 1.4488127 9778211
1.4130751 0.70381993 1.6226703 9778725
1.429026 0.70381993 1.6226703 9581602
1.4449769 0.70381993 1.6226703 9844774
1.4609278 0.70381993 1.6226703 9844259
1.4200758 0.67674994 1.5602599 9516579
1.3328836 0.62841064 1.4488127 9647397
1.3006729 0.60674131 1.3988537 9844776
1.3144237 0.60674131 1.3988537 9582117
2.962851 1.3534999 3.1205199 9384996
2.993526 1.3534999 3.1205199 9384484
2.4571631 1.0997186 2.5354223 9319205
2.4820864 1.0997186 2.5354223 9319460
2.5070097 1.0997186 2.5354223 9515811
2.5319331 1.0997186 2.5354223 9253155
1.4610606 0.62841064 1.4488127 9253155
1.2908897 0.54985929 1.2677112 9450018
1.3033514 0.54985929 1.2677112 9449764
2.1053011 0.87977493 2.028338 9515296
2.1252398 0.87977493 2.028338 9516327
0 0 0 9778468
3.093024 1.2568213 2.8976254 9648166
3.1215079 1.2568213 2.8976254 9648422
3.1499918 1.2568213 2.8976254 9648165
1.3484441 0.53319687 1.2292956 9779499
1.0950593 0.42915848 0.98943311 10106919
1.1047854 0.42915848 0.98943311 9845033
1.0626739 0.40919763 0.94341296 9648165
1.0475852 0.39989766 0.92197174 9910569
1.0566483 0.39989766 0.92197174 9583146
1.1436901 0.42915848 0.98943311 9517094
0 0 0 9517863
0 0 0 9648938
0 0 0 9648426
0 0 0 9648426
0 0 0 9648168
0 0 0 9189669
0 0 0 8992295
0 0 0 7155749
0 0 0 5908769
0 0 0 5712673
0 0 0 5647394
0 0 0 5515553
0 0 0 5252385
0 0 0 4662048
0 0 0 4529693
0 0 0 5646637
-0.8645618 0.32132626 0.72440636 6500648
-0.80027813 0.2999045 0.67611259 7615014
-0.73258334 0.27683493 0.62410396 8269345
-0.77408433 0.29498804 0.66502881 8597281
-0.78033948 0.2999045 0.67611259 8597539
-0.77369326 0.2999045 0.67611259 8729123
-0.76704705 0.2999045 0.67611259 8728864
-0.77328902 0.30498764 0.68757218 8663071
-0.77974612 0.31024605 0.69942683 8859680
-0.78642994 0.31568897 0.71169752 8925475
-0.77943391 0.31568897 0.71169752 9056289
-0.77243787 0.31568897 0.71169752 8793632
-0.76544189 0.31568897 0.71169752 8859682
-0.74536914 0.31024605 0.69942683 8924703
-0.75144982 0.31568897 0.71169752 8859680
-0.74445379 0.31568897 0.71169752 8859680
-0.73745781 0.31568897 0.71169752 8925473
-0.74350572 0.32132626 0.72440636 8924957
-0.73638475 0.32132626 0.72440636 9121821
-0.72926378 0.32132626 0.72440636 9253150
-0.72214288 0.32132626 0.72440636 9318430
-0.71502191 0.32132626 0.72440636 9318432
-0.70790094 0.32132626 0.72440636 9515296
-0.72673488 0.33322725 0.75123626 9515296
-0.73292279 0.33951452 0.76541048 9647140
-0.73934877 0.34604368 0.78012997 10041126
-0.71787477 0.33951452 0.76541048 10041380
-0.71035069 0.33951452 0.76541048 10106149
-0.70282668 0.33951452 0.76541048 10105891
-0.68242675 0.33322725 0.75123626 10040866
-0.66276854 0.32716855 0.73757738 10171681
-0.63251752 0.31568897 0.71169752 10040095
-0.62552148 0.31568897 0.71169752 10105889
-0.652888 0.33322725 0.75123626 9909794
-0.6576826 0.33951452 0.76541048 9909794
-0.65015858 0.33951452 0.76541048 9909539
-0.64263457 0.33951452 0.76541048 9909278
-0.6473242 0.34604368 0.78012997 9975585
-0.63965553 0.34604368 0.78012997 10040610
-0.65726626 0.35988542 0.81133515 10105631
-0.66254163 0.36723003 0.82789302 10171679
-0.69708186 0.3911798 0.88188601 10434338
-0.70371097 0.39987269 0.90148348 10499361
-0.7271679 0.41847143 0.94341296 10630691
-0.75291336 0.43888465 0.98943311 10368033
0 0 0 10368289
0 0 0 10368290
0 0 0 10499620
0 0 0 10499361
0 0 0 10434080
-1.6751064 1.0584865 2.3862798 10499618
-1.6516492 1.0584865 2.3862798 10763046
-1.6281919 1.0584865 2.3862798 10631462
-1.6047347 1.0584865 2.3862798 10631460
-1.6801074 1.1246419 2.5354223 10565669
-1.655184 1.1246419 2.5354223 10566181
-1.6302607 1.1246419 2.5354223 10893859
-2.1404498 1.4995226 3.380563 10958882
-2.1072187 1.4995226 3.380563 10564897
-4.1479754 2.9990451 6.761126 10696480
-4.8978162 3.5988543 8.1133518 10499874
-4.8180614 3.5988543 8.1133518 10565154
-4.738307 3.5988543 8.1133518 10762274
-4.6585522 3.5988543 8.1133518 10827296
-4.5787973 3.5988543 8.1133518 10762276
-3.7492023 2.9990451 6.761126 10696740
-3.68274 2.9990451 6.761126 10499361
-3.0996668 2.57061 5.7952509 10565154
-2.366544 1.9993635 4.5074177 10631204
-2.0900123 1.7994272 4.0566759 10499363
-2.0501349 1.7994272 4.0566759 10958882
-0.9572655 0.85687 1.9317503 11090212
-0.89562738 0.8179214 1.8439435 10893345
-0.53625083 0.49984089 1.1268544 10630689
-0.42013901 0.39987269 0.90148348 10762016
-0.41127741 0.39987269 0.90148348 10958882
-0.40241578 0.39987269 0.90148348 10630433
-0.39355415 0.39987269 0.90148348 10958883
-0.38469252 0.39987269 0.90148348 11024163
-0.37583092 0.39987269 0.90148348 10958628
-0.34403369 0.37488064 0.84514076 10761247
-0.33572593 0.37488064 0.84514076 10761503
-0.32741815 0.37488064 0.84514076 10828066
-0.31911039 0.37488064 0.84514076 10826781
-0.30445972 0.36723003 0.82789302 10892833
-0.29632148 0.36723003 0.82789302 10892576
-0.28818327 0.36723003 0.82789302 10892576
-0.28004503 0.36723003 0.82789302 10827809
-0.27190682 0.36723003 0.82789302 10893345
-0.27499276 0.38285682 0.86312246 10761249
-0.26095599 0.37488064 0.84514076 10564640
-0.2526482 0.37488064 0.84514076 10695711
-0.24434045 0.37488064 0.84514076 10761505
-0.23121569 0.36723003 0.82789302 10630174
-0.22307746 0.36723003 0.82789302 10367518
-0.21493924 0.36723003 0.82789302 10367775
-0.20680101 0.36723003 0.82789302 10498847
-0.20280159 0.37488064 0.84514076 10630433
-0.19052456 0.36723003 0.82789302 10958882
-0.18238634 0.36723003 0.82789302 10695710
-0.17424811 0.36723003 0.82789302 10892576
-0.16957051 0.37488064 0.84514076 10695456
-0.15797167 0.36723003 0.82789302 10826529
-0.12880418 0.31568897 0.71169752 10760990
-0.12180816 0.31568897 0.71169752 10630687
-0.12347721 0.33951452 0.76541048 10892576
-0.12541875 0.36723003 0.82789302 10827296
-0.12770545 0.39987269 0.90148348 10893089
0 0 0 11154208
0 0 0 10958369
-0.10112059 0.39987269 0.90148348 10892576
-0.092258967 0.39987269 0.90148348 11089954
-0.087276295 0.41847143 0.94341296 11154978
-0.081807502 0.43888465 0.98943311 11220769
-0.072081327 0.43888465 0.98943311 11351842
-0.071015604 0.49984089 1.1268544 11286049
0 0 0 11286562
0 0 0 11286305
0 0 0 11221026
0 0 0 11351842
0 0 0 11286048
0 0 0 10957599
0.018065371 1.3841747 3.1205199 10761246
0.048740219 1.3841747 3.1205199 11024160
0.079415068 1.3841747 3.1205199 11286820
0.11926407 1.4995226 3.380563 11220512
0.15249516 1.4995226 3.380563 11287076
0.20261045 1.6358428 3.687887 11089698
0.43791467 2.9990451 6.761126 10958369
0.60525227 3.5988543 8.1133518 11221284
0.68500686 3.5988543 8.1133518 10958369
0.76476151 3.5988543 8.1133518 11024674
0.70376337 2.9990451 6.761126 11024416
0.57766914 2.2492838 5.0708447 11286562
0.62751579 2.2492838 5.0708447 11417378
0.67736244 2.2492838 5.0708447 11155746
0.72720903 2.2492838 5.0708447 11220769
0.69071621 1.9993635 4.5074177 11090466
0.73502433 1.9993635 4.5074177 10958878
0.70139921 1.7994272 4.0566759 11155748
0.57021266 1.3841747 3.1205199 11221539
0.60088754 1.3841747 3.1205199 11155236
0.51314443 1.1246419 2.5354223 11680293
0.50641668 1.0584865 2.3862798 11352097
0.52987391 1.0584865 2.3862798 11417635
0.55333114 1.0584865 2.3862798 11155748
0.57678843 1.0584865 2.3862798 11353123
0.60024565 1.0584865 2.3862798 11615527
0.62370288 1.0584865 2.3862798 11418146
0.61120683 0.99968177 2.2537088 11220769
0.60002607 0.9470669 2.1350925 11418146
0.58996344 0.89971358 2.028338 11483684
0.36963758 0.54528093 1.2292956 11483428
0.38172162 0.54528093 1.2292956 11548450
0.37130249 0.51412201 1.1590502 11745828
0.39395177 0.52924323 1.1931399 11614755
0.40568039 0.52924323 1.1931399 11548962
0.417409 0.52924323 1.1931399 11745828
0.44214177 0.54528093 1.2292956 11679776
0.45422581 0.54528093 1.2292956 11615012
0.48088205 0.56232095 1.2677112 11221539
0.54437923 0.6204921 1.3988537 11352355
0.67440712 0.74976128 1.6902815 11221541
0.57188082 0.6204921 1.3988537 11089953
0.5307287 0.56232095 1.2677112 11023904
0.52673 0.54528093 1.2292956 10892578
0.52296656 0.52924323 1.1931399 10630687
0.55089808 0.54528093 1.2292956 10695968
0.56298208 0.54528093 1.2292956 10696994
0.59303695 0.56232095 1.2677112 10303267
0.62503082 0.58046037 1.3086051 10434339
0.65915763 0.59980899 1.3522252 10565666
0.695638 0.6204921 1.3988537 10827041
0.70938879 0.6204921 1.3988537 10958627
0.69903493 0.59980899 1.3522252 10958882
0.73689038 0.6204921 1.3988537 11090212
0.77744979 0.64265251 1.4488127 11089954
0.76439196 0.6204921 1.3988537 10893605
0.77814275 0.6204921 1.3988537 10958370
0.79189354 0.6204921 1.3988537 10761249
0.80564433 0.6204921 1.3988537 10696227
0.81939512 0.6204921 1.3988537 10433827
0.89486051 0.66645449 1.5024725 10302498
0.84689671 0.6204921 1.3988537 10433570
0.8606475 0.6204921 1.3988537 10367775
0.87439829 0.6204921 1.3988537 10499106
0.88814908 0.6204921 1.3988537 10499362
1.0059654 0.69208735 1.5602599 10302497
1.0213027 0.69208735 1.5602599 10302497
0.92940152 0.6204921 1.3988537 10368290
0.94315231 0.6204921 1.3988537 10368033
0.9910782 0.64265251 1.4488127 10368548
1.0826524 0.69208735 1.5602599 10368290
1.0573236 0.66645449 1.5024725 10368291
1.072093 0.66645449 1.5024725 10302240
1.0868623 0.66645449 1.5024725 10433570
1.0256571 0.6204921 1.3988537 10105632
1.0394078 0.6204921 1.3988537 10105890
1.0531586 0.6204921 1.3988537 10171682
1.1050134 0.64265251 1.4488127 10106145
1.1192552 0.64265251 1.4488127 10039327
1.1334971 0.64265251 1.4488127 10040356
1.1477391 0.64265251 1.4488127 9974562
1.2050173 0.66645449 1.5024725 9843747
1.2197866 0.66645449 1.5024725 9974563
1.2820389 0.69208735 1.5602599 9974563
1.2493254 0.66645449 1.5024725 9778468
1.2640948 0.66645449 1.5024725 9712675
1.2331904 0.64265251 1.4488127 9581091
1.2474322 0.64265251 1.4488127 9712677
1.4130751 0.71977085 1.6226703 9648680
1.429026 0.71977085 1.6226703 9648166
1.4449769 0.71977085 1.6226703 9647652
1.3043998 0.64265251 1.4488127 9581859
1.0549134 0.51412201 1.1590502 9844515
1.0663069 0.51412201 1.1590502 9582373
1.0777005 0.51412201 1.1590502 9647396
1.2296222 0.58046037 1.3086051 9647395
0 0 0 9713188
0 0 0 9582116
2.312624 1.0584865 2.3862798 9581604
1.418335 0.64265251 1.4488127 9515557
1.2939404 0.58046037 1.3086051 9449764
1.4468188 0.64265251 1.4488127 9449764
1.2784282 0.56232095 1.2677112 9515557
1.2908897 0.56232095 1.2677112 9319202
1.2638559 0.54528093 1.2292956 9450018
1.2759399 0.54528093 1.2292956 9122595
1.1487782 0.48633164 1.0963988 9319204
1.1595558 0.48633164 1.0963988 9515811
1.312192 0.54528093 1.2292956 9319715
1.3242761 0.54528093 1.2292956 9320485
1.3781214 0.56232095 1.2677112 9451044
1.308784 0.52924323 1.1931399 9844774
1.0950593 0.43888465 0.98943311 9845288
1.1047854 0.43888465 0.98943311 9910825
1.0879756 0.428435 0.96587515 9910568
1.0475852 0.4089607 0.92197174 9713703
1.0331671 0.39987269 0.90148348 9779753
1.0904952 0.41847143 0.94341296 9780266
1.1534163 0.43888465 0.98943311 9714986
0 0 0 9781037
0 0 0 9714217
0 0 0 9517610
0 0 0 9517094
0 0 0 9517097
0 0 0 9188904
0 0 0 8468008
0 0 0 7419176
0 0 0 6106661
0 0 0 5647140
0 0 0 5778209
0 0 0 5580578
0 0 0 5186847
0 0 0 8205352
0 0 0 8401444
-0.91349924 0.34703854 0.76541048 8729380
-0.90597522 0.34703854 0.76541048 8597280
-0.79363191 0.30655071 0.67611259 8728866
-0.7869857 0.30655071 0.67611259 8663073
-0.78033948 0.30655071 0.67611259 8794401
-0.77369326 0.30655071 0.67611259 8925985
-0.76704705 0.30655071 0.67611259 8924960
-0.77328902 0.31174651 0.68757218 8663071
-0.77974612 0.31712145 0.69942683 8662814
-0.77287072 0.31712145 0.69942683 8793632
-0.77943391 0.322685 0.71169752 8728096
-0.77243787 0.322685 0.71169752 8924705
-0.79327607 0.33441898 0.73757738 8858910
-0.77198946 0.32844719 0.72440636 8990751
-0.75144982 0.322685 0.71169752 8858651
-0.75774759 0.32844719 0.72440636 9056030
-0.73745781 0.322685 0.71169752 9122336
-0.73046178 0.322685 0.71169752 9121826
-0.72346574 0.322685 0.71169752 9252639
-0.72926378 0.32844719 0.72440636 9253155
-0.72214288 0.32844719 0.72440636 9580577
-0.71502191 0.32844719 0.72440636 9449763
-0.72077191 0.33441898 0.73757738 9450016
-0.72673488 0.34061193 0.75123626 9974817
-0.73292279 0.34703854 0.76541048 9843490
-0.73934877 0.35371238 0.78012997 10106147
-0.7316801 0.35371238 0.78012997 9974819
-0.71035069 0.34703854 0.76541048 9909024
-0.70282668 0.34703854 0.76541048 9974817
-0.69530267 0.34703854 0.76541048 10106401
-0.68777865 0.34703854 0.76541048 9974302
-0.68025464 0.34703854 0.76541048 10106401
-0.67273062 0.34703854 0.76541048 10040095
-0.66520661 0.34703854 0.76541048 10040608
-0.6576826 0.34703854 0.76541048 9974816
-0.65015858 0.34703854 0.76541048 9908509
-0.65499294 0.35371238 0.78012997 9909022
-0.6473242 0.35371238 0.78012997 10105888
-0.65219778 0.36064792 0.79542661 10105888
-0.67067987 0.37536824 0.82789302 10303268
-0.66254163 0.37536824 0.82789302 10106401
-0.69708186 0.39984876 0.88188601 10105888
-0.70371097 0.40873429 0.90148348 10368803
-0.7271679 0.42774519 0.94341296 10368034
-0.73498684 0.4379296 0.96587515 10433570
0 0 0 10565154
0 0 0 10433825
0 0 0 10762020
0 0 0 10565156
0 0 0 10434082
0 0 0 10434338
-1.871869 1.2262028 2.7044504 10434596
-1.8452841 1.2262028 2.7044504 10828325
-1.8186992 1.2262028 2.7044504 10631462
-1.7921144 1.2262028 2.7044504 10696740
-1.655184 1.1495652 2.5354223 10631203
-1.6302607 1.1495652 2.5354223 10827042
-2.335036 1.6720948 3.687887 10564898
-3.1608281 2.2991304 5.0708447 10696228
-3.5554073 2.6275775 5.7952509 10434080
-4.8978162 3.6786089 8.1133518 10827809
-4.8180614 3.6786089 8.1133518 10696223
-4.738307 3.6786089 8.1133518 10565156
-4.6585522 3.6786089 8.1133518 10761762
-4.5787973 3.6786089 8.1133518 10630947
-3.7492023 3.0655072 6.761126 10630688
-4.4192882 3.6786089 8.1133518 10630947
-3.6162779 3.0655072 6.761126 10565413
-3.0426991 2.6275775 5.7952509 10499363
-2.0900123 1.8393044 4.0566759 10762274
-2.0501349 1.8393044 4.0566759 10828066
-0.9572655 0.8758592 1.9317503 11024675
-0.67944145 0.63424289 1.3988537 10827810
-0.53625083 0.5109179 1.1268544 11089955
-0.42968765 0.41802371 0.92197174 10958114
-0.41127741 0.40873429 0.90148348 10958626
-0.39366761 0.39984876 0.88188601 10827296
-0.39355415 0.40873429 0.90148348 10761760
-0.38469252 0.40873429 0.90148348 10761247
-0.37583092 0.40873429 0.90148348 10564897
-0.36696929 0.40873429 0.90148348 10892832
-0.34286904 0.39134136 0.86312246 10958115
-0.34165373 0.39984876 0.88188601 10761503
-0.32589996 0.39134136 0.86312246 10760736
-0.31741545 0.39134136 0.86312246 10564641
-0.30249485 0.3831884 0.84514076 10498847
-0.28818327 0.37536824 0.82789302 10761503
-0.28587931 0.3831884 0.84514076 10695969
-0.27757153 0.3831884 0.84514076 11089442
-0.28097087 0.39984876 0.88188601 10499105
-0.27230191 0.39984876 0.88188601 10629665
-0.2526482 0.3831884 0.84514076 10302495
-0.24434045 0.3831884 0.84514076 10564640
-0.23121569 0.37536824 0.82789302 10367775
-0.22307746 0.37536824 0.82789302 10433310
-0.21941712 0.3831884 0.84514076 10433566
-0.21110936 0.3831884 0.84514076 10629663
-0.20280159 0.3831884 0.84514076 10761503
-0.19449382 0.3831884 0.84514076 10761249
-0.18618605 0.3831884 0.84514076 10827296
-0.17787828 0.3831884 0.84514076 10499360
-0.16957051 0.3831884 0.84514076 10695713
-0.16126272 0.3831884 0.84514076 10892578
-0.15295495 0.3831884 0.84514076 10826783
-0.13100122 0.34703854 0.76541048 10892576
-0.13088584 0.36786088 0.81133515 10761503
-0.13359824 0.39984876 0.88188601 10958367
-0.12770545 0.40873429 0.90148348 11090468
-0.11884384 0.40873429 0.90148348 10761503
-0.10998221 0.40873429 0.90148348 11154978
-0.10112059 0.40873429 0.90148348 10827809
-0.094355762 0.41802371 0.92197174 11089954
-0.089354299 0.4379296 0.96587515 11089955
-0.081807502 0.44861084 0.98943311 11024160
-0.079873905 0.49710929 1.0963988 11286562
-0.071015604 0.5109179 1.1268544 11220769
0 0 0 11220769
0 0 0 11351583
0 0 0 11548449
0 0 0 11352355
0 0 0 11482656
0 0 0 11351585
0.016774986 1.3137888 2.8976254 11220769
0.048740219 1.4148495 3.1205199 11483173
0.086032987 1.5327536 3.380563 11220769
0.11926407 1.5327536 3.380563 11351585
0.15249516 1.5327536 3.380563 11154976
0.24763502 2.0436716 4.5074177 11286562
0.52549762 3.6786089 8.1133518 11352356
0.75656527 4.5982609 10.141689 10892575
0.85625857 4.5982609 10.141689 10762018
0.76476151 3.6786089 8.1133518 10893602
0.70376337 3.0655072 6.761126 10958625
0.77022552 3.0655072 6.761126 11156259
1.0040253 3.6786089 8.1133518 11286560
0.67736244 2.2991304 5.0708447 11352355
0.72720903 2.2991304 5.0708447 10958367
0.69071621 2.0436716 4.5074177 11155748
0.73502433 2.0436716 4.5074177 11221024
0.53953785 1.4148495 3.1205199 11089953
0.57021266 1.4148495 3.1205199 11286563
0.60088754 1.4148495 3.1205199 11286820
0.54735404 1.2262028 2.7044504 11483170
0.53806776 1.1495652 2.5354223 11286562
0.52987391 1.0819438 2.3862798 11417378
0.55333114 1.0819438 2.3862798 11287330
0.61283767 1.1495652 2.5354223 11090468
0.60024565 1.0819438 2.3862798 11418148
0.62370288 1.0819438 2.3862798 11287330
0.64716011 1.0819438 2.3862798 11155490
0.60002607 0.96805495 2.1350925 11155490
0.35755357 0.55736494 1.2292956 11155233
0.33883449 0.5109179 1.1268544 11155746
0.34991151 0.5109179 1.1268544 11221539
0.36098856 0.5109179 1.1268544 11221541
0.40588969 0.55736494 1.2292956 11483427
0.40568039 0.54097188 1.1931399 11746083
0.43005773 0.55736494 1.2292956 11548964
0.44214177 0.55736494 1.2292956 11286562
0.45422581 0.55736494 1.2292956 11089953
0.46630985 0.55736494 1.2292956 11155746
0.49334371 0.57478261 1.2677112 11024675
0.50580537 0.57478261 1.2677112 11155748
0.51826704 0.57478261 1.2677112 11483427
0.51464599 0.55736494 1.2292956 11089697
0.52673 0.55736494 1.2292956 10892576
0.52296656 0.54097188 1.1931399 10499104
0.55089808 0.55736494 1.2292956 10564897
0.58057529 0.57478261 1.2677112 10565665
0.59303695 0.57478261 1.2677112 10237216
0.6458652 0.61310142 1.3522252 10041122
0.65915763 0.61310142 1.3522252 10434083
0.695638 0.63424289 1.3988537 10762019
0.6428836 0.57478261 1.2677112 10696226
0.65534526 0.57478261 1.2677112 10564641
0.66780692 0.57478261 1.2677112 10630432
0.75064117 0.63424289 1.3988537 10696226
0.73891222 0.61310142 1.3522252 10892832
0.68382239 0.55736494 1.2292956 11023392
0.76549709 0.61310142 1.3522252 10695711
0.80564433 0.63424289 1.3988537 10630692
0.81939512 0.63424289 1.3988537 10630433
0.83314592 0.63424289 1.3988537 10499361
0.84689671 0.63424289 1.3988537 10630690
0.8606475 0.63424289 1.3988537 10433825
0.87439829 0.63424289 1.3988537 10433570
0.88814908 0.63424289 1.3988537 10499363
0.90189987 0.63424289 1.3988537 10368292
0.91565067 0.63424289 1.3988537 9909024
0.92940152 0.63424289 1.3988537 10237217
0.91171384 0.61310142 1.3522252 10367777
0.92500627 0.61310142 1.3522252 10368033
1.0053201 0.65689439 1.4488127 10368803
1.019562 0.65689439 1.4488127 10433568
1.0338038 0.65689439 1.4488127 10302240
0.97817606 0.61310142 1.3522252 9974302
0.95948565 0.59332401 1.3086051 10237219
1.0394078 0.63424289 1.3988537 10105633
1.0531586 0.63424289 1.3988537 10170400
1.0669094 0.63424289 1.3988537 10302497
1.0806602 0.63424289 1.3988537 10105378
1.094411 0.63424289 1.3988537 9646625
1.1081618 0.63424289 1.3988537 9581089
1.1619809 0.65689439 1.4488127 9712418
1.2667016 0.70742476 1.5602599 9777954
1.3333205 0.73572177 1.6226703 9777441
1.3492714 0.73572177 1.6226703 9777954
1.2189485 0.65689439 1.4488127 9908770
1.2331904 0.65689439 1.4488127 9581090
1.4553376 0.76637679 1.6902815 9712934
1.4130751 0.73572177 1.6226703 9580837
1.2759161 0.65689439 1.4488127 9581350
1.2901579 0.65689439 1.4488127 9712677
1.1067635 0.55736494 1.2292956 9712677
1.0256103 0.5109179 1.1268544 9516068
1.0366874 0.5109179 1.1268544 9450020
1.1430156 0.55736494 1.2292956 9647143
1.588262 0.76637679 1.6902815 9647910
0 0 0 9778981
0 0 0 9647395
1.2682132 0.59332401 1.3086051 9713190
1.2034358 0.55736494 1.2292956 9582372
1.2155198 0.55736494 1.2292956 9450790
1.2276038 0.55736494 1.2292956 9384741
1.2396878 0.55736494 1.2292956 9516069
1.2517718 0.55736494 1.2292956 9385252
1.1916356 0.52551556 1.1590502 9318947
1.1380005 0.49710929 1.0963988 9319205
1.1185472 0.48402748 1.0675462 9122594
1.1595558 0.49710929 1.0963988 9384738
1.1395352 0.48402748 1.0675462 9384483
1.2853268 0.54097188 1.1931399 9450788
1.2970555 0.54097188 1.1931399 9385763
1.1710173 0.48402748 1.0675462 9386277
1.0950593 0.44861084 0.98943311 9582630
1.1047854 0.44861084 0.98943311 9516837
1.1145116 0.44861084 0.98943311 9845802
1.0719477 0.42774519 0.94341296 9844776
1.0566483 0.41802371 0.92197174 10042925
1.0904952 0.42774519 0.94341296 9780010
1.1534163 0.44861084 0.98943311 9648680
0 0 0 9452841
0 0 0 9452587
0 0 0 9846574
0 0 0 9387048
0 0 0 9452843
0 0 0 9517610
0 0 0 9386282
0 0 0 8796458
0 0 0 7026216
0 0 0 5646371
0 0 0 5121312
0 0 0 5646627
0 0 0 5515040
0 0 0 8663328
0 0 0 8729121
-0.91349924 0.35456258 0.76541048 8597537
-0.90597522 0.35456258 0.76541048 8728864
-0.83540207 0.32968101 0.71169752 8531743
-0.81412315 0.32399684 0.69942683 8858910
-0.78033948 0.31319693 0.67611259 8728866
-0.77369326 0.31319693 0.67611259 8859167
-0.78004789 0.31850538 0.68757218 8728351
-0.78662151 0.32399684 0.69942683 8662816
-0.79342592 0.32968101 0.71169752 8794402
-0.77287072 0.32399684 0.69942683 8859424
-0.79335231 0.33556816 0.72440636 8793630
-0.8005265 0.34166938 0.73757738 8991266
-0.80796641 0.34799662 0.75123626 9186846
-0.77198946 0.33556816 0.72440636 8924703
-0.76486856 0.33556816 0.72440636 9252639
-0.75774759 0.33556816 0.72440636 9121567
-0.73745781 0.32968101 0.71169752 9318689
-0.73046178 0.32968101 0.71169752 9187362
-0.72346574 0.32968101 0.71169752 9121569
-0.72926378 0.33556816 0.72440636 9253411
-0.73527271 0.34166938 0.73757738 9449760
-0.75549483 0.35456258 0.76541048 9646881
-0.74797082 0.35456258 0.76541048 9975074
-0.74044681 0.35456258 0.76541048 10040354
-0.73292279 0.35456258 0.76541048 9974818
-0.73934877 0.36138111 0.78012997 9844004
-0.7764768 0.38350648 0.82789302 10106401
-0.76833856 0.38350648 0.82789302 9843999
-0.74499631 0.37583634 0.81133515 9975071
-0.69530267 0.35456258 0.76541048 9974304
-0.71475041 0.368467 0.79542661 9844001
-0.68025464 0.35456258 0.76541048 9974303
-0.68566781 0.36138111 0.78012997 10040610
-0.66520661 0.35456258 0.76541048 9842716
-0.6576826 0.35456258 0.76541048 9909794
-0.66266167 0.36138111 0.78012997 9974817
-0.65499294 0.36138111 0.78012997 9908766
-0.6473242 0.36138111 0.78012997 9909537
-0.65219778 0.368467 0.79542661 10106145
-0.67067987 0.38350648 0.82789302 10040610
-0.67634457 0.39149618 0.84514076 10368291
-0.69708186 0.40851775 0.88188601 10237476
-0.70371097 0.41759592 0.90148348 10236961
-0.71064138 0.42708674 0.92197174 10368290
-0.73498684 0.4474242 0.96587515 10433825
0 0 0 10368290
0 0 0 10303267
0 0 0 10368288
0 0 0 10433826
0 0 0 10368803
0 0 0 10303267
0 0 0 10761504
-1.8452841 1.2527877 2.7044504 10565412
-1.8186992 1.2527877 2.7044504 10500389
-1.9201226 1.3422726 2.8976254 10762276
-2.0371497 1.4455245 3.1205199 10565667
-2.3712883 1.708347 3.687887 10631460
-3.2106748 2.3489771 5.0708447 10696740
-3.1608281 2.3489771 5.0708447 10499874
-3.1109815 2.3489771 5.0708447 10564899
-3.4984398 2.6845453 5.7952509 10631460
-4.8180614 3.7583635 8.1133518 10696226
-4.738307 3.7583635 8.1133518 10630433
-4.6585522 3.7583635 8.1133518 10761761
-4.5787973 3.7583635 8.1133518 10565154
-3.7492023 3.1319695 6.761126 10762531
-3.68274 3.1319695 6.761126 10762018
-3.6162779 3.1319695 6.761126 10630433
-3.5498157 3.1319695 6.761126 10630947
-2.9857316 2.6845453 5.7952509 10958628
-2.2779276 2.0879798 4.5074177 10696480
-2.2336197 2.0879798 4.5074177 10564897
-0.54732788 0.52199495 1.1268544 10630947
-0.44895416 0.43701899 0.94341296 10762273
-0.42968765 0.42708674 0.92197174 11024162
-0.41127741 0.41759592 0.90148348 10892834
-0.39366761 0.40851775 0.88188601 10630688
-0.38499862 0.40851775 0.88188601 10696480
-0.38469252 0.41759592 0.90148348 10893348
-0.37583092 0.41759592 0.90148348 10826783
-0.36696929 0.41759592 0.90148348 10695710
-0.35810766 0.41759592 0.90148348 10826786
-0.34924603 0.41759592 0.90148348 10695713
-0.32589996 0.39982587 0.86312246 10761249
-0.31741545 0.39982587 0.86312246 10761503
-0.3089309 0.39982587 0.86312246 10630430
-0.30044636 0.39982587 0.86312246 10630433
-0.28587931 0.39149618 0.84514076 10695456
-0.27757153 0.39149618 0.84514076 10761249
-0.28097087 0.40851775 0.88188601 10498848
-0.27230191 0.40851775 0.88188601 10695456
-0.25802371 0.39982587 0.86312246 10433568
-0.24434045 0.39149618 0.84514076 10696226
-0.23121569 0.38350648 0.82789302 10433568
-0.22307746 0.38350648 0.82789302 10498849
-0.21941712 0.39149618 0.84514076 10367775
-0.21110936 0.39149618 0.84514076 10499361
-0.20280159 0.39149618 0.84514076 10630689
-0.19449382 0.39149618 0.84514076 10696226
-0.18618605 0.39149618 0.84514076 10629917
-0.17787828 0.39149618 0.84514076 10761246
-0.16957051 0.39149618 0.84514076 10760990
-0.16126272 0.39149618 0.84514076 10762016
-0.14983343 0.38350648 0.82789302 10695456
-0.1416952 0.38350648 0.82789302 10827296
-0.13633941 0.39149618 0.84514076 10761503
-0.13359824 0.40851775 0.88188601 10826783
-0.12770545 0.41759592 0.90148348 10760990
-0.11884384 0.41759592 0.90148348 10695455
-0.10998221 0.41759592 0.90148348 10827039
-0.10341879 0.42708674 0.92197174 10827296
-0.094355762 0.42708674 0.92197174 10892576
-0.089354299 0.4474242 0.96587515 10958882
-0.081807502 0.45833701 0.98943311 10761760
-0.079873905 0.50788695 1.0963988 11024418
0 0 0 11351585
0 0 0 11351585
0 0 0 11220769
0 0 0 11548449
0 0 0 11089951
0 0 0 11286562
-0.010245202 1.1744885 2.5354223 11482658
0.016774986 1.3422726 2.8976254 11089953
0.045258775 1.3422726 2.8976254 11220769
0.086032987 1.5659847 3.380563 11351585
0.11926407 1.5659847 3.380563 11483171
0.15249516 1.5659847 3.380563 11089183
0.24763502 2.0879798 4.5074177 11156004
0.65687203 4.6979542 10.141689 11089185
0.75656527 4.6979542 10.141689 11155234
0.85625857 4.6979542 10.141689 10892833
0.63730121 3.1319695 6.761126 10630944
0.70376337 3.1319695 6.761126 10499615
0.77022552 3.1319695 6.761126 11024162
1.0040253 3.7583635 8.1133518 10958882
0.67736244 2.3489771 5.0708447 10959139
0.64640808 2.0879798 4.5074177 10893088
0.69071621 2.0879798 4.5074177 10892576
0.73502433 2.0879798 4.5074177 11024417
0.70139921 1.8791817 4.0566759 11156259
0.57021266 1.4455245 3.1205199 11220769
0.60088754 1.4455245 3.1205199 11286562
0.63156235 1.4455245 3.1205199 11352099
0.57393891 1.2527877 2.7044504 11155748
0.56299102 1.1744885 2.5354223 11286564
0.55333114 1.105401 2.3862798 11155748
0.61283767 1.1744885 2.5354223 11089955
0.60024565 1.105401 2.3862798 11483174
0.62370288 1.105401 2.3862798 11221025
0.64716011 1.105401 2.3862798 11221541
0.60002607 0.989043 2.1350925 11089955
0.58996344 0.93959087 2.028338 11155748
0.33883449 0.52199495 1.1268544 11286562
0.34991151 0.52199495 1.1268544 11089955
0.36098856 0.52199495 1.1268544 11287076
0.37206557 0.52199495 1.1268544 11352355
0.39408952 0.53690904 1.1590502 11286819
0.417409 0.55270052 1.1931399 11483169
0.42913762 0.55270052 1.1931399 11483171
0.45422581 0.56944895 1.2292956 11155233
0.46630985 0.56944895 1.2292956 11090468
0.52623326 0.62639385 1.3522252 11090212
0.53952569 0.62639385 1.3522252 11089955
0.50256193 0.56944895 1.2292956 11024418
0.51464599 0.56944895 1.2292956 11351587
0.52673 0.56944895 1.2292956 10302497
0.53881401 0.56944895 1.2292956 9318173
0.55089808 0.56944895 1.2292956 10236962
0.58057529 0.58724427 1.2677112 10630689
0.59303695 0.58724427 1.2677112 10433825
0.66813642 0.64799368 1.3988537 10565156
0.68188721 0.64799368 1.3988537 10302497
0.695638 0.64799368 1.3988537 10499360
0.70938879 0.64799368 1.3988537 10564897
0.6354863 0.56944895 1.2292956 10433570
0.62852412 0.55270052 1.1931399 10565154
0.65965432 0.56944895 1.2292956 10433568
0.67173839 0.56944895 1.2292956 10762017
0.68382239 0.56944895 1.2292956 10826529
0.69590646 0.56944895 1.2292956 10958884
0.80564433 0.64799368 1.3988537 10892576
0.81939512 0.64799368 1.3988537 10499104
0.83314592 0.64799368 1.3988537 10433825
0.84689671 0.64799368 1.3988537 10499104
0.8606475 0.64799368 1.3988537 10695456
0.87439829 0.64799368 1.3988537 10564640
0.88814908 0.64799368 1.3988537 10499106
0.90189987 0.64799368 1.3988537 10367777
0.88512897 0.62639385 1.3522252 10499363
0.89842141 0.62639385 1.3522252 10368034
0.91171384 0.62639385 1.3522252 10236702
0.92500627 0.62639385 1.3522252 10237217
1.0053201 0.67113632 1.4488127 10302754
1.019562 0.67113632 1.4488127 10301982
1.0338038 0.67113632 1.4488127 10236961
0.97817606 0.62639385 1.3522252 9974303
0.95948565 0.60618764 1.3086051 10039843
0.97234929 0.60618764 1.3086051 10367520
0.98521292 0.60618764 1.3086051 10171681
0.9668867 0.58724427 1.2677112 10105889
1.0806602 0.64799368 1.3988537 9974817
1.094411 0.64799368 1.3988537 9580832
1.1081618 0.64799368 1.3988537 9515809
1.1619809 0.67113632 1.4488127 9646882
1.1762228 0.67113632 1.4488127 9646625
1.1904647 0.67113632 1.4488127 9515298
1.2047065 0.67113632 1.4488127 9842977
1.2189485 0.67113632 1.4488127 9515811
1.2331904 0.67113632 1.4488127 9253409
1.4553376 0.78299236 1.6902815 9384738
1.2616742 0.67113632 1.4488127 9647397
1.2759161 0.67113632 1.4488127 9515298
1.2901579 0.67113632 1.4488127 9515039
1.0742117 0.55270052 1.1931399 9384225
1.0549134 0.53690904 1.1590502 9383971
1.0976689 0.55270052 1.1931399 9318948
1.1787349 0.58724427 1.2677112 9450019
4.7647862 2.3489771 5.0708447 9516837
4.8146329 2.3489771 5.0708447 9451301
1.1792676 0.56944895 1.2292956 9646882
1.1913517 0.56944895 1.2292956 9384993
1.2034358 0.56944895 1.2292956 9123106
1.2155198 0.56944895 1.2292956 9253668
1.2659665 0.58724427 1.2677112 9384741
1.2784282 0.58724427 1.2677112 9319204
1.2517718 0.56944895 1.2292956 9451299
1.1916356 0.53690904 1.1590502 9450786
1.1696117 0.52199495 1.1268544 9515813
1.1487782 0.50788695 1.0963988 9451044
1.1595558 0.50788695 1.0963988 9582374
1.1395352 0.4945215 1.0675462 9450788
1.1500293 0.4945215 1.0675462 9778985
1.1605233 0.4945215 1.0675462 9450786
1.1710173 0.4945215 1.0675462 9648678
1.1815114 0.4945215 1.0675462 9713188
1.1047854 0.45833701 0.98943311 9582374
1.1145116 0.45833701 0.98943311 9778982
1.0719477 0.43701899 0.94341296 9910567
1.0812215 0.43701899 0.94341296 9910567
1.0904952 0.43701899 0.94341296 9714219
1.3136131 0.52199495 1.1268544 9583660
0 0 0 9518382
0 0 0 9715759
0 0 0 9650221
0 0 0 9847085
0 0 0 9780523
0 0 0 9780779
0 0 0 9714473
0 0 0 9451048
0 0 0 8599336
0 0 0 6828583
0 0 0 5515040
0 0 0 5121312
0 0 0 5712163
0 0 0 8663328
0 0 0 8597536
-1.0301162 0.40831041 0.86312246 8597793
-0.97993243 0.39164469 0.82789302 8531742
-0.88181329 0.35538131 0.75123626 8465951
-0.81412315 0.33087224 0.69942683 8924703
-0.78033948 0.31984314 0.67611259 8924703
-0.8003723 0.33087224 0.69942683 8662558
-0.83677858 0.34891981 0.73757738 8531485
-0.82952815 0.34891981 0.73757738 8662303
-0.82227772 0.34891981 0.73757738 8924960
-0.80047327 0.3426891 0.72440636 8662557
-0.80777693 0.34891981 0.73757738 9056287
-0.81535107 0.35538131 0.75123626 9056031
-0.82321101 0.36208659 0.76541048 9056289
-0.80058169 0.35538131 0.75123626 8990239
-0.75144982 0.33667701 0.71169752 8990496
-0.75774759 0.3426891 0.72440636 9253154
-0.75062662 0.3426891 0.72440636 9384482
-0.73046178 0.33667701 0.71169752 9252639
-0.72346574 0.33667701 0.71169752 9450019
-0.72926378 0.3426891 0.72440636 9515553
-0.76301885 0.36208659 0.76541048 9778466
-0.77002364 0.36904982 0.78012997 9909538
-0.74797082 0.36208659 0.76541048 9843746
-0.74044681 0.36208659 0.76541048 9843747
-0.73292279 0.36208659 0.76541048 9842977
-0.73934877 0.36904982 0.78012997 9712161
-0.7764768 0.39164469 0.82789302 9909026
-0.76833856 0.39164469 0.82789302 9581089
-0.74499631 0.3838118 0.81133515 9909024
-0.70867395 0.36904982 0.78012997 9842975
-0.70100522 0.36904982 0.78012997 9712159
-0.69333649 0.36904982 0.78012997 9777952
-0.68566781 0.36904982 0.78012997 9647136
-0.67799908 0.36904982 0.78012997 9647136
-0.67033035 0.36904982 0.78012997 9975073
-0.66266167 0.36904982 0.78012997 9777438
-0.65499294 0.36904982 0.78012997 9843747
-0.6473242 0.36904982 0.78012997 9974819
-0.66524172 0.3838118 0.81133515 10040355
-0.68465233 0.39980394 0.84514076 10106149
-0.70575082 0.41718674 0.88188601 9975587
-0.71257257 0.42645755 0.90148348 10171681
-0.70371097 0.42645755 0.90148348 10368290
-0.74448144 0.45691881 0.96587515 10040608
0 0 0 10302495
0 0 0 10040095
0 0 0 10237474
0 0 0 10237474
0 0 0 10368289
0 0 0 10237474
0 0 0 10302754
-1.871869 1.2793726 2.7044504 10565669
-1.8452841 1.2793726 2.7044504 10302497
-1.8186992 1.2793726 2.7044504 10433569
-2.0678244 1.4761993 3.1205199 10434340
-2.206912 1.5992157 3.380563 10696740
-2.3712883 1.7445991 3.687887 10565155
-3.2106748 2.3988237 5.0708447 10433568
-3.1608281 2.3988237 5.0708447 10630690
-3.5554073 2.7415128 5.7952509 10696225
-3.4984398 2.7415128 5.7952509 10564640
-4.8180614 3.8381181 8.1133518 10630433
-3.9485886 3.1984315 6.761126 10761503
-3.8821266 3.1984315 6.761126 10761503
-3.8156643 3.1984315 6.761126 10630944
-3.7492023 3.1984315 6.761126 10696226
-3.68274 3.1984315 6.761126 10565151
-3.6162779 3.1984315 6.761126 10434080
-3.5498157 3.1984315 6.761126 10762276
-2.6125152 2.3988237 5.0708447 10630687
-2.2779276 2.132288 4.5074177 10762273
-2.5128219 2.3988237 5.0708447 10828066
-1.9703803 1.919059 4.0566759 10630947
-0.44895416 0.44629279 0.94341296 10696224
-0.42968765 0.43614978 0.92197174 10761503
-0.41127741 0.42645755 0.90148348 10893859
-0.39366761 0.41718674 0.88188601 10762273
-0.38499862 0.41718674 0.88188601 10565155
-0.38469252 0.42645755 0.90148348 10761248
-0.37583092 0.42645755 0.90148348 10564640
-0.36696929 0.42645755 0.90148348 10433568
-0.35810766 0.42645755 0.90148348 10630433
-0.34165373 0.41718674 0.88188601 10630178
-0.31911039 0.39980394 0.84514076 10629663
-0.31080261 0.39980394 0.84514076 10630175
-0.3089309 0.40831041 0.86312246 10761503
-0.30697781 0.41718674 0.88188601 10761505
-0.29196185 0.40831041 0.86312246 10761249
-0.27757153 0.39980394 0.84514076 10564894
-0.26926374 0.39980394 0.84514076 10827812
-0.26095599 0.39980394 0.84514076 10695969
-0.2526482 0.39980394 0.84514076 10367520
-0.24434045 0.39980394 0.84514076 10367777
-0.23121569 0.39164469 0.82789302 10301982
-0.22307746 0.39164469 0.82789302 10498847
-0.21493924 0.39164469 0.82789302 10367775
-0.20680101 0.39164469 0.82789302 10302239
-0.20280159 0.39980394 0.84514076 10498847
-0.19449382 0.39980394 0.84514076 10433309
-0.18618605 0.39980394 0.84514076 10760991
-0.17787828 0.39980394 0.84514076 10695712
-0.16610989 0.39164469 0.82789302 10958626
-0.15797167 0.39164469 0.82789302 10695711
-0.14983343 0.39164469 0.82789302 10826528
-0.14464718 0.39980394 0.84514076 11089185
-0.1454287 0.42645755 0.90148348 10892576
-0.13967088 0.43614978 0.92197174 11023392
-0.12770545 0.42645755 0.90148348 11089185
-0.11884384 0.42645755 0.90148348 11089701
-0.10998221 0.42645755 0.90148348 10892576
-0.10112059 0.42645755 0.90148348 10630687
-0.094355762 0.43614978 0.92197174 10761761
-0.089354299 0.45691881 0.96587515 10761247
-0.079859704 0.45691881 0.96587515 10761760
0 0 0 10762016
0 0 0 10827040
0 0 0 10893090
0 0 0 11024675
0 0 0 11285279
0 0 0 11482656
-0.033099782 1.1288582 2.3862798 11417635
-0.0096425433 1.1288582 2.3862798 11352355
0.016774986 1.3707564 2.8976254 10892319
0.045258775 1.3707564 2.8976254 11220769
0.093854174 1.7445991 3.687887 11286562
0.15901878 2.132288 4.5074177 11154976
0 0 0 11154464
0 0 0 11155234
0 0 0 11024161
0 0 0 11023907
0.85625857 4.7976475 10.141689 10958369
0.76476151 3.8381181 8.1133518 10958368
0.70376337 3.1984315 6.761126 10958625
0.92427069 3.8381181 8.1133518 11090211
1.0040253 3.8381181 8.1133518 11089956
1.0837799 3.8381181 8.1133518 10762017
0.58176726 1.919059 4.0566759 10893859
0.62164456 1.919059 4.0566759 11089955
0.73502433 2.132288 4.5074177 11156261
0.77933246 2.132288 4.5074177 11286562
0.82364053 2.132288 4.5074177 11023647
0.86794865 2.132288 4.5074177 11089185
0.91225678 2.132288 4.5074177 11089955
0.9565649 2.132288 4.5074177 11024675
0.60052377 1.2793726 2.7044504 11156261
0.55333114 1.1288582 2.3862798 11156261
0.61283767 1.1994119 2.5354223 11221539
0.60024565 1.1288582 2.3862798 11483171
0.62370288 1.1288582 2.3862798 11155489
0.64716011 1.1288582 2.3862798 11221540
0.67061734 1.1288582 2.3862798 11221539
0.62101412 1.0100311 2.1350925 11025191
0.33883449 0.53307199 1.1268544 11221539
0.34991151 0.53307199 1.1268544 11352613
0.36098856 0.53307199 1.1268544 11090724
0.37206557 0.53307199 1.1268544 10762787
0.39408952 0.54830259 1.1590502 10958882
0.43005773 0.58153301 1.2292956 11089955
0.44214177 0.58153301 1.2292956 10958882
0.45422581 0.58153301 1.2292956 11024419
0.51294082 0.63968629 1.3522252 11024418
0.78934997 0.95952952 2.028338 10958882
0.80928862 0.95952952 2.028338 11023649
0.82922727 0.95952952 2.028338 11024675
0.99901867 1.1288582 2.3862798 11220771
1.022476 1.1288582 2.3862798 10499105
0 0 0 10105890
0.56811363 0.59970593 1.2677112 10499363
0.59930354 0.61905128 1.3086051 10958625
0.75908732 0.7676236 1.6226703 11024162
0.74522913 0.73809963 1.5602599 10827296
0.76056653 0.73809963 1.5602599 10761506
0.695638 0.66174448 1.3988537 10498590
0.70938879 0.66174448 1.3988537 10433570
0.59917283 0.54830259 1.1590502 10499363
0.62852412 0.5644291 1.1931399 10565154
0.68026859 0.59970593 1.2677112 10499105
0.69273025 0.59970593 1.2677112 10499361
0.70519191 0.59970593 1.2677112 10499363
0.69590646 0.58153301 1.2292956 10631205
0.80564433 0.66174448 1.3988537 10499360
0.81939512 0.66174448 1.3988537 10433054
0.83314592 0.66174448 1.3988537 10499361
0.84689671 0.66174448 1.3988537 10433311
0.89138496 0.68537819 1.4488127 10696483
1.6905034 1.2793726 2.7044504 10630177
0 0 0 10696228
0.90189987 0.66174448 1.3988537 10827044
0.88512897 0.63968629 1.3522252 10565154
0.89842141 0.63968629 1.3522252 10367776
0.91171384 0.63968629 1.3522252 10433311
0.9910782 0.68537819 1.4488127 10171679
1.0826524 0.73809963 1.5602599 10368290
1.019562 0.68537819 1.4488127 10368033
1.1133273 0.73809963 1.5602599 10236704
0.97817606 0.63968629 1.3522252 10171682
1.4872029 0.95952952 2.028338 10236704
0.97234929 0.61905128 1.3086051 10039583
0.95442504 0.59970593 1.2677112 10040354
0.91001099 0.5644291 1.1931399 9973789
0.94967109 0.58153301 1.2292956 9778208
0.9617551 0.58153301 1.2292956 9646625
1.1081618 0.66174448 1.3988537 9384737
1.1219126 0.66174448 1.3988537 9188129
1.1762228 0.68537819 1.4488127 9450788
1.1904647 0.68537819 1.4488127 9581347
1.2047065 0.68537819 1.4488127 9712420
1.2189485 0.68537819 1.4488127 9581604
1.3811733 0.7676236 1.6226703 9647397
1.4553376 0.79960787 1.6902815 9647142
1.1775626 0.63968629 1.3522252 9449505
1.190855 0.63968629 1.3522252 9449761
1.1288882 0.59970593 1.2677112 9383712
1.0742117 0.5644291 1.1931399 9253154
1.0859402 0.5644291 1.1931399 9122082
1.1309315 0.58153301 1.2292956 9188129
1.5716465 0.79960787 1.6902815 9450016
5.4454699 2.7415128 5.7952509 9516069
4.8146329 2.3988237 5.0708447 9319202
1.3419253 0.66174448 1.3988537 9188642
1.1913517 0.58153301 1.2292956 9057059
1.2034358 0.58153301 1.2292956 9253411
1.2155198 0.58153301 1.2292956 9187362
1.2659665 0.59970593 1.2677112 9187877
1.2784282 0.59970593 1.2677112 9450534
2.0654237 0.95952952 2.028338 9319458
1.1916356 0.54830259 1.1590502 9581604
1.2030292 0.54830259 1.1590502 9450534
1.2880239 0.58153301 1.2292956 9516840
1.4301188 0.63968629 1.3522252 9845032
1.4434112 0.63968629 1.3522252 9713188
1.680812 0.73809963 1.5602599 9713188
1.1918888 0.5186646 1.0963988 9648167
1.2026664 0.5186646 1.0963988 9713703
1.2134441 0.5186646 1.0963988 9779496
1.1920054 0.50501555 1.0675462 9648167
1.1145116 0.46806318 0.98943311 9648167
1.0974702 0.45691881 0.96587515 9778982
1.0812215 0.44629279 0.94341296 9713446
1.2673323 0.5186646 1.0963988 9582120
1.3136131 0.53307199 1.1268544 9648680
1.402613 0.5644291 1.1931399 9648937
0 0 0 9649449
0 0 0 9583913
0 0 0 9452587
0 0 0 9518634
0 0 0 9584170
0 0 0 9451813
0 0 0 9386278
0 0 0 9517094
0 0 0 8861223
0 0 0 7023648
0 0 0 5186592
0 0 0 5186590
0 0 0 8335135
0 0 0 8532003
0 0 0 8400159
0 0 0 8531744
-0.88181329 0.362766 0.75123626 8662559
-0.85852987 0.35617024 0.73757738 8924446
-0.85127944 0.35617024 0.73757738 8728096
-0.87587917 0.36961061 0.76541048 8597278
-0.8683551 0.36961061 0.76541048 8925475
-0.86083108 0.36961061 0.76541048 8858909
-0.83750516 0.362766 0.75123626 8793885
-0.8150273 0.35617024 0.73757738 8663071
-0.82273579 0.362766 0.75123626 9187362
-0.81535107 0.362766 0.75123626 9318689
-0.82321101 0.36961061 0.76541048 9187359
-0.84767473 0.38410515 0.79542661 9187616
-0.79319704 0.362766 0.75123626 9055776
-0.74445379 0.34367305 0.71169752 9450016
-0.75062662 0.34981003 0.72440636 9384223
-0.74350572 0.34981003 0.72440636 9646368
-0.77806687 0.36961061 0.76541048 9712675
-0.77054286 0.36961061 0.76541048 9515296
-0.76301885 0.36961061 0.76541048 9646882
-0.75549483 0.36961061 0.76541048 9712675
-0.74797082 0.36961061 0.76541048 9777954
-0.74044681 0.36961061 0.76541048 9777954
-0.79275328 0.39978293 0.82789302 9909537
-0.78461504 0.39978293 0.82789302 9908511
-0.70458078 0.362766 0.75123626 9646368
-0.68451977 0.35617024 0.73757738 9515296
-0.67726934 0.35617024 0.73757738 9515297
-0.70867395 0.37671852 0.78012997 9844261
-0.7439239 0.39978293 0.82789302 9844001
-0.70693129 0.38410515 0.79542661 9975585
-0.69911224 0.38410515 0.79542661 9974816
-0.66520661 0.36961061 0.76541048 9777954
-0.67033035 0.37671852 0.78012997 9974818
-0.66266167 0.37671852 0.78012997 9778211
-0.66783589 0.38410515 0.79542661 9975330
-0.67321718 0.39178726 0.81133515 10106403
-0.69296008 0.40811172 0.84514076 9909540
-0.74689347 0.44521278 0.92197174 9975073
-0.75498933 0.45556659 0.94341296 10106657
-0.7457155 0.45556659 0.94341296 10171681
-0.77236569 0.47778934 0.98943311 10236704
0 0 0 10172196
0 0 0 10368289
0 0 0 10237474
0 0 0 10303265
0 0 0 10433825
0 0 0 10106146
0 0 0 10499363
0 0 0 10499361
-2.005574 1.3992401 2.8976254 10237474
-1.8452841 1.3059574 2.7044504 10433826
-1.9486064 1.3992401 2.8976254 10237215
-2.0678244 1.5068741 3.1205199 10237987
-2.4075403 1.7808511 3.687887 10303267
-2.8982413 2.1765959 4.5074177 10499618
-3.2106748 2.4486704 5.0708447 10499361
-4.2144375 3.2648938 6.761126 10434082
-4.1479754 3.2648938 6.761126 10565156
-4.0815129 3.2648938 6.761126 10433824
-4.8180614 3.9178727 8.1133518 10368546
-2.9614415 2.4486704 5.0708447 10499106
-2.9115949 2.4486704 5.0708447 10630435
-2.5437765 2.1765959 4.5074177 10696225
-2.4994683 2.1765959 4.5074177 10564897
-2.7620552 2.4486704 5.0708447 10696480
-3.0996668 2.7984803 5.7952509 10762019
-3.0426991 2.7984803 5.7952509 10434081
-2.6125152 2.4486704 5.0708447 10630944
-2.2779276 2.1765959 4.5074177 10696480
-2.5128219 2.4486704 5.0708447 10827555
-2.1893115 2.1765959 4.5074177 10696480
-0.53625083 0.54414898 1.1268544 10696480
-0.42968765 0.44521278 0.92197174 10499361
-0.41127741 0.43531916 0.90148348 10762017
-0.39366761 0.4258557 0.88188601 10630433
-0.38499862 0.4258557 0.88188601 10630433
-0.38469252 0.43531916 0.90148348 10630687
-0.37583092 0.43531916 0.90148348 10433825
-0.36696929 0.43531916 0.90148348 10433312
-0.35810766 0.43531916 0.90148348 10301982
-0.34165373 0.4258557 0.88188601 10498847
-0.31911039 0.40811172 0.84514076 10826786
-0.31080261 0.40811172 0.84514076 10761249
-0.30249485 0.40811172 0.84514076 10760990
-0.30697781 0.4258557 0.88188601 10695968
-0.29830885 0.4258557 0.88188601 10695456
-0.27757153 0.40811172 0.84514076 10696228
-0.26926374 0.40811172 0.84514076 10564640
-0.26095599 0.40811172 0.84514076 10695458
-0.2526482 0.40811172 0.84514076 10695712
-0.23935391 0.39978293 0.82789302 10367517
-0.16909803 0.29237854 0.605474 10302238
-0.16816609 0.30137482 0.62410396 10564895
-0.16203111 0.30137482 0.62410396 10301727
-0.20680101 0.39978293 0.82789302 10302238
-0.20280159 0.40811172 0.84514076 10564640
-0.19449382 0.40811172 0.84514076 10564640
-0.18618605 0.40811172 0.84514076 10827296
-0.17424811 0.39978293 0.82789302 10565154
-0.12717788 0.3060838 0.63385558 10957856
-0.11908633 0.30137482 0.62410396 10630176
-0.13348795 0.35617024 0.73757738 10695197
-0.1416952 0.39978293 0.82789302 10892835
-0.1454287 0.43531916 0.90148348 10433308
-0.13656709 0.43531916 0.90148348 10827042
-0.24985851 0.85171139 1.763772 11154978
-0.11884384 0.43531916 0.90148348 10696480
-0.11248181 0.44521278 0.92197174 10892576
-0.10341879 0.44521278 0.92197174 10630687
-0.094355762 0.44521278 0.92197174 11154976
-0.089354299 0.46641338 0.96587515 10958882
-0.081807502 0.47778934 0.98943311 10827039
0 0 0 11155235
0 0 0 11024163
0 0 0 10958113
0 0 0 10826783
0 0 0 10827040
-0.073959179 1.5068741 3.1205199 10958111
-0.033099782 1.1523155 2.3862798 11220770
-0.010245202 1.2243352 2.5354223 11089440
0.016774986 1.3992401 2.8976254 10761502
