# .PCD v0.7 - Point Cloud Data file format
VERSION 0.7
FIELDS x y z rgb
SIZE 4 4 4 4
TYPE F F F U
COUNT 1 1 1 1
WIDTH 1209
HEIGHT 1
VIEWPOINT 0 0 0 1 0 0 0
POINTS 1209
DATA ascii
2.495878 -0.79259777 4.0566759 12944473
2.5357554 -0.79259777 4.0566759 12616025
2.5756326 -0.79259777 4.0566759 12747096
2.61551 -0.79259777 4.0566759 12485207
2.4139881 -0.72054338 3.687887 12615512
2.4502404 -0.72054338 3.687887 12287321
2.4864924 -0.72054338 3.687887 12222039
2.5227444 -0.72054338 3.687887 12090197
2.5589967 -0.72054338 3.687887 12155479
2.5952487 -0.72054338 3.687887 11958869
2.6315007 -0.72054338 3.687887 11827284
2.667753 -0.72054338 3.687887 11696468
2.9744058 -0.79259777 4.0566759 11499861
3.0142829 -0.79259777 4.0566759 11630675
3.0541604 -0.79259777 4.0566759 11696470
3.0940375 -0.79259777 4.0566759 11433043
3.1339149 -0.79259777 4.0566759 11302484
4.5339885 -1.1322824 5.7952509 11236691
4.5909562 -1.1322824 5.7952509 11302225
4.0669332 -0.99074715 5.0708447 11367505
4.1167798 -0.99074715 5.0708447 11301460
3.7036684 -0.88066417 4.5074177 11301714
3.7479763 -0.88066417 4.5074177 11170126
3.4130561 -0.79259777 4.0566759 11169869
3.4529333 -0.79259777 4.0566759 11104333
3.4928107 -0.79259777 4.0566759 10973262
3.5326879 -0.79259777 4.0566759 10776912
3.969517 -0.88066417 4.5074177 10644557
3.2840385 -0.72054338 3.687887 10644815
4.0581331 -0.88066417 4.5074177 10710608
4.1024413 -0.88066417 4.5074177 10513997
3.3927948 -0.72054338 3.687887 10382413
3.4290469 -0.72054338 3.687887 10709325
3.4652989 -0.72054338 3.687887 10382159
3.8517065 -0.79259777 4.0566759 10513744
3.2429862 -0.66049808 3.380563 10513743
5.6163726 -1.1322824 5.7952509 10447949
4.4125981 -0.88066417 4.5074177 10250572
4.4569063 -0.88066417 4.5074177 10381389
4.5012145 -0.88066417 4.5074177 9987401
4.5455227 -0.88066417 4.5074177 10315850
4.1308475 -0.79259777 4.0566759 10250318
4.1707249 -0.79259777 4.0566759 9791050
3.8278198 -0.72054338 3.687887 10118988
3.8640721 -0.72054338 3.687887 10184521
3.5752971 -0.66049808 3.380563 9988171
3.6085281 -0.66049808 3.380563 10053196
3.6417592 -0.66049808 3.380563 10315337
4.4099889 -0.79259777 4.0566759 9922378
4.4498658 -0.79259777 4.0566759 9986633
4.4897432 -0.79259777 4.0566759 9856583
4.5296206 -0.79259777 4.0566759 10251083
4.5694981 -0.79259777 4.0566759 10120012
5.1215281 -0.88066417 4.5074177 10382413
5.1658363 -0.88066417 4.5074177 10645070
5.861412 -0.99074715 5.0708447 10382927
5.9112587 -0.99074715 5.0708447 10448722
6.8126917 -1.1322824 5.7952509 10447952
8.0146027 -1.3209962 6.761126 10710354
9.697278 -1.5851955 8.1133518 10382159
9.7770329 -1.5851955 8.1133518 10513232
8.2139893 -1.3209962 6.761126 10512976
5.5203009 -0.88066417 4.5074177 10447440
5.5646091 -0.88066417 4.5074177 10579540
0 0 0 10776919
0 0 0 10710608
0 0 0 10710608
0 0 0 10316367
0 0 0 10251087
0 0 0 10382672
0 0 0 8804156
0 0 0 8409912
-2.4207733 -0.37636024 2.028338 8475963
-3.6935916 -0.57901573 3.1205199 8410684
-3.6629167 -0.57901573 3.1205199 8148027
-3.6322417 -0.57901573 3.1205199 8476222
-3.601567 -0.57901573 3.1205199 8870207
-4.2201452 -0.68429124 3.687887 9396034
-4.1838932 -0.68429124 3.687887 10381382
-4.1476407 -0.68429124 3.687887 11170124
-3.7687731 -0.627267 3.380563 11301454
-3.7355418 -0.627267 3.380563 11235917
-3.7023108 -0.627267 3.380563 11301710
-3.6690798 -0.627267 3.380563 10973515
-3.6358488 -0.627267 3.380563 11236428
-3.6026175 -0.627267 3.380563 11498573
-3.5693865 -0.627267 3.380563 11301964
-3.5361555 -0.627267 3.380563 11367757
-3.2334688 -0.57901573 3.1205199 11695695
-2.9740229 -0.53765744 2.8976254 11301710
-2.945539 -0.53765744 2.8976254 11104588
-2.7225847 -0.50181359 2.7044504 11366991
-2.6959999 -0.50181359 2.7044504 11497294
-2.5025768 -0.47045025 2.5354223 11432271
-2.4776535 -0.47045025 2.5354223 11170384
-2.8031201 -0.53765744 2.8976254 11104843
-2.7746363 -0.53765744 2.8976254 11235915
-2.7461524 -0.53765744 2.8976254 11104845
-2.3779602 -0.47045025 2.5354223 11235916
-2.3530369 -0.47045025 2.5354223 11433037
-1.8624909 -0.37636024 2.028338 11367246
-1.7548115 -0.35843828 1.9317503 11563339
-1.7358223 -0.35843828 1.9317503 11563855
-1.7168331 -0.35843828 1.9317503 11301707
-1.697844 -0.35843828 1.9317503 11433295
-1.5328674 -0.32726973 1.763772 11433039
-1.3942871 -0.30108815 1.6226703 11235918
-0.67565501 -0.14759223 0.79542661 11564111
-0.66783589 -0.14759223 0.79542661 11433297
-0.66001683 -0.14759223 0.79542661 11367759
-0.65219778 -0.14759223 0.79542661 11433550
-0.6319868 -0.14475393 0.78012997 11695182
-0.62431812 -0.14475393 0.78012997 11565136
-0.60501444 -0.14202271 0.76541048 11564879
-0.56548202 -0.13441436 0.72440636 11761744
-0.54856527 -0.13205622 0.71169752 11760975
-0.54156929 -0.13205622 0.71169752 11696208
-0.52535647 -0.12977938 0.69942683 11762515
-0.51848108 -0.12977938 0.69942683 11827536
-0.51160568 -0.12977938 0.69942683 12089681
-0.50473028 -0.12977938 0.69942683 12154961
-0.49785486 -0.12977938 0.69942683 12024658
-0.48265779 -0.12757973 0.68757218 12287058
-0.47589895 -0.12757973 0.68757218 12221267
-0.46914008 -0.12757973 0.68757218 12155988
-0.46238121 -0.12757973 0.68757218 12352340
-0.46347788 -0.12977938 0.69942683 12025172
-0.45660248 -0.12977938 0.69942683 12089681
-0.44972709 -0.12977938 0.69942683 11761486
-0.44285169 -0.12977938 0.69942683 9460280
-0.4359763 -0.12977938 0.69942683 4663330
-0.42910087 -0.12977938 0.69942683 4334629
-0.41506916 -0.12757973 0.68757218 4269607
-0.40831029 -0.12757973 0.68757218 4269349
-0.40155143 -0.12757973 0.68757218 4138019
-0.39479256 -0.12757973 0.68757218 3940382
-0.38803369 -0.12757973 0.68757218 3677982
-0.38127482 -0.12757973 0.68757218 3874591
-0.37451595 -0.12757973 0.68757218 3873565
-0.36775708 -0.12757973 0.68757218 3611418
-0.36099821 -0.12757973 0.68757218 3283222
-0.35423937 -0.12757973 0.68757218 3020053
-0.34748051 -0.12757973 0.68757218 2888468
-0.34659612 -0.12977938 0.69942683 3019025
-0.33972073 -0.12977938 0.69942683 3347476
-0.33284533 -0.12977938 0.69942683 3347990
-0.32596993 -0.12977938 0.69942683 3479061
-0.3246927 -0.13205622 0.71169752 3610646
-0.31769669 -0.13205622 0.71169752 2625294
-0.31070065 -0.13205622 0.71169752 1705739
-0.30912793 -0.13441436 0.72440636 1837838
-0.30749801 -0.13685825 0.73757738 1509132
-0.29488602 -0.13441436 0.72440636 1378060
-0.29299718 -0.13685825 0.73757738 2297104
-0.28574675 -0.13685825 0.73757738 2559246
-0.27849633 -0.13685825 0.73757738 3479064
-0.27626902 -0.13939267 0.75123626 3675670
-0.26888433 -0.13939267 0.75123626 3608334
-0.26643357 -0.14202271 0.76541048 1312266
-0.25890955 -0.14202271 0.76541048 1180681
-0.26646867 -0.15054408 0.81133515 4794401
-0.26376858 -0.15361641 0.82789302 10446151
-0.25563037 -0.15361641 0.82789302 11498314
0 0 0 12089166
0 0 0 11957580
0 0 0 11499084
0 0 0 11760716
0 0 0 11236169
0 0 0 11170121
0 0 0 11432008
0 0 0 11498316
0 0 0 11498828
0 0 0 11761486
0 0 0 11958864
-0.86006796 -0.83635604 4.5074177 12221265
-0.73418385 -0.75272048 4.0566759 12549713
-0.69430655 -0.75272048 4.0566759 12812884
-0.6544292 -0.75272048 4.0566759 13272404
-0.68283546 -0.83635604 4.5074177 13272917
-0.71834326 -0.9409005 5.0708447 13666392
-0.66849661 -0.9409005 5.0708447 13929564
-0.70702851 -1.0753149 5.7952509 13995611
-0.56880337 -0.9409005 5.0708447 14258011
-0.51895672 -0.9409005 5.0708447 14324060
-0.41698676 -0.83635604 4.5074177 14586461
-0.37267864 -0.83635604 4.5074177 14193500
-0.29553348 -0.75272048 4.0566759 14652256
-0.25565615 -0.75272048 4.0566759 14455648
-0.21577886 -0.75272048 4.0566759 14389853
-0.17590155 -0.75272048 4.0566759 14258014
-0.13602424 -0.75272048 4.0566759 14192733
-0.096146934 -0.75272048 4.0566759 14060891
-0.056269631 -0.75272048 4.0566759 13864025
-0.018213693 -0.83635604 4.5074177 13666903
0.029356226 -0.9409005 5.0708447 13273691
0.079202853 -0.9409005 5.0708447 12813143
0.12904948 -0.9409005 5.0708447 12615510
0.17889611 -0.9409005 5.0708447 12484691
0.22874275 -0.9409005 5.0708447 12024656
0.27858937 -0.9409005 5.0708447 11958863
0.29194313 -0.83635604 4.5074177 11958863
0.33625126 -0.83635604 4.5074177 11893072
0.38055938 -0.83635604 4.5074177 11826509
0.42486748 -0.83635604 4.5074177 11826509
0.46917561 -0.83635604 4.5074177 11958865
0.5134837 -0.83635604 4.5074177 12155726
0.50201267 -0.75272048 4.0566759 12156244
0.60209996 -0.83635604 4.5074177 12615764
0.64640808 -0.83635604 4.5074177 12485207
0.69071621 -0.83635604 4.5074177 12681816
0.73502433 -0.83635604 4.5074177 12747350
0.77933246 -0.83635604 4.5074177 13009495
0.7412765 -0.75272048 4.0566759 12879449
0.7811538 -0.75272048 4.0566759 13272665
0.82103109 -0.75272048 4.0566759 13207383
0.86090839 -0.75272048 4.0566759 13009751
0.81889606 -0.68429124 3.687887 13142363
0.78388578 -0.627267 3.380563 13338717
0.75426179 -0.57901573 3.1205199 13535836
0.78493661 -0.57901573 3.1205199 13667419
0.81561148 -0.57901573 3.1205199 13536604
0.84628636 -0.57901573 3.1205199 13995099
0.95004123 -0.627267 3.380563 13799263
0.98327231 -0.627267 3.380563 13798749
1.1089128 -0.68429124 3.687887 13996129
1.2596815 -0.75272048 4.0566759 13799518
1.2995588 -0.75272048 4.0566759 14192479
1.2176691 -0.68429124 3.687887 14127458
1.2539212 -0.68429124 3.687887 14060378
1.1826588 -0.627267 3.380563 13799261
1.3264254 -0.68429124 3.687887 13930336
1.3626775 -0.68429124 3.687887 14127201
1.5388227 -0.75272048 4.0566759 13930847
1.7541111 -0.83635604 4.5074177 14258270
1.7984191 -0.83635604 4.5074177 13798748
1.6584545 -0.75272048 4.0566759 13931103
1.6983318 -0.75272048 4.0566759 13930847
1.7382091 -0.75272048 4.0566759 14128227
1.9756516 -0.83635604 4.5074177 13864802
1.8179637 -0.75272048 4.0566759 13733468
1.8578411 -0.75272048 4.0566759 13798749
1.7251984 -0.68429124 3.687887 13602911
1.614663 -0.627267 3.380563 13733727
1.5211331 -0.57901573 3.1205199 13864288
1.4409643 -0.53765744 2.8976254 13536091
1.5824827 -0.57901573 3.1205199 13207900
1.6131576 -0.57901573 3.1205199 13338972
1.6438324 -0.57901573 3.1205199 13207902
1.6745073 -0.57901573 3.1205199 13076316
1.8472806 -0.627267 3.380563 13076314
1.8805116 -0.627267 3.380563 13141854
1.9137428 -0.627267 3.380563 13206874
2.1239715 -0.68429124 3.687887 13009498
2.1602235 -0.68429124 3.687887 12681305
2.4161234 -0.75272048 4.0566759 12747096
2.4560006 -0.75272048 4.0566759 12812886
2.495878 -0.75272048 4.0566759 12681559
2.5357554 -0.75272048 4.0566759 12550744
2.5756326 -0.75272048 4.0566759 12550746
2.61551 -0.75272048 4.0566759 12484696
2.6553872 -0.75272048 4.0566759 12287830
2.4502404 -0.68429124 3.687887 12352342
2.4864924 -0.68429124 3.687887 12155476
2.5227444 -0.68429124 3.687887 11893844
2.5589967 -0.68429124 3.687887 12024660
2.5952487 -0.68429124 3.687887 11892564
2.6315007 -0.68429124 3.687887 12024148
2.667753 -0.68429124 3.687887 11827541
2.9744058 -0.75272048 4.0566759 11827284
3.0142829 -0.75272048 4.0566759 11499091
3.0541604 -0.75272048 4.0566759 11630675
3.0940375 -0.75272048 4.0566759 11368274
3.9173934 -0.9409005 5.0708447 11171409
5.2896533 -1.254534 6.761126 11301712
5.3561153 -1.254534 6.761126 10973776
5.4225774 -1.254534 6.761126 11104849
4.1167798 -0.9409005 5.0708447 11170642
3.7036684 -0.83635604 4.5074177 11039825
3.7479763 -0.83635604 4.5074177 11170128
3.4130561 -0.75272048 4.0566759 11104081
3.4529333 -0.75272048 4.0566759 10972749
3.4928107 -0.75272048 4.0566759 10841933
3.9252088 -0.83635604 4.5074177 10841936
3.969517 -0.83635604 4.5074177 10710866
3.6124425 -0.75272048 4.0566759 10447949
4.0581331 -0.83635604 4.5074177 10316877
4.1024413 -0.83635604 4.5074177 10775888
3.7320745 -0.75272048 4.0566759 10840911
3.4290469 -0.68429124 3.687887 10841168
3.8118291 -0.75272048 4.0566759 10447439
4.2796736 -0.83635604 4.5074177 10447694
4.8644795 -0.9409005 5.0708447 10381643
4.3682899 -0.83635604 4.5074177 10316107
4.4125981 -0.83635604 4.5074177 10250573
4.4569063 -0.83635604 4.5074177 10250060
4.5012145 -0.83635604 4.5074177 10184780
4.09097 -0.75272048 4.0566759 10119759
4.1308475 -0.75272048 4.0566759 10250827
4.1707249 -0.75272048 4.0566759 9988684
4.2106023 -0.75272048 4.0566759 9988684
3.8640721 -0.68429124 3.687887 9790022
3.9003241 -0.68429124 3.687887 9987913
3.9365761 -0.68429124 3.687887 10119499
4.3701115 -0.75272048 4.0566759 10250057
4.4099889 -0.75272048 4.0566759 10381644
4.4498658 -0.75272048 4.0566759 10382413
4.4897432 -0.75272048 4.0566759 10118471
4.5296206 -0.75272048 4.0566759 10446923
4.5694981 -0.75272048 4.0566759 10250573
5.1215281 -0.83635604 4.5074177 10382413
5.1658363 -0.83635604 4.5074177 10447693
5.861412 -0.9409005 5.0708447 10513487
5.9112587 -0.9409005 5.0708447 10513745
5.9611053 -0.9409005 5.0708447 10645331
6.010952 -0.9409005 5.0708447 10775890
6.9266267 -1.0753149 5.7952509 10447952
6.1106453 -0.9409005 5.0708447 10512975
6.1604919 -0.9409005 5.0708447 10382159
5.5203009 -0.83635604 4.5074177 10512977
5.5646091 -0.83635604 4.5074177 10447183
5.6089172 -0.83635604 4.5074177 10446925
0 0 0 10643789
0 0 0 10513488
0 0 0 10513490
0 0 0 10513745
0 0 0 10447952
0 0 0 8607549
0 0 0 8475708
-4.0346217 -0.59403592 3.380563 8541502
-4.3651533 -0.64803916 3.687887 8409916
-3.9681594 -0.59403592 3.380563 8738108
-3.6322417 -0.54834086 3.1205199 8607292
-3.9016974 -0.59403592 3.380563 8476222
-4.2201452 -0.64803916 3.687887 8869949
-4.1838932 -0.64803916 3.687887 10053191
-4.1476407 -0.64803916 3.687887 10579275
-4.1113887 -0.64803916 3.687887 11104846
-3.7355418 -0.59403592 3.380563 11235660
-3.7023108 -0.59403592 3.380563 11235917
-3.6690798 -0.59403592 3.380563 11301964
-3.6358488 -0.59403592 3.380563 11301964
-3.6026175 -0.59403592 3.380563 11236174
-3.5693865 -0.59403592 3.380563 11301710
-3.5361555 -0.59403592 3.380563 11170123
-3.0025065 -0.50917363 2.8976254 11301453
-2.6022699 -0.44552693 2.5354223 11301710
-2.5773466 -0.44552693 2.5354223 10973517
-2.5524235 -0.44552693 2.5354223 11170124
-2.6959999 -0.47522873 2.7044504 11564109
-2.5025768 -0.44552693 2.5354223 11564109
-2.6428301 -0.47522873 2.7044504 11104333
-2.6162453 -0.47522873 2.7044504 11301968
-2.5896604 -0.47522873 2.7044504 11301708
-2.4028835 -0.44552693 2.5354223 11301453
-2.3779602 -0.44552693 2.5354223 11367758
-1.9815047 -0.37518057 2.1350925 11170893
-1.8624909 -0.35642156 2.028338 11236428
-1.7548115 -0.33944908 1.9317503 11170894
-1.7358223 -0.33944908 1.9317503 11171407
-1.7168331 -0.33944908 1.9317503 11105359
-1.697844 -0.33944908 1.9317503 11433296
-1.3559982 -0.27417043 1.5602599 11498574
-1.3406607 -0.27417043 1.5602599 11433039
-0.67565501 -0.13977316 0.79542661 11236171
-0.66783589 -0.13977316 0.79542661 11433293
-0.66001683 -0.13977316 0.79542661 11302480
-0.67881811 -0.14547819 0.82789302 11499086
-0.67067987 -0.14547819 0.82789302 11630672
-0.62431812 -0.13708521 0.78012997 11433550
-0.60501444 -0.1344987 0.76541048 11499086
-0.56548202 -0.12729341 0.72440636 11564880
-0.54856527 -0.1250602 0.71169752 11827024
-0.54156929 -0.1250602 0.71169752 12089683
-0.53457326 -0.1250602 0.71169752 11893844
-0.52757722 -0.1250602 0.71169752 11892303
-0.52058125 -0.1250602 0.71169752 11828049
-0.50473028 -0.12290398 0.69942683 12287060
-0.49785486 -0.12290398 0.69942683 12090195
-0.48265779 -0.12082087 0.68757218 12155217
-0.47589895 -0.12082087 0.68757218 12221777
-0.47722867 -0.12290398 0.69942683 12155986
-0.47035328 -0.12290398 0.69942683 12353364
-0.46347788 -0.12290398 0.69942683 12418130
-0.45660248 -0.12290398 0.69942683 12286547
-0.44972709 -0.12290398 0.69942683 12484952
-0.44285169 -0.12290398 0.69942683 12484176
-0.443625 -0.1250602 0.71169752 7157781
-0.436629 -0.1250602 0.71169752 4335140
-0.42963299 -0.1250602 0.71169752 4334885
-0.40831029 -0.12082087 0.68757218 4269606
-0.40155143 -0.12082087 0.68757218 4072227
-0.39479256 -0.12082087 0.68757218 4072740
-0.38803369 -0.12082087 0.68757218 4006177
-0.37492022 -0.11880718 0.67611259 4006177
-0.368274 -0.11880718 0.67611259 3349277
-0.36162779 -0.11880718 0.67611259 2626069
-0.35498157 -0.11880718 0.67611259 1903631
-0.35423937 -0.12082087 0.68757218 2231826
-0.34748051 -0.12082087 0.68757218 2493970
-0.34659612 -0.12290398 0.69942683 2691347
-0.33972073 -0.12290398 0.69942683 2822674
-0.33284533 -0.12290398 0.69942683 3150868
-0.33168873 -0.1250602 0.71169752 3478548
-0.3246927 -0.1250602 0.71169752 3676183
-0.31769669 -0.1250602 0.71169752 3413009
-0.31070065 -0.1250602 0.71169752 2493710
-0.30370465 -0.1250602 0.71169752 1771789
-0.30200699 -0.12729341 0.72440636 1968141
-0.29488602 -0.12729341 0.72440636 1903118
-0.29299718 -0.12960783 0.73757738 3019282
-0.28574675 -0.12960783 0.73757738 2887954
-0.28365368 -0.13200799 0.75123626 3216149
-0.27626902 -0.13200799 0.75123626 3675670
-0.26888433 -0.13200799 0.75123626 3674384
-0.26643357 -0.1344987 0.76541048 1115145
-0.25890955 -0.1344987 0.76541048 1115145
-0.26646867 -0.14256862 0.81133515 3152407
-0.26376858 -0.14547819 0.82789302 10512972
0 0 0 11958095
0 0 0 12089681
0 0 0 12024140
0 0 0 11893070
0 0 0 11564109
0 0 0 11300683
0 0 0 11104326
0 0 0 11432778
0 0 0 11433034
0 0 0 11432778
0 0 0 11760972
-0.90437603 -0.79204792 4.5074177 12023629
-0.86006796 -0.79204792 4.5074177 12286289
-0.81575984 -0.79204792 4.5074177 12549970
-0.69430655 -0.71284312 4.0566759 13009748
-0.72714359 -0.79204792 4.5074177 13470298
-0.68283546 -0.79204792 4.5074177 13470298
-0.71834326 -0.89105386 5.0708447 13602139
-0.66849661 -0.89105386 5.0708447 14060891
-0.70702851 -1.0183473 5.7952509 14061663
-0.65006095 -1.0183473 5.7952509 14192731
-0.51895672 -0.89105386 5.0708447 13996892
-0.41698676 -0.79204792 4.5074177 14194017
-0.37267864 -0.79204792 4.5074177 14389850
-0.32837051 -0.79204792 4.5074177 14455644
-0.28406242 -0.79204792 4.5074177 14390880
-0.21577886 -0.71284312 4.0566759 14390622
-0.17590155 -0.71284312 4.0566759 14455643
-0.13602424 -0.71284312 4.0566759 14389341
-0.096146934 -0.71284312 4.0566759 14192219
-0.062521815 -0.79204792 4.5074177 13732696
-0.020490404 -0.89105386 5.0708447 13404761
0.029356226 -0.89105386 5.0708447 13273176
0.079202853 -0.89105386 5.0708447 12812371
0.12904948 -0.89105386 5.0708447 12286797
0.17889611 -0.89105386 5.0708447 11893070
0.22874275 -0.89105386 5.0708447 11760968
0.24763502 -0.79204792 4.5074177 10051898
0.29194313 -0.79204792 4.5074177 9591866
0.33625126 -0.79204792 4.5074177 11433291
0.38055938 -0.79204792 4.5074177 11235660
0.42486748 -0.79204792 4.5074177 11367500
0.46917561 -0.79204792 4.5074177 11564109
0.5134837 -0.79204792 4.5074177 12023373
0.55779183 -0.79204792 4.5074177 12155474
0.60209996 -0.79204792 4.5074177 12352853
0.64640808 -0.79204792 4.5074177 12418898
0.69071621 -0.79204792 4.5074177 12550484
0.73502433 -0.79204792 4.5074177 12747863
0.77933246 -0.79204792 4.5074177 12943957
0.82364053 -0.79204792 4.5074177 12944729
0.86794865 -0.79204792 4.5074177 13141081
0.91225678 -0.79204792 4.5074177 13403735
0.9565649 -0.79204792 4.5074177 13338712
0.90078574 -0.71284312 4.0566759 13273176
0.85514814 -0.64803916 3.687887 13404249
0.75426179 -0.54834086 3.1205199 13469786
0.78493661 -0.54834086 3.1205199 13798492
0.81561148 -0.54834086 3.1205199 13601370
0.91681015 -0.59403592 3.380563 13995356
1.0364087 -0.64803916 3.687887 13733214
0.98327231 -0.59403592 3.380563 13798494
1.1089128 -0.64803916 3.687887 13864544
1.145165 -0.64803916 3.687887 13799261
1.2995588 -0.71284312 4.0566759 14126686
1.2176691 -0.64803916 3.687887 14061663
1.2539212 -0.64803916 3.687887 13799261
1.2901733 -0.64803916 3.687887 13930847
1.3264254 -0.64803916 3.687887 13799518
1.4989454 -0.71284312 4.0566759 13930590
1.5388227 -0.71284312 4.0566759 14193247
1.5786999 -0.71284312 4.0566759 14061661
1.4714338 -0.64803916 3.687887 14061664
1.6584545 -0.71284312 4.0566759 14192221
1.8870354 -0.79204792 4.5074177 14061663
1.9313436 -0.79204792 4.5074177 13865057
1.9756516 -0.79204792 4.5074177 13930593
1.8179637 -0.71284312 4.0566759 13865054
1.8578411 -0.71284312 4.0566759 13864286
1.7251984 -0.64803916 3.687887 13667934
1.614663 -0.59403592 3.380563 13865054
1.5211331 -0.54834086 3.1205199 13470302
1.5518079 -0.54834086 3.1205199 13601630
1.5824827 -0.54834086 3.1205199 13469274
1.6131576 -0.54834086 3.1205199 13272922
1.6438324 -0.54834086 3.1205199 13273694
1.6745073 -0.54834086 3.1205199 13207900
1.7051822 -0.54834086 3.1205199 13207644
1.8805116 -0.59403592 3.380563 13076829
1.9137428 -0.59403592 3.380563 12812889
2.1239715 -0.64803916 3.687887 13141336
2.1602235 -0.64803916 3.687887 12813656
2.1964757 -0.64803916 3.687887 12682075
2.4560006 -0.71284312 4.0566759 12812119
2.495878 -0.71284312 4.0566759 12419160
2.5357554 -0.71284312 4.0566759 12549719
2.861814 -0.79204792 4.5074177 12352854
2.9061222 -0.79204792 4.5074177 12418390
2.9504302 -0.79204792 4.5074177 12288088
2.6952646 -0.71284312 4.0566759 11959637
2.4864924 -0.64803916 3.687887 12024148
2.5227444 -0.64803916 3.687887 11958095
2.5589967 -0.64803916 3.687887 11762515
2.5952487 -0.64803916 3.687887 11762258
2.8946509 -0.71284312 4.0566759 11957843
2.9345284 -0.71284312 4.0566759 11564883
2.9744058 -0.71284312 4.0566759 11236430
3.0142829 -0.71284312 4.0566759 11237200
3.0541604 -0.71284312 4.0566759 11433298
3.4378195 -0.79204792 4.5074177 11301460
3.9173934 -0.89105386 5.0708447 11170898
4.5339885 -1.0183473 5.7952509 11367508
5.3561153 -1.1880718 6.761126 11170125
4.0669332 -0.89105386 5.0708447 10777169
4.1167798 -0.89105386 5.0708447 10842192
3.7036684 -0.79204792 4.5074177 11104593
3.7479763 -0.79204792 4.5074177 10907729
3.4130561 -0.71284312 4.0566759 10973519
3.4529333 -0.71284312 4.0566759 10908239
3.4928107 -0.71284312 4.0566759 10776402
3.2115343 -0.64803916 3.687887 10645071
3.2477863 -0.64803916 3.687887 10317390
3.2840385 -0.64803916 3.687887 10317390
3.6523199 -0.71284312 4.0566759 10447952
3.6921971 -0.71284312 4.0566759 10513230
3.7320745 -0.71284312 4.0566759 10447435
3.7719517 -0.71284312 4.0566759 10382157
3.8118291 -0.71284312 4.0566759 10382929
4.2796736 -0.79204792 4.5074177 10185805
3.8915837 -0.71284312 4.0566759 10251595
4.3682899 -0.79204792 4.5074177 10185034
4.4125981 -0.79204792 4.5074177 10185034
4.4569063 -0.79204792 4.5074177 10184780
4.0510931 -0.71284312 4.0566759 10250573
4.09097 -0.71284312 4.0566759 9857100
4.1308475 -0.71284312 4.0566759 9857100
4.6341386 -0.79204792 4.5074177 10053707
4.6784468 -0.79204792 4.5074177 10053452
4.2504797 -0.71284312 4.0566759 10054479
3.9003241 -0.64803916 3.687887 9857612
3.9365761 -0.64803916 3.687887 9923145
4.3701115 -0.71284312 4.0566759 9988425
4.4099889 -0.71284312 4.0566759 10184780
4.4498658 -0.71284312 4.0566759 10250057
4.4897432 -0.71284312 4.0566759 10119243
4.5296206 -0.71284312 4.0566759 10053196
4.5694981 -0.71284312 4.0566759 10315853
5.1215281 -0.79204792 4.5074177 10250573
5.1658363 -0.79204792 4.5074177 10382931
5.210144 -0.79204792 4.5074177 10317137
5.9112587 -0.89105386 5.0708447 10317136
5.9611053 -0.89105386 5.0708447 10382672
6.010952 -0.89105386 5.0708447 10579022
6.0607986 -0.89105386 5.0708447 10447182
6.1106453 -0.89105386 5.0708447 10579025
6.1604919 -0.89105386 5.0708447 10447952
5.5203009 -0.79204792 4.5074177 10709841
5.5646091 -0.79204792 4.5074177 10579025
5.6089172 -0.79204792 4.5074177 10514258
0 0 0 10251343
0 0 0 10251343
0 0 0 10119761
0 0 0 10381393
0 0 0 10251089
0 0 0 8672571
0 0 0 8541242
-3.7242663 -0.51766604 3.1205199 8278583
-4.0013905 -0.56080484 3.380563 8475709
-3.9681594 -0.56080484 3.380563 8541242
-3.9349284 -0.56080484 3.380563 8607035
-3.9016974 -0.56080484 3.380563 8540988
-3.8684664 -0.56080484 3.380563 8607038
-4.1838932 -0.61178708 3.687887 9067842
-4.1476407 -0.61178708 3.687887 9922119
-4.5225282 -0.67296582 4.0566759 10841932
-4.0751367 -0.61178708 3.687887 11104333
-4.0388846 -0.61178708 3.687887 11039052
-3.6690798 -0.56080484 3.380563 10973771
-3.6358488 -0.56080484 3.380563 11039053
-3.6026175 -0.56080484 3.380563 11104333
-3.2948184 -0.51766604 3.1205199 11235917
-3.5361555 -0.56080484 3.380563 11235917
-3.2334688 -0.51766604 3.1205199 11301964
-2.7757545 -0.44864386 2.7044504 11433550
-2.5773466 -0.42060363 2.5354223 11235914
-2.4022808 -0.39586222 2.3862798 11236174
-2.5275002 -0.42060363 2.5354223 11301965
-2.669415 -0.44864386 2.7044504 11301453
-2.6428301 -0.44864386 2.7044504 11104333
-2.6162453 -0.44864386 2.7044504 11105101
-2.5896604 -0.44864386 2.7044504 11629132
-2.5630755 -0.44864386 2.7044504 11301965
-2.3779602 -0.42060363 2.5354223 11235916
-2.214623 -0.39586222 2.3862798 11235659
-1.7738007 -0.3204599 1.9317503 11170124
-1.7548115 -0.3204599 1.9317503 11235916
-1.7358223 -0.3204599 1.9317503 11236174
-1.7168331 -0.3204599 1.9317503 11301967
-1.697844 -0.3204599 1.9317503 11367246
-1.468998 -0.28040242 1.6902815 11498062
-1.3942871 -0.26918632 1.6226703 11498318
-1.3783362 -0.26918632 1.6226703 11564623
-1.3623853 -0.26918632 1.6226703 11563855
-0.7012679 -0.14020121 0.84514076 11630418
-0.67881811 -0.13733996 0.82789302 11564625
-0.67067987 -0.13733996 0.82789302 11630673
-0.66254163 -0.13733996 0.82789302 11630417
-0.60501444 -0.12697467 0.76541048 11433295
-0.56548202 -0.12017246 0.72440636 11762258
-0.58996642 -0.12697467 0.76541048 11695955
-0.55124015 -0.12017246 0.72440636 11696465
-0.54411918 -0.12017246 0.72440636 11762258
-0.53699821 -0.12017246 0.72440636 11695950
-0.61819017 -0.14020121 0.84514076 11762256
-0.60988241 -0.14020121 0.84514076 12155987
-0.49785486 -0.11602858 0.69942683 12155731
-0.49097946 -0.11602858 0.69942683 12351568
-0.48410407 -0.11602858 0.69942683 12090451
-0.47722867 -0.11602858 0.69942683 12353109
-0.46238121 -0.114062 0.68757218 12418131
-0.45562235 -0.114062 0.68757218 12288082
-0.45660248 -0.11602858 0.69942683 12483154
-0.44972709 -0.11602858 0.69942683 12485207
-0.45062104 -0.11806418 0.71169752 12484689
-0.443625 -0.11806418 0.71169752 12812110
-0.436629 -0.11806418 0.71169752 5779237
-0.42963299 -0.11806418 0.71169752 4663078
-0.42263696 -0.11806418 0.71169752 4335142
-0.40847468 -0.11602858 0.69942683 4269349
-0.39479256 -0.114062 0.68757218 4269351
-0.38803369 -0.114062 0.68757218 4007205
-0.37492022 -0.11216097 0.67611259 3020309
-0.368274 -0.11216097 0.67611259 1771532
-0.36162779 -0.11216097 0.67611259 1838611
-0.36099821 -0.114062 0.68757218 2429206
-0.35423937 -0.114062 0.68757218 2362898
-0.34748051 -0.114062 0.68757218 2099726
-0.34659612 -0.11602858 0.69942683 1968397
-0.33972073 -0.11602858 0.69942683 2231311
-0.33284533 -0.11602858 0.69942683 2757139
-0.33168873 -0.11806418 0.71169752 3347734
-0.3246927 -0.11806418 0.71169752 3479574
-0.31769669 -0.11806418 0.71169752 3740950
-0.31070065 -0.11806418 0.71169752 3084560
-0.30370465 -0.11806418 0.71169752 2165517
-0.30200699 -0.12017246 0.72440636 2363151
-0.29488602 -0.12017246 0.72440636 2231568
-0.28776509 -0.12017246 0.72440636 3413780
-0.28574675 -0.12235741 0.73757738 3412754
-0.28365368 -0.1246233 0.75123626 3281684
-0.28148162 -0.12697467 0.76541048 3675412
-0.27395758 -0.12697467 0.76541048 3806997
-0.2715573 -0.12941651 0.78012997 2692116
-0.26906288 -0.13195407 0.79542661 1180681
-0.26646867 -0.13459316 0.81133515 2035215
-0.26376858 -0.13733996 0.82789302 10973003
0 0 0 11827531
0 0 0 12089679
0 0 0 12221006
0 0 0 12089933
0 0 0 11761484
0 0 0 11366728
0 0 0 11301192
0 0 0 11301449
0 0 0 11235400
0 0 0 11301195
-0.94868416 -0.74773979 4.5074177 11564108
-0.90437603 -0.74773979 4.5074177 11695692
-0.86006796 -0.74773979 4.5074177 12220494
-0.91772974 -0.84120727 5.0708447 12352851
-0.86788315 -0.84120727 5.0708447 12878166
-0.93489885 -0.96137971 5.7952509 12943954
-0.76818985 -0.84120727 5.0708447 13470296
-0.71834326 -0.84120727 5.0708447 13601625
-0.66849661 -0.84120727 5.0708447 13864282
-0.70702851 -0.96137971 5.7952509 14191964
-0.65006095 -0.96137971 5.7952509 14324063
-0.5930934 -0.96137971 5.7952509 14390109
-0.41698676 -0.74773979 4.5074177 13996895
-0.37267864 -0.74773979 4.5074177 14586974
-0.32837051 -0.74773979 4.5074177 14456673
-0.28406242 -0.74773979 4.5074177 14586975
-0.23975429 -0.74773979 4.5074177 14521439
-0.19544616 -0.74773979 4.5074177 14520669
-0.15113805 -0.74773979 4.5074177 14258269
-0.10682993 -0.74773979 4.5074177 13864794
-0.070337035 -0.84120727 5.0708447 13995355
-0.020490404 -0.84120727 5.0708447 13141078
0.029356226 -0.84120727 5.0708447 13075543
0.079202853 -0.84120727 5.0708447 12812115
0.12904948 -0.84120727 5.0708447 12023373
0.17889611 -0.84120727 5.0708447 9790525
0.22874275 -0.84120727 5.0708447 1311496
0.27858937 -0.84120727 5.0708447 1246477
0.32843602 -0.84120727 5.0708447 918282
0.37828264 -0.84120727 5.0708447 1246728
0.42812929 -0.84120727 5.0708447 2100482
0.4779759 -0.84120727 5.0708447 4531474
0.52782255 -0.84120727 5.0708447 11104328
0.57766914 -0.84120727 5.0708447 11235917
0.62751579 -0.84120727 5.0708447 11695695
0.67736244 -0.84120727 5.0708447 12089679
0.64640808 -0.74773979 4.5074177 12483154
0.69071621 -0.74773979 4.5074177 12615510
0.73502433 -0.74773979 4.5074177 12616277
0.77933246 -0.74773979 4.5074177 13009493
0.82364053 -0.74773979 4.5074177 13009493
0.86794865 -0.74773979 4.5074177 12943959
0.91225678 -0.74773979 4.5074177 13404251
0.9565649 -0.74773979 4.5074177 13403481
0.90078574 -0.67296582 4.0566759 13404507
0.85514814 -0.61178708 3.687887 13338458
0.81711692 -0.56080484 3.380563 13470301
0.850348 -0.56080484 3.380563 13732957
0.81561148 -0.51766604 3.1205199 13601630
1.0001565 -0.61178708 3.687887 13797208
1.0364087 -0.61178708 3.687887 13536606
1.0726607 -0.61178708 3.687887 13667420
1.1089128 -0.61178708 3.687887 13798492
1.145165 -0.61178708 3.687887 13930590
1.181417 -0.61178708 3.687887 14062690
1.2176691 -0.61178708 3.687887 14061665
1.2539212 -0.61178708 3.687887 14127454
1.1826588 -0.56080484 3.380563 14061665
1.3264254 -0.61178708 3.687887 13995871
1.4989454 -0.67296582 4.0566759 13996383
1.5388227 -0.67296582 4.0566759 13668190
1.4351816 -0.61178708 3.687887 13995872
1.4714338 -0.61178708 3.687887 14257757
1.5076859 -0.61178708 3.687887 13930595
1.8870354 -0.74773979 4.5074177 13995872
1.9313436 -0.74773979 4.5074177 13733470
1.9756516 -0.74773979 4.5074177 13995101
2.0199597 -0.74773979 4.5074177 13732699
1.8578411 -0.67296582 4.0566759 13799263
1.7251984 -0.61178708 3.687887 13930849
1.614663 -0.56080484 3.380563 13863512
1.5211331 -0.51766604 3.1205199 13600600
1.5518079 -0.51766604 3.1205199 13536349
1.5824827 -0.51766604 3.1205199 13404508
1.6131576 -0.51766604 3.1205199 13010268
1.6438324 -0.51766604 3.1205199 12748124
1.6745073 -0.51766604 3.1205199 13207131
1.7051822 -0.51766604 3.1205199 12944729
1.735857 -0.51766604 3.1205199 13010010
1.9137428 -0.56080484 3.380563 13010010
2.1239715 -0.61178708 3.687887 12812631
2.1602235 -0.61178708 3.687887 12681557
2.1964757 -0.61178708 3.687887 12484695
2.2327278 -0.61178708 3.687887 12353623
2.2689798 -0.61178708 3.687887 12418391
2.5357554 -0.67296582 4.0566759 12287060
2.861814 -0.74773979 4.5074177 12221782
2.9061222 -0.74773979 4.5074177 12091480
2.9504302 -0.74773979 4.5074177 11893331
2.6952646 -0.67296582 4.0566759 11762262
2.4864924 -0.61178708 3.687887 11892819
2.5227444 -0.61178708 3.687887 11827281
2.5589967 -0.61178708 3.687887 11827797
2.5952487 -0.61178708 3.687887 11499343
2.8946509 -0.67296582 4.0566759 11893074
2.9345284 -0.67296582 4.0566759 11367248
2.9744058 -0.67296582 4.0566759 11236689
3.0142829 -0.67296582 4.0566759 11171409
3.0541604 -0.67296582 4.0566759 11235665
3.0940375 -0.67296582 4.0566759 10973265
3.9173934 -0.84120727 5.0708447 10974291
3.5264359 -0.74773979 4.5074177 10973776
3.5707438 -0.74773979 4.5074177 11104851
4.0669332 -0.84120727 5.0708447 11169869
4.1167798 -0.84120727 5.0708447 10907985
4.1666265 -0.84120727 5.0708447 10776403
3.7479763 -0.74773979 4.5074177 10972495
3.7922845 -0.74773979 4.5074177 10973519
3.8365927 -0.74773979 4.5074177 10842447
3.4928107 -0.67296582 4.0566759 10710864
3.2115343 -0.61178708 3.687887 10776401
2.9771376 -0.56080484 3.380563 10645329
3.0103686 -0.56080484 3.380563 10448976
3.0435996 -0.56080484 3.380563 10447952
2.8401515 -0.51766604 3.1205199 10579535
3.7320745 -0.67296582 4.0566759 10513227
3.7719517 -0.67296582 4.0566759 10382156
3.8118291 -0.67296582 4.0566759 10185549
3.5015512 -0.61178708 3.687887 10120268
3.8915837 -0.67296582 4.0566759 10054731
4.3682899 -0.74773979 4.5074177 10185550
4.4125981 -0.74773979 4.5074177 10119757
4.4569063 -0.74773979 4.5074177 10184782
4.5012145 -0.74773979 4.5074177 10054479
4.5455227 -0.74773979 4.5074177 10054479
4.1308475 -0.67296582 4.0566759 10185034
4.1707249 -0.67296582 4.0566759 10053194
4.2106023 -0.67296582 4.0566759 10120014
4.2504797 -0.67296582 4.0566759 9856845
3.9003241 -0.61178708 3.687887 10119758
3.9365761 -0.61178708 3.687887 9922379
3.9728284 -0.61178708 3.687887 10054224
3.6749904 -0.56080484 3.380563 10184780
3.7082214 -0.56080484 3.380563 9988171
4.4897432 -0.67296582 4.0566759 9988686
4.5296206 -0.67296582 4.0566759 10118989
4.5694981 -0.67296582 4.0566759 10447436
5.1215281 -0.74773979 4.5074177 10447182
5.1658363 -0.74773979 4.5074177 10315853
5.210144 -0.74773979 4.5074177 10316108
5.2544522 -0.74773979 4.5074177 10447439
5.2987604 -0.74773979 4.5074177 10381647
5.3430686 -0.74773979 4.5074177 10513490
6.0607986 -0.84120727 5.0708447 10382159
6.1106453 -0.84120727 5.0708447 10448722
5.4759932 -0.74773979 4.5074177 10447182
4.9682708 -0.67296582 4.0566759 10578509
5.0081482 -0.67296582 4.0566759 10447952
5.6089172 -0.74773979 4.5074177 10447183
0 0 0 10446926
0 0 0 10250832
0 0 0 10316626
0 0 0 10447953
0 0 0 10316882
0 0 0 8672827
0 0 0 8541240
-3.7242663 -0.48699117 3.1205199 8344375
-3.6935916 -0.48699117 3.1205199 8410170
-3.9681594 -0.52757376 3.380563 8410170
-3.9349284 -0.52757376 3.380563 8344379
-3.9016974 -0.52757376 3.380563 8475451
-3.8684664 -0.52757376 3.380563 8607038
-3.8352351 -0.52757376 3.380563 8607294
-4.1476407 -0.575535 3.687887 9462086
-4.1113887 -0.575535 3.687887 10381385
-4.0751367 -0.575535 3.687887 11104081
-4.0388846 -0.575535 3.687887 10972749
-4.0026326 -0.575535 3.687887 10908237
-3.6358488 -0.52757376 3.380563 11104328
-3.6026175 -0.52757376 3.380563 11169867
-3.2948184 -0.48699117 3.1205199 11039310
-3.2641437 -0.48699117 3.1205199 11038795
-3.2334688 -0.48699117 3.1205199 11170124
-2.9740229 -0.45220605 2.8976254 11235661
-2.4257381 -0.37240499 2.3862798 11169868
-2.4022808 -0.37240499 2.3862798 11235917
-2.3788235 -0.37240499 2.3862798 10907722
-2.3553662 -0.37240499 2.3862798 11105103
-2.6428301 -0.42205897 2.7044504 11301455
-2.6162453 -0.42205897 2.7044504 11104331
-2.5896604 -0.42205897 2.7044504 11498062
-2.4028835 -0.39568031 2.5354223 11235917
-2.3779602 -0.39568031 2.5354223 11366990
-2.214623 -0.37240499 2.3862798 11498320
-1.8624909 -0.31654426 2.028338 11366991
-1.7548115 -0.3014707 1.9317503 11235919
-1.7358223 -0.3014707 1.9317503 11235917
-1.7168331 -0.3014707 1.9317503 11498832
-1.697844 -0.3014707 1.9317503 11301712
-1.6788548 -0.3014707 1.9317503 11432269
-1.4523824 -0.26378688 1.6902815 11367246
-1.3783362 -0.2532354 1.6226703 11564367
-1.3623853 -0.2532354 1.6226703 11498316
-0.7012679 -0.13189344 0.84514076 11564880
-0.69296008 -0.13189344 0.84514076 11499343
-0.68465233 -0.13189344 0.84514076 11630159
-0.61253846 -0.11945066 0.76541048 11761232
-0.60501444 -0.11945066 0.76541048 11761488
-0.5555613 -0.11106816 0.71169752 11564879
-0.54856527 -0.11106816 0.71169752 12089682
-0.54156929 -0.11106816 0.71169752 11761232
-0.54411918 -0.11305151 0.72440636 11893333
-0.56739438 -0.11945066 0.76541048 11893074
-0.61819017 -0.13189344 0.84514076 12090195
-0.60988241 -0.13189344 0.84514076 12090450
-0.49785486 -0.10915319 0.69942683 11958863
-0.48265779 -0.10730314 0.68757218 12286545
-0.48410407 -0.10915319 0.69942683 12156242
-0.46914008 -0.10730314 0.68757218 12221777
-0.46238121 -0.10730314 0.68757218 12352851
-0.45562235 -0.10730314 0.68757218 12352338
-0.46461308 -0.11106816 0.71169752 12746580
-0.45761704 -0.11106816 0.71169752 12812630
-0.45062104 -0.11106816 0.71169752 12747093
-0.443625 -0.11106816 0.71169752 12747093
-0.436629 -0.11106816 0.71169752 12024915
-0.42963299 -0.11106816 0.71169752 5516838
-0.42263696 -0.11106816 0.71169752 4400420
-0.40847468 -0.10915319 0.69942683 4204326
-0.40159929 -0.10915319 0.69942683 4006947
-0.38803369 -0.10730314 0.68757218 2888725
-0.37492022 -0.10551474 0.67611259 1180680
-0.368274 -0.10551474 0.67611259 1641489
-0.36775708 -0.10730314 0.68757218 2166804
-0.36099821 -0.10730314 0.68757218 1772303
-0.35423937 -0.10730314 0.68757218 1640462
-0.34748051 -0.10730314 0.68757218 1705740
-0.34659612 -0.10915319 0.69942683 1837838
-0.33972073 -0.10915319 0.69942683 2232083
-0.33284533 -0.10915319 0.69942683 2954007
-0.33168873 -0.11106816 0.71169752 3610648
-0.3246927 -0.11106816 0.71169752 3479318
-0.31769669 -0.11106816 0.71169752 3872790
-0.31070065 -0.11106816 0.71169752 3610134
-0.30370465 -0.11106816 0.71169752 3151122
-0.29670861 -0.11106816 0.71169752 2756880
-0.29488602 -0.11305151 0.72440636 2691603
-0.28776509 -0.11305151 0.72440636 3216659
-0.28064415 -0.11305151 0.72440636 3938582
-0.28900564 -0.11945066 0.76541048 3873303
-0.28148162 -0.11945066 0.76541048 3938583
-0.27922603 -0.12174779 0.78012997 4200726
-0.27688196 -0.124135 0.79542661 2757137
-0.26906288 -0.124135 0.79542661 1509131
-0.27190682 -0.12920174 0.82789302 1246730
-0.26926374 -0.13189344 0.84514076 7228996
-0.30550945 -0.15441182 0.98943311 10643523
0 0 0 11235144
0 0 0 11431238
0 0 0 11170378
0 0 0 11038534
0 0 0 10775619
0 0 0 10315586
0 0 0 10906950
0 0 0 11432009
0 0 0 11432265
-0.77619612 -0.575535 3.687887 11498828
-0.73994398 -0.575535 3.687887 12155731
-0.96757638 -0.79136062 5.0708447 12615506
-1.048834 -0.90441209 5.7952509 12878935
-0.99186641 -0.90441209 5.7952509 13010522
-0.93489885 -0.90441209 5.7952509 11892554
-0.76818985 -0.79136062 5.0708447 13601114
-0.71834326 -0.79136062 5.0708447 13798489
-0.66849661 -0.79136062 5.0708447 13930077
-0.70702851 -0.90441209 5.7952509 14324063
-0.65006095 -0.90441209 5.7952509 14455388
-0.51895672 -0.79136062 5.0708447 14455903
-0.46911007 -0.79136062 5.0708447 14390110
-0.37267864 -0.70343173 4.5074177 14389853
-0.36941683 -0.79136062 5.0708447 14587487
-0.31957018 -0.79136062 5.0708447 14389854
-0.26972356 -0.79136062 5.0708447 14258784
-0.19544616 -0.70343173 4.5074177 14389339
-0.19432034 -0.90441209 5.7952509 14258012
-0.13735276 -0.90441209 5.7952509 14060636
-0.080385178 -0.90441209 5.7952509 11764310
-0.023417605 -0.90441209 5.7952509 1311497
0.029356226 -0.79136062 5.0708447 1904651
0.079202853 -0.79136062 5.0708447 5909534
0.12904948 -0.79136062 5.0708447 11366980
0.17889611 -0.79136062 5.0708447 2691846
0.22874275 -0.79136062 5.0708447 918536
0.27858937 -0.79136062 5.0708447 1115145
0.32843602 -0.79136062 5.0708447 918536
0.37828264 -0.79136062 5.0708447 984075
0.42812929 -0.79136062 5.0708447 1246731
0.4779759 -0.79136062 5.0708447 1444110
0.52782255 -0.79136062 5.0708447 8081718
0.66019332 -0.90441209 5.7952509 10184003
0.71716088 -0.90441209 5.7952509 11170124
0.7741285 -0.90441209 5.7952509 11957582
0.72720903 -0.79136062 5.0708447 12089683
0.77705568 -0.79136062 5.0708447 12222035
0.73502433 -0.70343173 4.5074177 12681557
0.77933246 -0.70343173 4.5074177 12747348
0.82364053 -0.70343173 4.5074177 12813656
0.86794865 -0.70343173 4.5074177 13142106
0.91225678 -0.70343173 4.5074177 13075543
0.9565649 -0.70343173 4.5074177 13076313
0.90078574 -0.63308853 4.0566759 13404505
0.85514814 -0.575535 3.687887 13470301
0.81711692 -0.52757376 3.380563 13339484
0.78493661 -0.48699117 3.1205199 13470556
0.81561148 -0.48699117 3.1205199 13536094
0.91681015 -0.52757376 3.380563 13601372
0.95004123 -0.52757376 3.380563 13601626
0.98327231 -0.52757376 3.380563 13864798
1.0165035 -0.52757376 3.380563 13799519
1.0497345 -0.52757376 3.380563 13733982
1.181417 -0.575535 3.687887 13930077
1.2176691 -0.575535 3.687887 14257757
1.2539212 -0.575535 3.687887 14060893
1.2901733 -0.575535 3.687887 14258272
1.3264254 -0.575535 3.687887 14060893
1.3626775 -0.575535 3.687887 13799520
1.3989296 -0.575535 3.687887 13733726
1.4351816 -0.575535 3.687887 13995868
1.4714338 -0.575535 3.687887 13799518
1.6584545 -0.63308853 4.0566759 13799263
1.6983318 -0.63308853 4.0566759 13732443
1.7382091 -0.63308853 4.0566759 13732700
1.9756516 -0.70343173 4.5074177 13667421
1.8179637 -0.63308853 4.0566759 13536090
1.8578411 -0.63308853 4.0566759 13535834
1.5814319 -0.52757376 3.380563 13601627
1.614663 -0.52757376 3.380563 13404253
1.5211331 -0.48699117 3.1205199 13536094
1.5518079 -0.48699117 3.1205199 13207129
1.5824827 -0.48699117 3.1205199 13272922
1.6131576 -0.48699117 3.1205199 13207129
1.6438324 -0.48699117 3.1205199 13010264
1.6745073 -0.48699117 3.1205199 12944729
1.7051822 -0.48699117 3.1205199 12943705
1.735857 -0.48699117 3.1205199 12878169
1.7665318 -0.48699117 3.1205199 12681817
1.9469738 -0.52757376 3.380563 12681559
1.9802049 -0.52757376 3.380563 12681303
2.0134361 -0.52757376 3.380563 12615769
2.0466671 -0.52757376 3.380563 12419418
2.0798981 -0.52757376 3.380563 12353367
2.1131291 -0.52757376 3.380563 12090451
2.5756326 -0.63308853 4.0566759 12351827
2.61551 -0.63308853 4.0566759 12156244
2.6553872 -0.63308853 4.0566759 11564883
2.6952646 -0.63308853 4.0566759 11696470
2.4864924 -0.575535 3.687887 11498834
2.5227444 -0.575535 3.687887 11499604
2.5589967 -0.575535 3.687887 11433553
2.5952487 -0.575535 3.687887 11498832
2.6315007 -0.575535 3.687887 11499091
2.9345284 -0.63308853 4.0566759 11104335
2.704005 -0.575535 3.687887 10645065
2.5119023 -0.52757376 3.380563 9921860
2.1815429 -0.45220605 2.8976254 9658174
1.5470188 -0.31654426 2.028338 8539439
1.4923403 -0.3014707 1.9317503 7027491
1.5113295 -0.3014707 1.9317503 5384984
1.6068348 -0.31654426 2.028338 5451291
3.2535467 -0.63308853 4.0566759 10841163
4.1167798 -0.79136062 5.0708447 10907213
0 0 0 10841933
0 0 0 10777171
3.7922845 -0.70343173 4.5074177 10711378
3.4529333 -0.63308853 4.0566759 10710606
2.9106753 -0.52757376 3.380563 10711120
2.9439063 -0.52757376 3.380563 10710606
2.9771376 -0.52757376 3.380563 10251599
2.7788019 -0.48699117 3.1205199 10382671
2.8094769 -0.48699117 3.1205199 10382926
2.8401515 -0.48699117 3.1205199 10447950
2.8708265 -0.48699117 3.1205199 10447693
2.9015014 -0.48699117 3.1205199 10512972
3.8118291 -0.63308853 4.0566759 10316620
3.5015512 -0.575535 3.687887 10185034
3.5378032 -0.575535 3.687887 10381643
4.3682899 -0.70343173 4.5074177 10054479
4.4125981 -0.70343173 4.5074177 9923663
4.4569063 -0.70343173 4.5074177 10184781
4.5012145 -0.70343173 4.5074177 10119246
4.5455227 -0.70343173 4.5074177 10119757
3.4423728 -0.52757376 3.380563 10119757
3.4756038 -0.52757376 3.380563 9922380
3.2389247 -0.48699117 3.1205199 10184782
3.2695994 -0.48699117 3.1205199 10184782
3.5752971 -0.52757376 3.380563 10184782
3.6085281 -0.52757376 3.380563 9988171
3.6417592 -0.52757376 3.380563 9988171
3.3922989 -0.48699117 3.1205199 9986890
3.4229739 -0.48699117 3.1205199 9856844
3.2069592 -0.45220605 2.8976254 10185040
4.1178365 -0.575535 3.687887 10250571
4.154089 -0.575535 3.687887 10316107
5.1215281 -0.70343173 4.5074177 10250827
5.1658363 -0.70343173 4.5074177 10513229
5.210144 -0.70343173 4.5074177 10053964
5.2544522 -0.70343173 4.5074177 10512719
5.2987604 -0.70343173 4.5074177 10381648
5.3430686 -0.70343173 4.5074177 10315856
5.3873768 -0.70343173 4.5074177 10381391
5.431685 -0.70343173 4.5074177 10315597
4.9283938 -0.63308853 4.0566759 10447954
4.9682708 -0.63308853 4.0566759 10316111
5.0081482 -0.63308853 4.0566759 10251090
5.6089172 -0.70343173 4.5074177 10382676
0 0 0 10185810
0 0 0 10120272
0 0 0 10382929
0 0 0 10381643
0 0 0 10250577
0 0 0 8279097
0 0 0 8213049
-2.8479683 -0.34894776 2.3862798 8409913
-3.4297633 -0.42372227 2.8976254 8278585
-3.6629167 -0.45631632 3.1205199 8344377
-3.9349284 -0.49434265 3.380563 8343609
-3.9016974 -0.49434265 3.380563 8409659
-3.8684664 -0.49434265 3.380563 8343866
-3.8352351 -0.49434265 3.380563 8672831
-3.8020041 -0.49434265 3.380563 8673088
-4.1113887 -0.53928292 3.687887 9593930
-4.4826508 -0.59321123 4.0566759 10185295
-4.4427733 -0.59321123 4.0566759 10973263
-4.0026326 -0.53928292 3.687887 10645581
-3.6358488 -0.49434265 3.380563 10842445
-3.6026175 -0.49434265 3.380563 10776910
-3.2948184 -0.45631632 3.1205199 10906954
-3.2641437 -0.45631632 3.1205199 10841931
-3.2334688 -0.45631632 3.1205199 10776138
-2.9740229 -0.42372227 2.8976254 10972749
-2.4257381 -0.34894776 2.3862798 10907726
-2.4022808 -0.34894776 2.3862798 11170896
-2.3788235 -0.34894776 2.3862798 10972747
-2.3553662 -0.34894776 2.3862798 11169869
-2.3319092 -0.34894776 2.3862798 11104588
-2.6162453 -0.39547411 2.7044504 11039308
-2.5896604 -0.39547411 2.7044504 11169868
-2.4028835 -0.37075698 2.5354223 11498062
-2.23808 -0.34894776 2.3862798 11235919
-2.214623 -0.34894776 2.3862798 11301710
-2.1911657 -0.34894776 2.3862798 11433040
-1.7548115 -0.28248152 1.9317503 11301454
-1.7358223 -0.28248152 1.9317503 11170637
-1.7168331 -0.28248152 1.9317503 11301710
-1.697844 -0.28248152 1.9317503 11630159
-1.6788548 -0.28248152 1.9317503 11367758
-1.5844171 -0.26964146 1.8439435 11170381
-1.3783362 -0.23728448 1.6226703 11170123
-1.3099859 -0.22815816 1.5602599 11367502
-0.7012679 -0.12358566 0.84514076 11432269
-0.69296008 -0.12358566 0.84514076 11499091
-0.68465233 -0.12358566 0.84514076 11367246
-0.61253846 -0.11192664 0.76541048 11499089
-0.57260299 -0.10593057 0.72440636 11762004
-0.5555613 -0.10407215 0.71169752 11564877
-0.54856527 -0.10407215 0.71169752 11827023
-0.54156929 -0.10407215 0.71169752 11761487
-0.55401224 -0.10785658 0.73757738 11696464
-0.56739438 -0.11192664 0.76541048 11761488
-0.60557407 -0.12106351 0.82789302 11826767
-0.55234629 -0.11192664 0.76541048 12024660
-0.50658917 -0.10407215 0.71169752 12221267
-0.48265779 -0.10054427 0.68757218 12221265
-0.47589895 -0.10054427 0.68757218 12090449
-0.46914008 -0.10054427 0.68757218 12352595
-0.46238121 -0.10054427 0.68757218 12485207
-0.46347788 -0.10227779 0.69942683 12484950
-0.46461308 -0.10407215 0.71169752 12615763
-0.45761704 -0.10407215 0.71169752 12812629
-0.45062104 -0.10407215 0.71169752 12681046
-0.45154688 -0.10593057 0.72440636 13074518
-0.44442591 -0.10593057 0.72440636 12878678
-0.42963299 -0.10407215 0.71169752 10184766
-0.42263696 -0.10407215 0.71169752 4532002
-0.40847468 -0.10227779 0.69942683 3941154
-0.40159929 -0.10227779 0.69942683 3283482
-0.38803369 -0.10054427 0.68757218 2035217
-0.38127482 -0.10054427 0.68757218 1706509
-0.368274 -0.098868527 0.67611259 1837583
-0.36775708 -0.10054427 0.68757218 1180937
-0.36099821 -0.10054427 0.68757218 1247247
-0.35423937 -0.10054427 0.68757218 1970200
-0.34748051 -0.10054427 0.68757218 2429462
-0.34072164 -0.10054427 0.68757218 2494484
-0.33972073 -0.10227779 0.69942683 2955034
-0.33284533 -0.10227779 0.69942683 3808800
-0.32596993 -0.10227779 0.69942683 3676699
-0.3246927 -0.10407215 0.71169752 3741720
-0.31769669 -0.10407215 0.71169752 3610388
-0.31070065 -0.10407215 0.71169752 3413523
-0.30370465 -0.10407215 0.71169752 3150610
-0.30200699 -0.10593057 0.72440636 2691087
-0.29488602 -0.10593057 0.72440636 2888466
-0.28776509 -0.10593057 0.72440636 3347990
-0.28574675 -0.10785658 0.73757738 3675924
-0.28900564 -0.11192664 0.76541048 4267030
-0.28148162 -0.11192664 0.76541048 4267287
-0.27922603 -0.11407908 0.78012997 4266773
-0.27688196 -0.11631592 0.79542661 4135703
-0.27444413 -0.11864224 0.81133515 2954003
-0.27190682 -0.12106351 0.82789302 1968655
-0.26926374 -0.12358566 0.84514076 5521731
-0.27835307 -0.1318247 0.90148348 6310206
0 0 0 6441020
0 0 0 6506813
0 0 0 6768443
0 0 0 7227447
0 0 0 7423022
0 0 0 10644298
0 0 0 11104588
0 0 0 11761231
0 0 0 12024402
0 0 0 12353106
-1.017423 -0.74151397 5.0708447 12680533
-1.5481223 -1.1864225 8.1133518 13009493
-1.4683677 -1.1864225 8.1133518 13075540
-1.3886131 -1.1864225 8.1133518 13272917
-1.0907153 -0.98868531 6.761126 10444854
-0.87793124 -0.84744453 5.7952509 13536091
-0.71834326 -0.74151397 5.0708447 13601112
-0.66849661 -0.74151397 5.0708447 13995100
-0.61864996 -0.74151397 5.0708447 13996381
-0.56880337 -0.74151397 5.0708447 14651997
-0.51895672 -0.74151397 5.0708447 14455388
-0.46911007 -0.74151397 5.0708447 14521696
