# .PCD v0.7 - Point Cloud Data file format
VERSION 0.7
FIELDS x y z rgb
SIZE 4 4 4 4
TYPE F F F U
COUNT 1 1 1 1
WIDTH 1283
HEIGHT 1
VIEWPOINT 0 0 0 1 0 0 0
POINTS 1283
DATA ascii
1.3756093 0.443266 1.4488127 9386794
1.3419253 0.42798096 1.3988537 9386794
1.3556761 0.42798096 1.3988537 9779751
1.3694268 0.42798096 1.3988537 9649194
1.4325769 0.443266 1.4488127 9517095
1.9290917 0.5910213 1.9317503 9517353
1.9480809 0.5910213 1.9317503 9451303
1.9670701 0.5910213 1.9317503 9648680
1.6682899 0.49645793 1.6226703 9517607
1.4519317 0.42798096 1.3988537 9649963
1.5180283 0.443266 1.4488127 9847082
1.6501372 0.47736341 1.5602599 10044206
1.7320936 0.49645793 1.6226703 9978671
1.680812 0.47736341 1.5602599 10109999
1.6961495 0.47736341 1.5602599 9978155
1.7114869 0.47736341 1.5602599 10043692
1.7268243 0.47736341 1.5602599 9714987
1.6776372 0.45968327 1.5024725 9518893
1.7574992 0.47736341 1.5602599 8797997
1.7728366 0.47736341 1.5602599 7485482
1.8597009 0.49645793 1.6226703 7551790
1.8756518 0.49645793 1.6226703 6959654
2.0560899 0.53962815 1.763772 6238245
2.2708972 0.5910213 1.9317503 5845285
2.8286831 0.73008519 2.3862798 5911335
0 0 0 5845542
0 0 0 6633770
0 0 0 8143924
0 0 0 9323570
0 0 0 9978929
0 0 0 9519407
0 0 0 9717040
0 0 0 9716527
0 0 0 9913392
0 0 0 9847600
0 0 0 9716013
0 0 0 5451557
0 0 0 6502957
-1.1527491 0.30500525 0.96587515 6306345
-1.333797 0.35583949 1.1268544 6240552
-1.2869707 0.34622219 1.0963988 6567975
-1.276193 0.34622219 1.0963988 6567977
-1.0888458 0.29791212 0.94341296 6896427
-1.0550363 0.29114139 0.92197174 6766895
-1.0702982 0.29791212 0.94341296 4730660
-1.0610244 0.29791212 0.94341296 2100748
-1.1030556 0.31244442 0.98943311 1903888
-1.0933294 0.31244442 0.98943311 1772817
-1.0836033 0.31244442 0.98943311 1772817
-1.100724 0.32025555 1.014169 1707024
-1.0907546 0.32025555 1.014169 1575695
-1.0807854 0.32025555 1.014169 1641488
-1.0982728 0.32846722 1.0401733 1707024
-1.1468612 0.34622219 1.0963988 1969424
-1.2010027 0.36600631 1.1590502 1838353
-1.1565645 0.35583949 1.1268544 1838610
-1.0851986 0.33711109 1.0675462 1642258
-1.0747045 0.33711109 1.0675462 1116684
-0.96285713 0.30500525 0.96587515 1576466
-0.81716794 0.26143309 0.82789302 2233625
-0.77730304 0.2511808 0.79542661 3350822
-0.76948392 0.2511808 0.79542661 2166795
-0.7470175 0.24635041 0.78012997 2961198
-0.73934877 0.24635041 0.78012997 1710870
-0.7316801 0.24635041 0.78012997 1640200
-0.73820764 0.2511808 0.79542661 1838353
-0.73038858 0.2511808 0.79542661 2298390
-0.73702085 0.25620443 0.81133515 3480862
-0.72904539 0.25620443 0.81133515 4598564
-0.73578566 0.26143309 0.82789302 4928806
-0.72764742 0.26143309 0.82789302 4147253
-0.71950924 0.26143309 0.82789302 3024923
-0.68347406 0.2511808 0.79542661 3086872
-0.66266167 0.24635041 0.78012997 1310981
-0.64263457 0.24170227 0.76541048 2363671
-0.59054142 0.22474073 0.71169752 6044475
-0.58354539 0.22474073 0.71169752 7290416
-0.57654935 0.22474073 0.71169752 7025958
-0.57972389 0.22875394 0.72440636 6105889
-0.56255734 0.22474073 0.71169752 4857625
-0.56548202 0.22875394 0.72440636 3674641
-0.55836105 0.22875394 0.72440636 5384230
-0.62998873 0.26143309 0.82789302 6171940
-0.70862037 0.29791212 0.94341296 5382426
0 0 0 4134163
0 0 0 2427663
0 0 0 1245704
0 0 0 1245449
0 0 0 2098956
0 0 0 2755599
0 0 0 4267033
0 0 0 6959653
0 0 0 6105886
0 0 0 4857368
-3.72631 1.8300315 5.7952509 5776927
-1.2231141 0.6100105 1.9317503 7548194
-1.2041249 0.6100105 1.9317503 10107948
-1.4639913 0.75354242 2.3862798 10960170
-1.7492199 0.91501576 2.8976254 10960166
-1.7207361 0.91501576 2.8976254 10959398
-1.3161963 0.71167898 2.2537088 11222310
-1.2940422 0.71167898 2.2537088 11353124
-1.2718883 0.71167898 2.2537088 11287845
-1.2497342 0.71167898 2.2537088 11287332
-1.2275801 0.71167898 2.2537088 11222052
-1.0848835 0.6405111 2.028338 11352355
-1.0142331 0.6100105 1.9317503 10958625
-0.80385083 0.49270082 1.5602599 11353639
-0.58575284 0.36600631 1.1590502 11352866
-0.50256443 0.32025555 1.014169 11615525
-0.49259508 0.32025555 1.014169 11484711
-0.48262575 0.32025555 1.014169 11483682
-0.46112821 0.31244442 0.98943311 11484709
-0.44065437 0.30500525 0.96587515 11550245
-0.4211328 0.29791212 0.94341296 11484196
-0.39355415 0.28467157 0.90148348 11615012
-0.37632966 0.27848306 0.88188601 11418916
-0.3598381 0.27255788 0.86312246 11418918
-0.33701262 0.26143309 0.82789302 11484198
-0.32887441 0.26143309 0.82789302 11419431
-0.32073617 0.26143309 0.82789302 11549732
-0.31259793 0.26143309 0.82789302 11549989
-0.30445972 0.26143309 0.82789302 11549730
-0.27395758 0.24170227 0.76541048 11877925
-0.26643357 0.24170227 0.76541048 11812134
-0.25890955 0.24170227 0.76541048 11877927
-0.25138554 0.24170227 0.76541048 11877927
-0.24386151 0.24170227 0.76541048 11680548
-0.23196089 0.23722632 0.75123626 11746341
-0.22457621 0.23722632 0.75123626 11616295
-0.22128946 0.24170227 0.76541048 11484965
-0.21376544 0.24170227 0.76541048 12010023
-0.24842717 0.29114139 0.92197174 12206117
-0.23936415 0.29114139 0.92197174 11746596
0 0 0 11878181
0 0 0 12074790
0 0 0 11811876
-0.24824807 0.35583949 1.1268544 11877924
-0.18973683 0.28467157 0.90148348 11943202
-0.1808752 0.28467157 0.90148348 11615525
-0.17201358 0.28467157 0.90148348 11811361
-0.17074043 0.29791212 0.94341296 11614755
-0.16146663 0.29791212 0.94341296 11681318
-0.1454287 0.28467157 0.90148348 11352353
-0.13656709 0.28467157 0.90148348 11746341
-0.12770545 0.28467157 0.90148348 11746337
-0.12154484 0.29114139 0.92197174 11877155
-0.11248181 0.29114139 0.92197174 11680804
-0.10112059 0.28467157 0.90148348 11745828
-0.090253338 0.27848306 0.88188601 12205347
-0.081584357 0.27848306 0.88188601 11942690
-0.071363986 0.27255788 0.86312246 11877414
-0.061569467 0.26687959 0.84514076 12008740
-0.053261697 0.26687959 0.84514076 11811875
-0.044953924 0.26687959 0.84514076 11942947
-0.037425857 0.27255788 0.86312246 12008997
-0.030914599 0.29114139 0.92197174 11614242
-0.021851575 0.29114139 0.92197174 11811107
-0.012788552 0.29114139 0.92197174 11352098
0 0 0 11614242
0 0 0 11614496
0 0 0 11680289
0 0 0 11680035
0 0 0 11877668
0 0 0 11680035
0 0 0 11812132
0 0 0 11746341
0.33625126 1.423358 4.5074177 11680548
0.2446453 0.91501576 2.8976254 11812134
0.23898795 0.80063885 2.5354223 11942947
0.24838707 0.75354242 2.3862798 11943203
0.38511276 1.0675184 3.380563 11614499
0.55779183 1.423358 4.5074177 11680802
0.54188997 1.2810222 4.0566759 12074788
0.58176726 1.2810222 4.0566759 12074018
0.62164456 1.2810222 4.0566759 11877666
0.66152191 1.2810222 4.0566759 12140326
0.70139921 1.2810222 4.0566759 12270629
0.82364053 1.423358 4.5074177 12074535
0.86794865 1.423358 4.5074177 12008997
0.91225678 1.423358 4.5074177 12205605
0.86090839 1.2810222 4.0566759 11942948
0.81889606 1.1645656 3.687887 12206119
0.72358692 0.98540163 3.1205199 12075047
0.49027017 0.6405111 2.028338 12009254
0.51020885 0.6405111 2.028338 11877414
0.62370288 0.75354242 2.3862798 11943461
0.64716011 0.75354242 2.3862798 11943204
0.49567369 0.55696613 1.763772 11812130
0.47197074 0.51240885 1.6226703 12009767
0.48792166 0.51240885 1.6226703 11811875
0.4498862 0.45750788 1.4488127 11877670
0.46412811 0.45750788 1.4488127 12074533
0.41857377 0.40031943 1.2677112 12008740
0.4597711 0.42700735 1.3522252 11877927
0.47306353 0.42700735 1.3522252 11877414
0.50312686 0.44173175 1.3988537 12008485
0.53533757 0.45750788 1.4488127 11877412
0.54957944 0.45750788 1.4488127 11680034
0.56382138 0.45750788 1.4488127 11680550
0.57806325 0.45750788 1.4488127 11549734
0.59230512 0.45750788 1.4488127 11811878
0.58563161 0.44173175 1.3988537 11680805
0.5993824 0.44173175 1.3988537 11812136
0.63503081 0.45750788 1.4488127 11483684
0.64927274 0.45750788 1.4488127 11484195
0.64063483 0.44173175 1.3988537 11418148
0.63257271 0.42700735 1.3522252 11352355
0.66813642 0.44173175 1.3988537 11352610
0.68188721 0.44173175 1.3988537 11483939
0.695638 0.44173175 1.3988537 11287330
0.70938879 0.44173175 1.3988537 11417891
0.72313958 0.44173175 1.3988537 11221540
0.82191622 0.49270082 1.5602599 11025188
0.83725363 0.49270082 1.5602599 11221283
0.82101363 0.47445264 1.5024725 11352357
0.835783 0.47445264 1.5024725 11089957
0.85055238 0.47445264 1.5024725 11024675
0.89860338 0.49270082 1.5602599 11024677
0.91394079 0.49270082 1.5602599 10893346
0.92927819 0.49270082 1.5602599 10893859
0.90962988 0.47445264 1.5024725 10630944
0.92439926 0.47445264 1.5024725 10893089
0.93916857 0.47445264 1.5024725 11090725
0.95393795 0.47445264 1.5024725 10827553
0.93411064 0.45750788 1.4488127 10828067
0.94835252 0.45750788 1.4488127 10893089
0.99824607 0.47445264 1.5024725 10958882
1.0130155 0.47445264 1.5024725 10565154
0.9910782 0.45750788 1.4488127 11024421
1.0053201 0.45750788 1.4488127 10630690
0.98440468 0.44173175 1.3988537 10565156
0.99815547 0.44173175 1.3988537 10565154
1.0119063 0.44173175 1.3988537 10565669
1.0256571 0.44173175 1.3988537 10499876
1.0047609 0.42700735 1.3522252 10237475
0.95442504 0.40031943 1.2677112 10696481
0.9668867 0.40031943 1.2677112 10565154
0.97934836 0.40031943 1.2677112 10630947
0.99181002 0.40031943 1.2677112 10633258
1.0042716 0.40031943 1.2677112 10306090
1.0495312 0.41323295 1.3086051 10567464
1.0623949 0.41323295 1.3086051 10305065
1.1111003 0.42700735 1.3522252 9976358
1.163165 0.44173175 1.3988537 10108200
1.1769158 0.44173175 1.3988537 9976360
1.1906666 0.44173175 1.3988537 9976874
1.2044173 0.44173175 1.3988537 10041640
1.2181681 0.44173175 1.3988537 9910308
1.2319189 0.44173175 1.3988537 10108200
1.2456697 0.44173175 1.3988537 10042153
1.2594205 0.44173175 1.3988537 10107946
1.2731713 0.44173175 1.3988537 9911339
1.2869221 0.44173175 1.3988537 9911082
1.3006729 0.44173175 1.3988537 9779494
1.3144237 0.44173175 1.3988537 9780005
1.3756093 0.45750788 1.4488127 9780264
1.3898512 0.45750788 1.4488127 9714985
1.3556761 0.44173175 1.3988537 9780522
1.418335 0.45750788 1.4488127 9583657
1.4325769 0.45750788 1.4488127 9649450
1.6204371 0.51240885 1.6226703 9649450
1.6363881 0.51240885 1.6226703 9781034
1.652339 0.51240885 1.6226703 9649192
1.4381809 0.44173175 1.3988537 9845802
1.4519317 0.44173175 1.3988537 9713447
1.5180283 0.45750788 1.4488127 9714729
1.6501372 0.49270082 1.5602599 9978156
1.546512 0.45750788 1.4488127 10043948
1.6185597 0.47445264 1.5024725 10044462
1.6333292 0.47445264 1.5024725 9912875
1.7114869 0.49270082 1.5602599 9847599
1.7268243 0.49270082 1.5602599 9782063
1.6776372 0.47445264 1.5024725 9716013
1.6924065 0.47445264 1.5024725 9650220
1.707176 0.47445264 1.5024725 8731690
1.8597009 0.51240885 1.6226703 7091753
2.0387518 0.55696613 1.763772 7223595
2.1495485 0.58228278 1.8439435 6828839
2.2708972 0.6100105 1.9317503 6369317
2.2898865 0.6100105 1.9317503 5910566
2.8521404 0.75354242 2.3862798 5714216
3.7603972 0.98540163 3.1205199 5780008
0 0 0 6306091
0 0 0 8143666
0 0 0 9585200
0 0 0 9651506
0 0 0 9650736
0 0 0 9912879
0 0 0 9912109
0 0 0 9846829
0 0 0 9518380
0 0 0 4662561
0 0 0 6175022
-1.05251 0.28715205 0.88188601 6437677
-1.043841 0.28715205 0.88188601 6240295
-1.0581759 0.29353321 0.90148348 6371626
-1.0265031 0.28715205 0.88188601 6371368
-1.0404526 0.29353321 0.90148348 6372397
-1.0315911 0.29353321 0.90148348 3876122
-1.0227294 0.29353321 0.90148348 1838608
-1.0610244 0.30718592 0.94341296 1707024
-1.1030556 0.32217059 0.98943311 1773074
-1.0933294 0.32217059 0.98943311 1772817
-1.0836033 0.32217059 0.98943311 1772816
-1.0738771 0.32217059 0.98943311 1838608
-1.0907546 0.33022487 1.014169 1707024
-1.0807854 0.33022487 1.014169 1707024
-1.070816 0.33022487 1.014169 1772815
-1.0608467 0.33022487 1.014169 1509900
-1.0008355 0.31449986 0.96587515 1312780
-1.0409081 0.33022487 1.014169 1181708
-0.91638994 0.29353321 0.90148348 1707795
-0.78536105 0.25401914 0.78012997 1904660
-0.77769232 0.25401914 0.78012997 1575438
-0.77002364 0.25401914 0.78012997 1115402
-0.76235491 0.25401914 0.78012997 1182225
-0.75468624 0.25401914 0.78012997 986384
-0.7470175 0.25401914 0.78012997 919819
-0.73934877 0.25401914 0.78012997 1378574
-0.7316801 0.25401914 0.78012997 1642002
-0.73820764 0.25899988 0.79542661 2561050
-0.73038858 0.25899988 0.79542661 3218206
-0.72256947 0.25899988 0.79542661 3612187
-0.72904539 0.26417989 0.81133515 5584171
-0.72106993 0.26417989 0.81133515 5982261
-0.71309447 0.26417989 0.81133515 4927009
-0.69129318 0.25899988 0.79542661 2101005
-0.67033035 0.25401914 0.78012997 1246220
-0.65015858 0.2492263 0.76541048 5519159
-0.57728189 0.22388126 0.68757218 6500902
-0.57052308 0.22388126 0.68757218 6105632
-0.58354539 0.23173675 0.71169752 5645857
-0.57654935 0.23173675 0.71169752 5251098
-0.56955338 0.23173675 0.71169752 5120025
-0.53442943 0.22014989 0.67611259 3674124
-0.52778322 0.22014989 0.67611259 3018515
-0.521137 0.22014989 0.67611259 5120799
0 0 0 4463639
0 0 0 4266774
0 0 0 3346450
0 0 0 1442311
0 0 0 1180680
0 0 0 1903375
0 0 0 3808798
0 0 0 6830388
0 0 0 9256234
0 0 0 10173993
0 0 0 10894118
0 0 0 10763300
0 0 0 10828581
-0.98789996 0.50803828 1.5602599 10828584
-0.97256255 0.50803828 1.5602599 11025961
0 0 0 11157029
0 0 0 11222052
-1.1471574 0.62899971 1.9317503 11091238
-1.1845767 0.66044974 2.028338 11483941
-1.164638 0.66044974 2.028338 11746598
-1.2718883 0.73383307 2.2537088 11156260
-1.2497342 0.73383307 2.2537088 10893862
-1.2275801 0.73383307 2.2537088 11221797
-1.2054261 0.73383307 2.2537088 11091238
-1.0142331 0.62899971 1.9317503 11287847
-0.8708384 0.55037475 1.6902815 11222054
-0.85422283 0.55037475 1.6902815 11287332
-0.59125221 0.38849983 1.1931399 11418661
-0.49259508 0.33022487 1.014169 11746599
-0.48262575 0.33022487 1.014169 11877414
-0.45014894 0.31449986 0.96587515 11615011
-0.44065437 0.31449986 0.96587515 11746595
-0.43115976 0.31449986 0.96587515 11811875
-0.39355415 0.29353321 0.90148348 11549989
-0.37632966 0.28715205 0.88188601 11483681
-0.34515086 0.2695713 0.82789302 11353125
-0.33027238 0.26417989 0.81133515 11681060
-0.32229689 0.26417989 0.81133515 11418403
-0.31432143 0.26417989 0.81133515 11156257
-0.30634597 0.26417989 0.81133515 11287334
-0.29837051 0.26417989 0.81133515 11287845
-0.27395758 0.2492263 0.76541048 11418145
-0.25674507 0.24016352 0.73757738 11549219
-0.24949466 0.24016352 0.73757738 11615525
-0.24224424 0.24016352 0.73757738 11222050
-0.23934558 0.24461101 0.75123626 11680548
-0.23196089 0.24461101 0.75123626 11812134
-0.22049299 0.24016352 0.73757738 11877668
-0.20943466 0.23587489 0.72440636 11812901
-0.20599215 0.24016352 0.73757738 11878179
-0.20624141 0.2492263 0.76541048 11944487
-0.23404494 0.29353321 0.90148348 11615780
-0.23030111 0.3002044 0.92197174 11615268
-0.22123809 0.3002044 0.92197174 11811875
-0.22770008 0.32217059 0.98943311 11812134
-0.20311205 0.3002044 0.92197174 11614754
-0.18973683 0.29353321 0.90148348 11811877
-0.1808752 0.29353321 0.90148348 11681318
-0.17201358 0.29353321 0.90148348 11877670
-0.16315195 0.29353321 0.90148348 11746341
-0.15429033 0.29353321 0.90148348 11877927
-0.1454287 0.29353321 0.90148348 11811361
-0.13656709 0.29353321 0.90148348 11615525
-0.12770545 0.29353321 0.90148348 11549218
-0.12154484 0.3002044 0.92197174 11155746
-0.11248181 0.3002044 0.92197174 11417889
-0.10112059 0.29353321 0.90148348 11483426
-0.090253338 0.28715205 0.88188601 11877411
-0.081584357 0.28715205 0.88188601 12008485
-0.071363986 0.28104243 0.86312246 11812133
-0.062879458 0.28104243 0.86312246 11877154
-0.053261697 0.27518737 0.84514076 12074276
-0.044953924 0.27518737 0.84514076 11876640
-0.037425857 0.28104243 0.86312246 11746082
-0.030914599 0.3002044 0.92197174 11811107
-0.022892127 0.31449986 0.96587515 11680290
-0.013397531 0.31449986 0.96587515 11745314
0 0 0 11483684
0 0 0 11352098
0 0 0 11615009
0 0 0 11746340
0 0 0 11745571
0 0 0 11942693
0 0 0 11680803
0 0 0 12074277
0.23278932 1.0160766 3.1205199 11877413
0.21406464 0.82556212 2.5354223 11877412
0.22492984 0.77699965 2.3862798 11943205
0.24838707 0.77699965 2.3862798 12008997
0.28883457 0.82556212 2.5354223 12074532
0.55779183 1.4676661 4.5074177 11943461
0.60209996 1.4676661 4.5074177 12008740
0.58176726 1.3208995 4.0566759 11812388
0.62164456 1.3208995 4.0566759 11681318
0.66152191 1.3208995 4.0566759 11746597
0.77933246 1.4676661 4.5074177 11877669
0.82364053 1.4676661 4.5074177 11943717
0.86794865 1.4676661 4.5074177 11877669
0.91225678 1.4676661 4.5074177 11811875
0.9565649 1.4676661 4.5074177 12009254
0.90078574 1.3208995 4.0566759 12140071
0.72358692 1.0160766 3.1205199 11943461
0.49027017 0.66044974 2.028338 12074532
0.60024565 0.77699965 2.3862798 11943204
0.62370288 0.77699965 2.3862798 11877925
0.64716011 0.77699965 2.3862798 12074531
0.49567369 0.5743041 1.763772 11878697
0.49163616 0.55037475 1.6902815 11747622
0.45177931 0.48922202 1.5024725 11681573
0.4498862 0.47174978 1.4488127 11747367
0.39380565 0.40027252 1.2292956 11616295
0.40588969 0.40027252 1.2292956 11616297
0.4597711 0.44029978 1.3522252 11746341
0.48937607 0.45548254 1.3988537 11877668
0.50312686 0.45548254 1.3988537 11877669
0.53533757 0.47174978 1.4488127 11812388
0.54957944 0.47174978 1.4488127 11943461
0.60719228 0.50803828 1.5602599 11877668
0.64743084 0.52835977 1.6226703 11680548
0.59230512 0.47174978 1.4488127 11483683
0.58563161 0.45548254 1.3988537 11877414
0.5993824 0.45548254 1.3988537 11483941
0.63503081 0.47174978 1.4488127 11483171
0.64927274 0.47174978 1.4488127 11352355
0.64063483 0.45548254 1.3988537 11353125
0.65438563 0.45548254 1.3988537 11680550
0.66813642 0.45548254 1.3988537 11418662
0.65915763 0.44029978 1.3522252 11221541
0.65075815 0.42609659 1.3086051 11418405
0.66362178 0.42609659 1.3086051 11286819
0.72313958 0.45548254 1.3988537 11155746
0.82191622 0.50803828 1.5602599 11220769
0.83725363 0.50803828 1.5602599 11287077
0.88669467 0.52835977 1.6226703 11221541
0.8679285 0.50803828 1.5602599 11287334
0.88326591 0.50803828 1.5602599 10959397
0.93454748 0.52835977 1.6226703 10762276
0.88009113 0.48922202 1.5024725 10631201
0.89486051 0.48922202 1.5024725 10368288
0.90962988 0.48922202 1.5024725 10827812
0.89138496 0.47174978 1.4488127 10631206
0.90562683 0.47174978 1.4488127 10893348
0.91986871 0.47174978 1.4488127 10434083
0.93411064 0.47174978 1.4488127 10237476
0.94835252 0.47174978 1.4488127 10762019
0.96259439 0.47174978 1.4488127 10434083
0.97683632 0.47174978 1.4488127 10565924
1.0277848 0.48922202 1.5024725 10827296
0.97065389 0.45548254 1.3988537 10630690
0.98440468 0.45548254 1.3988537 10893605
0.99815547 0.45548254 1.3988537 10565154
1.0119063 0.45548254 1.3988537 10499876
0.99146849 0.44029978 1.3522252 10368804
0.94196337 0.41278106 1.2677112 10368290
0.95442504 0.41278106 1.2677112 10433825
0.93758708 0.40027252 1.2292956 10696742
0.92173964 0.38849983 1.1931399 10500646
0.88160896 0.36691654 1.1268544 10304550
0.97383916 0.40027252 1.2292956 10107687
0.98592317 0.40027252 1.2292956 10041894
1.029195 0.41278106 1.2677112 10173482
1.0752585 0.42609659 1.3086051 10239530
1.1243927 0.44029978 1.3522252 10042149
1.1769158 0.45548254 1.3988537 10239529
1.1906666 0.45548254 1.3988537 9976614
1.2044173 0.45548254 1.3988537 10042924
1.2181681 0.45548254 1.3988537 9715243
1.2759161 0.47174978 1.4488127 9714986
1.2456697 0.45548254 1.3988537 9845287
1.2594205 0.45548254 1.3988537 9975847
1.2731713 0.45548254 1.3988537 9778983
1.2869221 0.45548254 1.3988537 9648424
1.3006729 0.45548254 1.3988537 9582117
1.3144237 0.45548254 1.3988537 9647655
1.3756093 0.47174978 1.4488127 9713958
1.3898512 0.47174978 1.4488127 9647397
1.4040931 0.47174978 1.4488127 9582374
1.418335 0.47174978 1.4488127 9648167
1.4325769 0.47174978 1.4488127 9648680
1.6204371 0.52835977 1.6226703 9648935
1.6363881 0.52835977 1.6226703 9321253
1.4244301 0.45548254 1.3988537 9387305
1.4381809 0.45548254 1.3988537 9845546
1.4519317 0.45548254 1.3988537 9649966
1.6347997 0.50803828 1.5602599 9583916
1.5322702 0.47174978 1.4488127 9846572
1.546512 0.47174978 1.4488127 9847597
1.6185597 0.48922202 1.5024725 9979183
1.6333292 0.48922202 1.5024725 9977643
1.7114869 0.50803828 1.5602599 9977388
1.6628679 0.48922202 1.5024725 10042923
1.6177216 0.47174978 1.4488127 9518123
1.6319634 0.47174978 1.4488127 9453098
1.707176 0.48922202 1.5024725 9387048
1.8597009 0.52835977 1.6226703 7812650
2.1314225 0.60040879 1.8439435 6369831
2.1495485 0.60040879 1.8439435 6763560
2.2708972 0.62899971 1.9317503 6434854
2.2898865 0.62899971 1.9317503 5909796
2.5519152 0.69521022 2.1350925 5647650
3.0553226 0.82556212 2.5354223 5254180
3.7910719 1.0160766 3.1205199 5583144
0 0 0 6633772
0 0 0 8469289
0 0 0 9453612
0 0 0 9453612
0 0 0 9650992
0 0 0 10110001
0 0 0 9978930
0 0 0 9977391
0 0 0 5714726
0 0 0 6371625
-1.05251 0.29582101 0.88188601 6502953
-1.043841 0.29582101 0.88188601 6567976
-1.0351721 0.29582101 0.88188601 6436647
-1.0265031 0.29582101 0.88188601 5780001
-1.0178341 0.29582101 0.88188601 2955025
-1.0315911 0.30239484 0.90148348 1707022
-1.0227294 0.30239484 0.90148348 1773074
-1.0138677 0.30239484 0.90148348 1576465
-1.0517507 0.31645972 0.94341296 1773074
-1.0424769 0.31645972 0.94341296 1773074
-1.0836033 0.33189675 0.98943311 1707023
-1.0738771 0.33189675 0.98943311 1641486
-1.0641508 0.33189675 0.98943311 1707022
-0.86462826 0.27215534 0.81133515 1510158
-0.83985567 0.26681897 0.79542661 1116428
-0.83203655 0.26681897 0.79542661 1313807
-0.80836719 0.26168784 0.78012997 1641489
-0.78559089 0.25675032 0.76541048 1707282
-0.77806687 0.25675032 0.76541048 1049353
-0.77054286 0.25675032 0.76541048 786953
-0.76301885 0.25675032 0.76541048 985102
-0.75549483 0.25675032 0.76541048 853516
-0.74797082 0.25675032 0.76541048 853002
-0.74044681 0.25675032 0.76541048 1246988
-0.7470175 0.26168784 0.78012997 1378317
-0.73934877 0.26168784 0.78012997 1641489
-0.7316801 0.26168784 0.78012997 2430491
-0.73820764 0.26681897 0.79542661 3416611
-0.73038858 0.26681897 0.79542661 3679013
-0.72256947 0.26681897 0.79542661 2890265
-0.71475041 0.26681897 0.79542661 2034956
-0.70693129 0.26681897 0.79542661 1377796
-0.68566781 0.26168784 0.78012997 1115401
-0.67799908 0.26168784 0.78012997 1641490
-0.67033035 0.26168784 0.78012997 4137250
-0.66266167 0.26168784 0.78012997 5778727
-0.55835462 0.22307815 0.66502881 5316373
-0.56101429 0.22679611 0.67611259 3938327
-0.57348424 0.23461667 0.69942683 3676440
-0.57654935 0.23873277 0.71169752 4267035
-0.56955338 0.23873277 0.71169752 4988443
-0.53442943 0.22679611 0.67611259 3674640
-0.5555613 0.23873277 0.71169752 3281685
0 0 0 4201755
0 0 0 5120028
0 0 0 6433057
0 0 0 6696229
0 0 0 7419954
0 0 0 8928046
0 0 0 10107688
0 0 0 10697507
0 0 0 10828838
0 0 0 10960166
0 0 0 10960165
0 0 0 11090983
0 0 0 11090725
-8.6947231 4.5359225 13.522252 11222567
-0.98789996 0.52337569 1.5602599 10959652
-0.97256255 0.52337569 1.5602599 11025444
-0.95722508 0.52337569 1.5602599 11221794
-0.97956318 0.54431069 1.6226703 11287333
-1.0950139 0.61853486 1.8439435 11287593
-1.0768878 0.61853486 1.8439435 10893859
-1.164638 0.68038839 2.028338 11550504
-1.2049466 0.71619827 2.1350925 11419175
-1.1839586 0.71619827 2.1350925 11419175
-1.2275801 0.75598711 2.2537088 11615013
-1.2763333 0.80045688 2.3862798 11419433
-1.2528762 0.80045688 2.3862798 11615527
-0.95000553 0.61853486 1.8439435 11484198
-0.85422283 0.56699032 1.6902815 11287330
-0.71794909 0.48599169 1.4488127 11418148
-0.49259508 0.3401942 1.014169 11549219
-0.48262575 0.3401942 1.014169 11549477
-0.45014894 0.32399446 0.96587515 11812391
-0.4304066 0.31645972 0.94341296 11811621
-0.4211328 0.31645972 0.94341296 11418146
-0.39355415 0.30239484 0.90148348 11287844
-0.35328907 0.27770954 0.82789302 11352869
-0.33824784 0.27215534 0.81133515 11549732
-0.32379642 0.26681897 0.79542661 11353124
-0.31597736 0.26681897 0.79542661 11681062
-0.30815828 0.26681897 0.79542661 11288615
-0.28900564 0.25675032 0.76541048 11418916
-0.28689474 0.26168784 0.78012997 11287332
-0.26888433 0.25199568 0.75123626 11418405
-0.25674507 0.24741395 0.73757738 11614756
-0.24949466 0.24741395 0.73757738 11549732
-0.24673025 0.25199568 0.75123626 11746341
-0.23934558 0.25199568 0.75123626 11812388
-0.23196089 0.25199568 0.75123626 11812388
-0.22457621 0.25199568 0.75123626 11877924
-0.21324256 0.24741395 0.73757738 11680801
-0.20980683 0.25199568 0.75123626 11680548
-0.20624141 0.25675032 0.76541048 11747111
-0.1987174 0.25675032 0.76541048 11812134
-0.20680101 0.27770954 0.82789302 11812132
-0.19866279 0.27770954 0.82789302 11615267
-0.21217507 0.30926743 0.92197174 11681318
-0.20311205 0.30926743 0.92197174 11549475
-0.17787828 0.28349516 0.84514076 11614755
-0.17694312 0.29582101 0.88188601 11352611
-0.16827415 0.29582101 0.88188601 11417891
-0.15960518 0.29582101 0.88188601 11548962
-0.14464718 0.28349516 0.84514076 11877668
-0.14226721 0.29582101 0.88188601 11877414
-0.13656709 0.30239484 0.90148348 11746595
-0.13060786 0.30926743 0.92197174 11614755
-0.12437146 0.31645972 0.94341296 11418148
-0.11509767 0.31645972 0.94341296 11353125
-0.10341879 0.30926743 0.92197174 11352355
-0.090253338 0.29582101 0.88188601 11286818
-0.081584357 0.29582101 0.88188601 11680802
-0.071363986 0.28952694 0.86312246 11746341
-0.065674096 0.30239484 0.90148348 11680032
-0.053261697 0.28349516 0.84514076 11352353
-0.044953924 0.28349516 0.84514076 12008740
-0.039977621 0.30926743 0.92197174 11876897
-0.032386724 0.32399446 0.96587515 11745825
-0.023450471 0.33189675 0.98943311 11614755
-0.0137243 0.33189675 0.98943311 11876899
0 0 0 11614755
0 0 0 11745826
0 0 0 11614497
0 0 0 11549732
0 0 0 11549216
0 0 0 11811362
0.18572626 1.1339806 3.380563 11746082
0.21895733 1.1339806 3.380563 11614753
0.25218841 1.1339806 3.380563 11811878
0.21406464 0.85048544 2.5354223 12008999
0.23898795 0.85048544 2.5354223 11680036
0.26391128 0.85048544 2.5354223 12205606
0.38511276 1.1339806 3.380563 12140326
0.55779183 1.5119742 4.5074177 12074533
0.60209996 1.5119742 4.5074177 11942947
0.64640808 1.5119742 4.5074177 12140326
0.69071621 1.5119742 4.5074177 11877154
0.73502433 1.5119742 4.5074177 11943204
0.77933246 1.5119742 4.5074177 12271397
0.82364053 1.5119742 4.5074177 11877668
0.86794865 1.5119742 4.5074177 11877154
0.91225678 1.5119742 4.5074177 11615268
0.9565649 1.5119742 4.5074177 11812132
1.000873 1.5119742 4.5074177 11418659
0.78388578 1.1339806 3.380563 11811877
0.75426179 1.0467514 3.1205199 12074275
0.60024565 0.80045688 2.3862798 12008740
0.62370288 0.80045688 2.3862798 12008738
0.64716011 0.80045688 2.3862798 12205604
0.49567369 0.59164202 1.763772 11943204
0.49163616 0.56699032 1.6902815 12074533
0.48792166 0.54431069 1.6226703 11943973
0.4498862 0.48599169 1.4488127 12140324
0.35123208 0.3677775 1.0963988 11943720
0.36200973 0.3677775 1.0963988 11550502
0.44493979 0.43896022 1.3086051 11877414
0.48937607 0.46923333 1.3988537 11746853
0.50312686 0.46923333 1.3988537 11877668
0.53533757 0.48599169 1.4488127 11614755
0.54957944 0.48599169 1.4488127 11680548
0.56382138 0.48599169 1.4488127 11877414
0.64743084 0.54431069 1.6226703 11812391
0.59230512 0.48599169 1.4488127 11812134
0.56611055 0.45359221 1.3522252 11680548
0.57940298 0.45359221 1.3522252 11548964
0.61313319 0.46923333 1.3988537 11680293
0.64927274 0.48599169 1.4488127 11811878
0.66351461 0.48599169 1.4488127 11483939
0.65438563 0.46923333 1.3988537 11746341
0.66813642 0.46923333 1.3988537 11352355
0.65915763 0.45359221 1.3522252 11287333
0.63042194 0.42524272 1.2677112 11417635
0.6428836 0.42524272 1.2677112 11286563
0.72313958 0.46923333 1.3988537 11287332
0.82191622 0.52337569 1.5602599 11155749
0.87074375 0.54431069 1.6226703 11352355
0.88669467 0.54431069 1.6226703 11156261
0.90264559 0.54431069 1.6226703 11287332
0.85055238 0.50399137 1.5024725 10958628
0.86532176 0.50399137 1.5024725 11024421
0.84865928 0.48599169 1.4488127 11155746
0.89486051 0.50399137 1.5024725 11155747
0.90962988 0.50399137 1.5024725 11090468
0.89138496 0.48599169 1.4488127 10893604
0.90562683 0.48599169 1.4488127 11024421
0.88814908 0.46923333 1.3988537 10827299
0.93411064 0.48599169 1.4488127 10958882
0.94835252 0.48599169 1.4488127 10433826
0.96259439 0.48599169 1.4488127 9909539
0.97683632 0.48599169 1.4488127 9713188
1.0277848 0.50399137 1.5024725 10499361
1.0425543 0.50399137 1.5024725 10236704
0.98440468 0.46923333 1.3988537 10565669
0.90457839 0.42524272 1.2677112 10434082
0.86309654 0.40022844 1.1931399 10565155
0.84983015 0.38879335 1.1590502 10433570
0.83730084 0.37799355 1.1268544 10434083
0.84837782 0.37799355 1.1268544 10368291
0.85945487 0.37799355 1.1268544 10565669
0.82471442 0.35809913 1.0675462 10434084
0.83520842 0.35809913 1.0675462 10566952
0.8685593 0.3677775 1.0963988 10435881
0.98592317 0.41235656 1.2292956 10173480
1.029195 0.42524272 1.2677112 10041640
1.0752585 0.43896022 1.3086051 9910567
1.1243927 0.45359221 1.3522252 10173222
1.1376853 0.45359221 1.3522252 9976101
1.1509777 0.45359221 1.3522252 10173226
1.2044173 0.46923333 1.3988537 10107944
1.2181681 0.46923333 1.3988537 9976360
1.2319189 0.46923333 1.3988537 9845031
1.2901579 0.48599169 1.4488127 9910567
1.2594205 0.46923333 1.3988537 10107946
1.2307323 0.45359221 1.3522252 10042153
1.1662732 0.42524272 1.2677112 9911081
1.1787349 0.42524272 1.2677112 9910567
1.3144237 0.46923333 1.3988537 9779239
1.3756093 0.48599169 1.4488127 9713445
1.3898512 0.48599169 1.4488127 9713189
1.4040931 0.48599169 1.4488127 9516837
1.418335 0.48599169 1.4488127 9253667
1.4325769 0.48599169 1.4488127 9319715
1.5581126 0.52337569 1.5602599 9385508
1.4106793 0.46923333 1.3988537 9582374
1.3769491 0.45359221 1.3522252 9582629
1.3902415 0.45359221 1.3522252 9582885
1.4519317 0.46923333 1.3988537 9648678
1.5180283 0.48599169 1.4488127 9648680
1.5322702 0.48599169 1.4488127 9781036
1.546512 0.48599169 1.4488127 9912620
1.5607539 0.48599169 1.4488127 9913390
1.6333292 0.50399137 1.5024725 10109229
1.6480985 0.50399137 1.5024725 9977643
1.6034796 0.48599169 1.4488127 10043436
1.6177216 0.48599169 1.4488127 10043436
1.6319634 0.48599169 1.4488127 9518634
1.84375 0.54431069 1.6226703 9846058
1.9371884 0.56699032 1.6902815 9059883
0 0 0 7288359
0 0 0 6435365
0 0 0 6632745
2.2898865 0.64798892 1.9317503 6697509
2.4243195 0.68038839 2.028338 5844517
2.8755977 0.80045688 2.3862798 5319973
3.080246 0.85048544 2.5354223 5385766
0 0 0 5714215
0 0 0 6173222
0 0 0 7682860
0 0 0 8863790
0 0 0 9256237
0 0 0 9781552
0 0 0 10044208
0 0 0 9847858
0 0 0 6174505
0 0 0 5451297
-0.98807067 0.28584775 0.82789302 4596504
-0.97993243 0.28584775 0.82789302 4401436
-0.95235831 0.2801308 0.81133515 4335645
-0.94438285 0.2801308 0.81133515 3414808
-0.95551777 0.28584775 0.82789302 2428174
-0.94737953 0.28584775 0.82789302 1968911
-1.0004961 0.30449 0.88188601 1641232
-0.99182713 0.30449 0.88188601 1707024
-0.98315817 0.30449 0.88188601 1707022
-0.99614453 0.31125644 0.90148348 1575695
-0.98728287 0.31125644 0.90148348 1707281
-0.93678629 0.29801148 0.86312246 1509902
-0.87260371 0.2801308 0.81133515 1444879
-0.84767473 0.27463806 0.79542661 1510413
-0.8237046 0.26935655 0.78012997 1378571
-0.81603593 0.26935655 0.78012997 1838095
-0.79311496 0.26427433 0.76541048 918279
-0.78559089 0.26427433 0.76541048 721418
-0.77806687 0.26427433 0.76541048 393221
-0.77054286 0.26427433 0.76541048 458759
-0.76301885 0.26427433 0.76541048 524294
-0.75549483 0.26427433 0.76541048 590089
-0.74797082 0.26427433 0.76541048 655882
-0.74044681 0.26427433 0.76541048 852743
-0.7470175 0.26935655 0.78012997 1115146
-0.73934877 0.26935655 0.78012997 853003
-0.7316801 0.26935655 0.78012997 721675
-0.73820764 0.27463806 0.79542661 852489
-0.73038858 0.27463806 0.79542661 984075
-0.72256947 0.27463806 0.79542661 1049868
-0.70100522 0.26935655 0.78012997 1247246
-0.70693129 0.27463806 0.79542661 1444110
-0.69911224 0.27463806 0.79542661 1641489
-0.69129318 0.27463806 0.79542661 2101782
0 0 0 4138535
0 0 0 5581347
0 0 0 4397335
-0.56101429 0.23344234 0.67611259 2954006
0 0 0 3479835
0 0 0 4793376
0 0 0 6039069
-1.5269413 0.66697812 1.9317503 7679520
-1.7592775 0.77814114 2.2537088 8466982
0 0 0 9321003
0 0 0 10369834
0 0 0 10435109
0 0 0 10632230
0 0 0 10697508
0 0 0 10763046
0 0 0 10894373
0 0 0 10894373
0 0 0 10959653
0 0 0 11287847
0 0 0 11090725
0 0 0 10894373
0 0 0 11025959
-4.3473616 2.3344233 6.761126 11222567
-1.2231141 0.66697812 1.9317503 10959652
-1.149392 0.63666093 1.8439435 11024675
-1.0369939 0.58360583 1.6902815 11156259
-1.11314 0.63666093 1.8439435 11155746
-1.0037627 0.58360583 1.6902815 11353127
-1.0768878 0.63666093 1.8439435 11287332
-1.0587618 0.63666093 1.8439435 11221541
-1.1446993 0.70032704 2.028338 11287332
-1.2497342 0.77814114 2.2537088 11353125
-1.2275801 0.77814114 2.2537088 11483426
-1.2054261 0.77814114 2.2537088 11419176
-1.0649447 0.70032704 2.028338 11418661
-0.95000553 0.63666093 1.8439435 11287331
-0.89136297 0.60898 1.763772 11287332
-0.83760726 0.58360583 1.6902815 11353125
-0.59708488 0.42444059 1.2292956 11484196
-0.52175754 0.37855515 1.0963988 11483170
-0.46112821 0.34162295 0.98943311 11352611
-0.4304066 0.32573348 0.94341296 11615783
-0.41156158 0.31833047 0.92197174 11483939
-0.39355415 0.31125644 0.90148348 11221541
-0.35328907 0.28584775 0.82789302 11615526
-0.33161551 0.27463806 0.79542661 11615527
-0.32379642 0.27463806 0.79542661 11746855
-0.31597736 0.27463806 0.79542661 11615268
-0.31432143 0.2801308 0.81133515 11549475
-0.28900564 0.26427433 0.76541048 11484709
-0.28148162 0.26427433 0.76541048 11419429
-0.26888433 0.25938037 0.75123626 11549732
-0.26149964 0.25938037 0.75123626 11549475
-0.25890955 0.26427433 0.76541048 11418660
-0.24224424 0.25466436 0.73757738 11746597
-0.23934558 0.25938037 0.75123626 11746596
-0.23196089 0.25938037 0.75123626 11549732
-0.22457621 0.25938037 0.75123626 11811877
-0.21719152 0.25938037 0.75123626 11680802
-0.20980683 0.25938037 0.75123626 11812132
-0.21020761 0.26935655 0.78012997 11811361
-0.1987174 0.26427433 0.76541048 11746595
-0.19119337 0.26427433 0.76541048 11681318
-0.18366936 0.26427433 0.76541048 11943461
-0.17614534 0.26427433 0.76541048 11615267
-0.18238634 0.28584775 0.82789302 11287330
-0.17424811 0.28584775 0.82789302 11418401
-0.16957051 0.29180291 0.84514076 11221539
-0.16469385 0.29801148 0.86312246 11418147
-0.15620932 0.29801148 0.86312246 11484193
-0.14464718 0.29180291 0.84514076 11418146
-0.14226721 0.30449 0.88188601 11548703
-0.13967088 0.31833047 0.92197174 11680035
-0.13060786 0.31833047 0.92197174 11483423
-0.12154484 0.31833047 0.92197174 11548962
-0.11248181 0.31833047 0.92197174 11680548
-0.10582387 0.32573348 0.94341296 11614755
-0.092258967 0.31125644 0.90148348 11418146
-0.083397344 0.31125644 0.90148348 11680548
-0.07453572 0.31125644 0.90148348 11418146
-0.067166694 0.31833047 0.92197174 11549216
-0.058103669 0.31833047 0.92197174 11418918
-0.049040645 0.31833047 0.92197174 11680030
-0.039977621 0.31833047 0.92197174 11811875
-0.034006059 0.35016352 1.014169 11746341
-0.024036733 0.35016352 1.014169 11942692
-0.0137243 0.34162295 0.98943311 11680803
-0.0039981278 0.34162295 0.98943311 11746084
0.011742491 0.70032704 2.028338 11876900
0 0 0 11614754
0 0 0 11745568
0 0 0 11877668
0 0 0 12008740
0 0 0 11615010
0 0 0 11811875
0 0 0 11812388
0.42812929 1.7508175 5.0708447 11680289
0.34761882 1.2733219 3.687887 11418148
0.35188168 1.1672117 3.380563 11746341
0.38511276 1.1672117 3.380563 11811875
0.45637512 1.2733219 3.687887 11812134
0.60209996 1.5562823 4.5074177 11877411
0.64640808 1.5562823 4.5074177 11942693
0.69071621 1.5562823 4.5074177 11943204
0.73502433 1.5562823 4.5074177 11877670
0.77933246 1.5562823 4.5074177 11942949
0.82364053 1.5562823 4.5074177 11680547
0.86794865 1.5562823 4.5074177 11614755
0.91225678 1.5562823 4.5074177 11746085
0.9565649 1.5562823 4.5074177 11746851
0.7506547 1.1672117 3.380563 11746596
0.78388578 1.1672117 3.380563 11615524
0.75426179 1.0774262 3.1205199 11877666
0.78493661 1.0774262 3.1205199 12074533
0.66268432 0.87540877 2.5354223 11877668
0.64716011 0.82391411 2.3862798 11877668
0.49567369 0.60898 1.763772 11811877
0.49163616 0.58360583 1.6902815 11811876
0.43564433 0.50023359 1.4488127 11680289
0.34045443 0.37855515 1.0963988 12009253
0.31696555 0.34162295 0.98943311 11942693
0.32669172 0.34162295 0.98943311 11680291
0.47562528 0.48298413 1.3988537 11877668
0.48937607 0.48298413 1.3988537 11746596
0.50312686 0.48298413 1.3988537 11812134
0.51687765 0.48298413 1.3988537 11614755
0.53062844 0.48298413 1.3988537 11483941
0.54437923 0.48298413 1.3988537 11483428
0.62252969 0.5387131 1.5602599 11615525
0.63786709 0.5387131 1.5602599 11681061
0.56611055 0.46688467 1.3522252 11746595
0.54319036 0.43770438 1.2677112 11418146
0.59269542 0.46688467 1.3522252 11549477
0.62688398 0.48298413 1.3988537 11942693
0.64063483 0.48298413 1.3988537 11614755
0.65438563 0.48298413 1.3988537 11353125
0.66813642 0.48298413 1.3988537 11287332
0.65915763 0.46688467 1.3522252 11287332
0.63042194 0.43770438 1.2677112 11156004
0.6857425 0.46688467 1.3522252 11286562
0.74896598 0.50023359 1.4488127 11615527
0.79147488 0.51876074 1.5024725 11352356
0.83725363 0.5387131 1.5602599 11221540
0.82101363 0.51876074 1.5024725 11089955
0.90264559 0.56026161 1.6226703 11352355
0.82017547 0.50023359 1.4488127 11025443
0.80564433 0.48298413 1.3988537 11024162
0.84865928 0.50023359 1.4488127 11024163
0.89486051 0.51876074 1.5024725 10892835
0.90962988 0.51876074 1.5024725 10762019
0.89138496 0.50023359 1.4488127 10762275
0.90562683 0.50023359 1.4488127 10893859
0.91986871 0.50023359 1.4488127 10630432
0.93411064 0.50023359 1.4488127 10565153
0.94835252 0.50023359 1.4488127 10630690
0.96259439 0.50023359 1.4488127 10433568
0.97683632 0.50023359 1.4488127 10499874
1.067315 0.5387131 1.5602599 10696740
1.0826524 0.5387131 1.5602599 10434082
0.95159113 0.46688467 1.3522252 10237219
0.85136789 0.41195706 1.1931399 10172194
0.86309654 0.41195706 1.1931399 10172194
0.84983015 0.40018687 1.1590502 10172454
0.83730084 0.38907057 1.1268544 10236963
0.84837782 0.38907057 1.1268544 9909537
0.81422037 0.36859316 1.0675462 9974305
0.82471442 0.36859316 1.0675462 10106403
0.83520842 0.36859316 1.0675462 10042407
0.8685593 0.37855515 1.0963988 10239017
0.98592317 0.42444059 1.2292956 10238760
1.029195 0.43770438 1.2677112 10106919
1.0416566 0.43770438 1.2677112 10041894
1.0881221 0.45182389 1.3086051 10107688
1.1376853 0.46688467 1.3522252 10107173
1.1138494 0.45182389 1.3086051 9910309
1.126713 0.45182389 1.3086051 10107685
1.1395767 0.45182389 1.3086051 10107171
1.190855 0.46688467 1.3522252 10041640
1.2901579 0.50023359 1.4488127 10107175
1.2594205 0.48298413 1.3988537 9779748
1.1538116 0.43770438 1.2677112 9713958
1.1309315 0.42444059 1.2292956 9714473
1.1430156 0.42444059 1.2292956 9910567
1.1550996 0.42444059 1.2292956 9977132
1.3756093 0.50023359 1.4488127 9780011
1.3898512 0.50023359 1.4488127 9779240
1.4040931 0.50023359 1.4488127 9778982
1.470866 0.51876074 1.5024725 9581857
1.4325769 0.50023359 1.4488127 9582375
1.4468188 0.50023359 1.4488127 9451561
1.4610606 0.50023359 1.4488127 9188643
1.3769491 0.46688467 1.3522252 9516579
1.3453951 0.45182389 1.3086051 9581602
1.3582587 0.45182389 1.3086051 9320485
1.4656825 0.48298413 1.3988537 9321253
1.4794333 0.48298413 1.3988537 9649451
1.546512 0.50023359 1.4488127 9780266
1.5607539 0.50023359 1.4488127 9846059
1.5749959 0.50023359 1.4488127 9781036
1.5892377 0.50023359 1.4488127 10044208
1.6034796 0.50023359 1.4488127 9978412
1.6177216 0.50023359 1.4488127 9912107
1.6319634 0.50023359 1.4488127 9978158
1.84375 0.56026161 1.6226703 9977902
1.8597009 0.56026161 1.6226703 9780781
0 0 0 9059371
0 0 0 7550247
0 0 0 6238758
0 0 0 6763816
3.0303993 0.87540877 2.5354223 6434597
2.8755977 0.82391411 2.3862798 5450017
2.899055 0.82391411 2.3862798 5319459
3.8217468 1.0774262 3.1205199 5254180
0 0 0 5517094
0 0 0 5976873
0 0 0 7159601
0 0 0 8798510
0 0 0 9387822
0 0 0 9977903
0 0 0 9977645
0 0 0 5387047
0 0 0 5649965
-0.96830922 0.28810626 0.81133515 5519149
-0.96033376 0.28810626 0.81133515 3021589
-0.91572917 0.27702525 0.78012997 1772044
-0.8909272 0.27179834 0.76541048 1969424
-0.88340318 0.27179834 0.76541048 2429717
-0.87587917 0.27179834 0.76541048 2561046
-0.9024083 0.28245711 0.79542661 2693403
-0.89458925 0.28245711 0.79542661 1773072
-0.88677013 0.28245711 0.79542661 1772817
-0.89653009 0.28810626 0.81133515 1838610
-0.85437948 0.27702525 0.78012997 1641487
-0.88057917 0.28810626 0.81133515 1707022
-0.83904207 0.27702525 0.78012997 1838608
-0.815687 0.27179834 0.76541048 1838608
-0.80816299 0.27179834 0.76541048 2036246
-0.80063897 0.27179834 0.76541048 1443854
-0.77842766 0.26676506 0.75123626 721416
-0.78559089 0.27179834 0.76541048 655367
-0.77806687 0.27179834 0.76541048 524296
-0.77054286 0.27179834 0.76541048 655366
-0.76301885 0.27179834 0.76541048 786698
-0.75549483 0.27179834 0.76541048 655624
-0.76235491 0.27702525 0.78012997 852489
-0.75468624 0.27702525 0.78012997 918282
-0.7470175 0.27702525 0.78012997 984075
-0.73934877 0.27702525 0.78012997 984075
-0.74602669 0.28245711 0.79542661 1181453
-0.73820764 0.28245711 0.79542661 1246988
-0.73038858 0.28245711 0.79542661 1510159
-0.72256947 0.28245711 0.79542661 2168602
-0.72904539 0.28810626 0.81133515 3023139
-0.72106993 0.28810626 0.81133515 3876649
0 0 0 4730666
0 0 0 4861990
0 0 0 4992808
0 0 0 5975076
0 0 0 5514270
0 0 0 6759968
0 0 0 9451047
0 0 0 9975844
-1.5459304 0.68596727 1.9317503 10238501
-1.6876719 0.75817442 2.1350925 10369316
-1.8627644 0.8473714 2.3862798 10303522
0 0 0 10631460
0 0 0 10762533
0 0 0 10762787
0 0 0 10894119
0 0 0 10894117
0 0 0 10697253
0 0 0 10762787
0 0 0 10894114
0 0 0 10959652
0 0 0 11222054
0 0 0 10828580
0 0 0 10893859
-4.4138241 2.4008856 6.761126 11025445
-4.3473616 2.4008856 6.761126 10697507
-4.2808995 2.4008856 6.761126 11157032
-1.2041249 0.68596727 1.9317503 11090980
-1.1851358 0.68596727 1.9317503 11025443
-1.11314 0.65478694 1.8439435 11156259
-1.0037627 0.6002214 1.6902815 11091236
-1.0300666 0.62631798 1.763772 11156259
-1.0587618 0.65478694 1.8439435 11221540
-1.0901898 0.68596727 1.9317503 11156259
-1.1839586 0.75817442 2.1350925 11156261
-1.2275801 0.80029523 2.2537088 11025443
-1.1419826 0.75817442 2.1350925 11156261
-1.1209944 0.75817442 2.1350925 11418405
-0.99524385 0.68596727 1.9317503 11352355
-0.89136297 0.62631798 1.763772 11419176
-0.83760726 0.6002214 1.6902815 11222052
-0.59708488 0.43652463 1.2292956 11614757
-0.53625083 0.40014762 1.1268544 11483939
-0.46112821 0.35134912 0.98943311 11352610
-0.4304066 0.33500728 0.94341296 11221282
-0.41156158 0.32739347 0.92197174 11352612
-0.39355415 0.32011807 0.90148348 11549734
-0.38469252 0.32011807 0.90148348 11680548
-0.36766067 0.31315899 0.88188601 11615010
-0.33701262 0.29398599 0.82789302 11483939
-0.30990088 0.27702525 0.78012997 11614496
-0.32073617 0.29398599 0.82789302 11549217
-0.28900564 0.27179834 0.76541048 11418146
-0.30445972 0.29398599 0.82789302 11812134
-0.26888433 0.26676506 0.75123626 11746341
-0.28241959 0.28810626 0.81133515 11615525
-0.25890955 0.27179834 0.76541048 11615781
-0.25138554 0.27179834 0.76541048 11811875
-0.24386151 0.27179834 0.76541048 11615526
-0.23196089 0.26676506 0.75123626 11681061
-0.22457621 0.26676506 0.75123626 11615522
-0.21719152 0.26676506 0.75123626 11549475
-0.21376544 0.27179834 0.76541048 11418146
-0.24290656 0.32011807 0.90148348 11614499
-0.23404494 0.32011807 0.90148348 11745828
-0.19119337 0.27179834 0.76541048 11548962
-0.18366936 0.27179834 0.76541048 11746341
-0.17614534 0.27179834 0.76541048 11287332
-0.18238634 0.29398599 0.82789302 11483428
-0.17424811 0.29398599 0.82789302 11418918
-0.16957051 0.3001107 0.84514076 11156259
-0.16827415 0.31315899 0.88188601 11221795
-0.16315195 0.32011807 0.90148348 11287074
-0.15429033 0.32011807 0.90148348 11352611
-0.1454287 0.32011807 0.90148348 11614755
-0.13967088 0.32739347 0.92197174 11548962
-0.13060786 0.32739347 0.92197174 11286560
-0.12154484 0.32739347 0.92197174 11483169
-0.11248181 0.32739347 0.92197174 11614496
-0.10341879 0.32739347 0.92197174 11614496
-0.092258967 0.32011807 0.90148348 11614755
-0.083397344 0.32011807 0.90148348 11548449
-0.072915383 0.31315899 0.88188601 11614755
-0.065674096 0.32011807 0.90148348 11680802
-0.056812476 0.32011807 0.90148348 11680035
-0.047950853 0.32011807 0.90148348 11614496
-0.039977621 0.32739347 0.92197174 11746082
-0.034006059 0.36013284 1.014169 11418146
0 0 0 11287330
0 0 0 11548962
-0.0039981278 0.35134912 0.98943311 11417378
0.011742491 0.72026569 2.028338 11483171
0 0 0 11483939
0 0 0 11811359
0 0 0 12008740
0 0 0 11680802
0.18572626 1.2004428 3.380563 11746595
0.32843602 1.8006642 5.0708447 11680035
0 0 0 11680035
0 0 0 11745830
0.4779759 1.8006642 5.0708447 11287332
0.38387093 1.3095739 3.687887 11811875
0.42012301 1.3095739 3.687887 11746082
0.50201267 1.4405314 4.0566759 11287075
0.54188997 1.4405314 4.0566759 11352098
0.64640808 1.6005905 4.5074177 11353126
0.69071621 1.6005905 4.5074177 11549219
0.73502433 1.6005905 4.5074177 11679778
0.77933246 1.6005905 4.5074177 11745825
0.82364053 1.6005905 4.5074177 11746084
0.86794865 1.6005905 4.5074177 11811876
0.91225678 1.6005905 4.5074177 12008740
0.9565649 1.6005905 4.5074177 11877668
0.7506547 1.2004428 3.380563 11877668
0.78388578 1.2004428 3.380563 11812388
0.81711692 1.2004428 3.380563 11549986
0.78493661 1.108101 3.1205199 11943461
0.81561148 1.108101 3.1205199 11811875
0.68760765 0.90033209 2.5354223 12074788
0.67061734 0.8473714 2.3862798 11680804
0.62101412 0.75817442 2.1350925 11418146
0.50825173 0.6002214 1.6902815 11549221
0.4343729 0.49673492 1.3988537 11549473
0.35123208 0.3893328 1.0963988 12008741
0.41857377 0.45016605 1.2677112 11549216
0.47562528 0.49673492 1.3988537 11746082
0.48937607 0.49673492 1.3988537 11746339
0.50312686 0.49673492 1.3988537 11877668
0.48353073 0.46468753 1.3086051 11942947
0.49639437 0.46468753 1.3086051 11745825
0.54437923 0.49673492 1.3988537 11548963
0.59947306 0.53353012 1.5024725 11615526
0.66338181 0.57621253 1.6226703 11483169
0.62901175 0.53353012 1.5024725 11418918
0.57940298 0.4801771 1.3522252 11484453
0.61313319 0.49673492 1.3988537 11615527
0.62688398 0.49673492 1.3988537 11221027
0.64063483 0.49673492 1.3988537 11352610
0.65438563 0.49673492 1.3988537 11090466
0.66813642 0.49673492 1.3988537 11221541
0.68188721 0.49673492 1.3988537 11221797
0.695638 0.49673492 1.3988537 11417637
0.7347241 0.51447546 1.4488127 11221539
0.74896598 0.51447546 1.4488127 11286305
0.76320785 0.51447546 1.4488127 11221541
0.80624425 0.53353012 1.5024725 11221539
0.79169166 0.51447546 1.4488127 11155489
0.80593354 0.51447546 1.4488127 11089955
0.79189354 0.49673492 1.3988537 10959139
0.80564433 0.49673492 1.3988537 11089956
0.91394079 0.55405051 1.5602599 10892576
0.92927819 0.55405051 1.5602599 10958882
0.9446156 0.55405051 1.5602599 10499874
0.92439926 0.53353012 1.5024725 10565408
0.90562683 0.51447546 1.4488127 10564642
0.91986871 0.51447546 1.4488127 10696225
0.93411064 0.51447546 1.4488127 10433570
0.94835252 0.51447546 1.4488127 10564640
0.96259439 0.51447546 1.4488127 10630690
1.0130155 0.53353012 1.5024725 10499875
1.067315 0.55405051 1.5602599 10368288
1.0425543 0.53353012 1.5024725 10499361
0.98440468 0.49673492 1.3988537 10565156
0.90457839 0.45016605 1.2677112 10761506
0.86309654 0.4236857 1.1931399 10433826
0.87482512 0.4236857 1.1931399 10368291
0.88655376 0.4236857 1.1931399 10105889
0.95442504 0.45016605 1.2677112 10236706
0.9668867 0.45016605 1.2677112 9909027
1.0446382 0.4801771 1.3522252 9778211
0.85778165 0.3893328 1.0963988 9713702
1.0042716 0.45016605 1.2677112 9713188
0.98592317 0.43652463 1.2292956 9844774
1.029195 0.45016605 1.2677112 10041126
1.0416566 0.45016605 1.2677112 10042153
1.0541183 0.45016605 1.2677112 10042151
1.1009858 0.46468753 1.3086051 9976872
1.1138494 0.46468753 1.3086051 10173479
1.126713 0.46468753 1.3086051 9975847
1.1395767 0.46468753 1.3086051 10107173
1.1164266 0.45016605 1.2677112 9976357
1.2901579 0.51447546 1.4488127 9910566
1.2594205 0.49673492 1.3988537 9975846
1.1538116 0.45016605 1.2677112 9582372
1.0663069 0.41158038 1.1590502 9845031
1.0777005 0.41158038 1.1590502 9713702
1.1550996 0.43652463 1.2292956 9517094
1.2036582 0.45016605 1.2677112 9648680
1.4413272 0.53353012 1.5024725 9713958
1.4560966 0.53353012 1.5024725 9713958
