# .PCD v0.7 - Point Cloud Data file format
VERSION 0.7
FIELDS x y z rgb
SIZE 4 4 4 4
TYPE F F F U
COUNT 1 1 1 1
WIDTH 1226
HEIGHT 1
VIEWPOINT 0 0 0 1 0 0 0
POINTS 1226
DATA ascii
-2.98807 -0.36429176 3.1205199 10645067
-2.9573951 -0.36429176 3.1205199 10776138
-2.9267204 -0.36429176 3.1205199 10710860
-2.8960454 -0.36429176 3.1205199 10710858
-2.8653705 -0.36429176 3.1205199 10974030
-2.6322174 -0.3382709 2.8976254 11104331
-2.6037335 -0.3382709 2.8976254 10842444
-3.004458 -0.39464939 3.380563 10842188
-3.2413385 -0.43052661 3.687887 11170124
-3.2050865 -0.43052661 3.687887 11104331
0 0 0 11235917
0 0 0 11104331
-1.7029817 -0.23678964 2.028338 11170380
-0.6351105 -0.089354575 0.76541048 11367759
-0.62758648 -0.089354575 0.76541048 11302482
-0.62006247 -0.089354575 0.76541048 11301712
-0.61253846 -0.089354575 0.76541048 11694925
-0.60501444 -0.089354575 0.76541048 11498319
-0.59749043 -0.089354575 0.76541048 11630418
-0.58996642 -0.089354575 0.76541048 11498832
-0.5824424 -0.089354575 0.76541048 11564624
-0.57491839 -0.089354575 0.76541048 11761488
-0.53699821 -0.084567726 0.72440636 11827792
-0.52987731 -0.084567726 0.72440636 11762000
-0.52275634 -0.084567726 0.72440636 11893071
-0.50658917 -0.083084084 0.71169752 11958864
-0.49959317 -0.083084084 0.71169752 12024658
-0.49259713 -0.083084084 0.71169752 11696720
-0.48560113 -0.083084084 0.71169752 11894097
-0.47035328 -0.081651598 0.69942683 12221523
-0.47160909 -0.083084084 0.71169752 12548947
-0.46461308 -0.083084084 0.71169752 12352338
-0.46578875 -0.084567726 0.72440636 12484178
-0.45866781 -0.084567726 0.72440636 12746580
-0.45154688 -0.084567726 0.72440636 12747350
-0.44442591 -0.084567726 0.72440636 12549716
-0.43730497 -0.084567726 0.72440636 12747092
-0.43018404 -0.084567726 0.72440636 12747092
-0.40847468 -0.081651598 0.69942683 12681557
-0.40864491 -0.083084084 0.71169752 12484950
-0.39472389 -0.081651598 0.69942683 7753009
-0.3878485 -0.081651598 0.69942683 4070168
-0.3809731 -0.081651598 0.69942683 3741720
-0.3740977 -0.081651598 0.69942683 3479063
-0.36722231 -0.081651598 0.69942683 3545626
-0.35423937 -0.080267675 0.68757218 3546653
-0.34748051 -0.080267675 0.68757218 4071972
-0.34659612 -0.081651598 0.69942683 3875363
-0.34568074 -0.083084084 0.71169752 4006179
-0.33868474 -0.083084084 0.71169752 3677212
-0.33168873 -0.083084084 0.71169752 3610906
-0.3246927 -0.083084084 0.71169752 3413524
-0.31769669 -0.083084084 0.71169752 3610388
-0.31624886 -0.084567726 0.72440636 3019280
-0.30912793 -0.084567726 0.72440636 2953489
-0.30200699 -0.084567726 0.72440636 2822675
-0.29488602 -0.084567726 0.72440636 2822932
-0.28776509 -0.084567726 0.72440636 2625810
-0.28574675 -0.086105324 0.73757738 2887694
-0.28365368 -0.087699868 0.75123626 2954257
-0.28148162 -0.089354575 0.76541048 3741202
-0.27395758 -0.089354575 0.76541048 3872788
-0.2715573 -0.091072939 0.78012997 4332567
-0.26906288 -0.09285868 0.79542661 4530459
-0.27190682 -0.096648835 0.82789302 4530457
-0.26376858 -0.096648835 0.82789302 4201753
-0.26095599 -0.098662347 0.84514076 5122082
-0.26949143 -0.10523984 0.90148348 6243389
0 0 0 6375745
0 0 0 6375745
0 0 0 6901314
0 0 0 9003081
0 0 0 10185293
0 0 0 10776398
0 0 0 11235919
0 0 0 11630415
0 0 0 11828306
0 0 0 12222035
-1.9351528 -1.1839482 10.141689 12812373
-1.8354595 -1.1839482 10.141689 13010522
-1.7357663 -1.1839482 10.141689 13207383
-1.3088584 -0.94715858 8.1133518 9525042
-1.2291038 -0.94715858 8.1133518 13404508
-1.9155819 -1.5785975 13.522252 13601884
-1.7826576 -1.5785975 13.522252 13667932
-2.4745998 -2.3678963 20.283379 13930077
-1.1376067 -1.1839482 10.141689 13865054
-1.3838845 -1.5785975 13.522252 14324317
-0.93822014 -1.1839482 10.141689 14389345
-0.8385269 -1.1839482 10.141689 14126943
-0.59106696 -0.94715858 8.1133518 14389084
-0.51131231 -0.94715858 8.1133518 14192474
-0.35963139 -0.78929877 6.761126 13995869
-0.29316923 -0.78929877 6.761126 13930334
-0.19432034 -0.67654181 5.7952509 11960923
-0.13735276 -0.67654181 5.7952509 1575434
-0.070337035 -0.59197408 5.0708447 1641231
-0.020490404 -0.59197408 5.0708447 2167058
0.029356226 -0.59197408 5.0708447 3415324
0.079202853 -0.59197408 5.0708447 4333857
0.12904948 -0.59197408 5.0708447 4662558
0.20445271 -0.67654181 5.7952509 4333593
0.26142028 -0.67654181 5.7952509 4268570
0.31838787 -0.67654181 5.7952509 4070937
0.37535542 -0.67654181 5.7952509 4334109
0.37828264 -0.59197408 5.0708447 5253918
0.42812929 -0.59197408 5.0708447 1641227
0.4779759 -0.59197408 5.0708447 1379086
0.60322571 -0.67654181 5.7952509 1575436
0.57766914 -0.59197408 5.0708447 1575436
0.62751579 -0.59197408 5.0708447 1772818
0.67736244 -0.59197408 5.0708447 9264963
0.72720903 -0.59197408 5.0708447 9790022
0.77705568 -0.59197408 5.0708447 11235664
0.82690233 -0.59197408 5.0708447 12090451
1.0019988 -0.67654181 5.7952509 12483924
1.482553 -0.94715858 8.1133518 12549971
1.5623076 -0.94715858 8.1133518 12549971
1.1729015 -0.67654181 5.7952509 12812371
0.9565649 -0.52619922 4.5074177 13206874
1.000873 -0.52619922 4.5074177 12813143
1.0451812 -0.52619922 4.5074177 13272924
1.2256753 -0.59197408 5.0708447 13272924
1.275522 -0.59197408 5.0708447 13207129
1.3253686 -0.59197408 5.0708447 13207130
1.2224137 -0.52619922 4.5074177 13535579
0.95004123 -0.39464939 3.380563 13535576
0.84280485 -0.3382709 2.8976254 13338715
0.93831086 -0.36429176 3.1205199 13404507
0.96898574 -0.36429176 3.1205199 13798748
0.92825621 -0.3382709 2.8976254 13601629
0.95674002 -0.3382709 2.8976254 13667678
0.91954219 -0.31571952 2.7044504 13535837
1.0137075 -0.3382709 2.8976254 13666653
1.0421914 -0.3382709 2.8976254 13601884
1.0706751 -0.3382709 2.8976254 13339485
0.9617641 -0.29598704 2.5354223 13272665
0.98668742 -0.29598704 2.5354223 13142106
0.95210421 -0.27857605 2.3862798 13207899
1.0365341 -0.29598704 2.5354223 13208412
1.0614574 -0.29598704 2.5354223 13469528
1.158806 -0.31571952 2.7044504 13076828
1.2700616 -0.3382709 2.8976254 13011548
1.2119757 -0.31571952 2.7044504 13207899
3.7156823 -0.94715858 8.1133518 13009752
3.7954369 -0.94715858 8.1133518 12813656
1.076442 -0.26309961 2.2537088 12945240
1.0407752 -0.24925226 2.1350925 6436647
1.0617633 -0.24925226 2.1350925 1181198
1.0827513 -0.24925226 2.1350925 1247503
1.1037394 -0.24925226 2.1350925 1116430
1.1247275 -0.24925226 2.1350925 1181454
1.0884298 -0.23678964 2.028338 1378318
1.1083684 -0.23678964 2.028338 1247247
1.1283071 -0.23678964 2.028338 1181709
1.2086797 -0.24925226 2.1350925 1181454
1.2296677 -0.24925226 2.1350925 1050638
1.2506558 -0.24925226 2.1350925 1247247
1.4212489 -0.27857605 2.3862798 1247247
1.5350003 -0.29598704 2.5354223 1247246
1.9199061 -0.36429176 3.1205199 1181454
1.4916207 -0.27857605 2.3862798 1115662
1.430907 -0.26309961 2.2537088 1050638
1.3765841 -0.24925226 2.1350925 853259
1.3276936 -0.23678964 2.028338 1050382
1.3476323 -0.23678964 2.028338 1115920
1.3675709 -0.23678964 2.028338 1115663
1.3875096 -0.23678964 2.028338 984845
1.4815243 -0.24925226 2.1350925 984075
1.5025125 -0.24925226 2.1350925 984845
1.5235004 -0.24925226 2.1350925 853259
1.4672642 -0.23678964 2.028338 853259
1.4163835 -0.22551394 1.9317503 984075
1.4353727 -0.22551394 1.9317503 918282
1.4543619 -0.22551394 1.9317503 918282
1.4733511 -0.22551394 1.9317503 984075
1.4923403 -0.22551394 1.9317503 918282
1.5868961 -0.23678964 2.028338 918282
1.5303187 -0.22551394 1.9317503 1575952
1.4788848 -0.21526331 1.8439435 9724486
1.4970108 -0.21526331 1.8439435 10447949
1.3888755 -0.19732469 1.6902815 10644815
1.6062754 -0.22551394 1.9317503 10645072
1.6252646 -0.22551394 1.9317503 10448464
1.7264667 -0.23678964 2.028338 10185550
1.7464054 -0.23678964 2.028338 10382413
1.9626044 -0.26309961 2.2537088 10643532
2.3817101 -0.31571952 2.7044504 10119758
2.5803158 -0.3382709 2.8976254 10053453
2.6087997 -0.3382709 2.8976254 10053452
2.8401515 -0.36429176 3.1205199 10053707
2.6657672 -0.3382709 2.8976254 10185034
2.0955288 -0.26309961 2.2537088 10120011
2.1176829 -0.26309961 2.2537088 10053963
2.2657096 -0.27857605 2.3862798 10053965
2.4322398 -0.29598704 2.5354223 9857100
3.2762172 -0.39464939 3.380563 9857100
3.0548756 -0.36429176 3.1205199 9856587
3.0855503 -0.36429176 3.1205199 9987915
3.1162252 -0.36429176 3.1205199 9856586
3.1469002 -0.36429176 3.1205199 9856844
3.1775749 -0.36429176 3.1205199 9921865
3.2082498 -0.36429176 3.1205199 9921610
3.2389247 -0.36429176 3.1205199 10053195
3.2695994 -0.36429176 3.1205199 9790795
3.3002744 -0.36429176 3.1205199 9856075
3.3309493 -0.36429176 3.1205199 9987403
3.361624 -0.36429176 3.1205199 9921867
3.3922989 -0.36429176 3.1205199 9856073
3.4229739 -0.36429176 3.1205199 9855815
3.4536486 -0.36429176 3.1205199 9856329
3.4843235 -0.36429176 3.1205199 9725001
3.8079147 -0.39464939 3.380563 10118989
3.8411458 -0.39464939 3.380563 9922891
3.8743768 -0.39464939 3.380563 10053964
3.607023 -0.36429176 3.1205199 9988171
3.6376977 -0.36429176 3.1205199 9922893
2.1676745 -0.21526331 1.8439435 10053966
2.1858006 -0.21526331 1.8439435 9462344
2.2039268 -0.21526331 1.8439435 8673344
2.3278649 -0.22551394 1.9317503 9791052
3.2855954 -0.31571952 2.7044504 10053708
4.9682708 -0.47357929 4.0566759 9857100
0 0 0 10053966
0 0 0 10315852
0 0 0 10118989
0 0 0 10185297
0 0 0 9988175
0 0 0 10053968
0 0 0 10118219
0 0 0 7884085
0 0 0 7752243
-3.7242663 -0.33361691 3.1205199 7555637
-3.6935916 -0.33361691 3.1205199 7489845
-3.1745276 -0.28913465 2.7044504 7489844
-3.6322417 -0.33361691 3.1205199 7490098
-3.601567 -0.33361691 3.1205199 7555890
-3.5708921 -0.33361691 3.1205199 7753269
-3.8352351 -0.36141831 3.380563 7884085
-3.8020041 -0.36141831 3.380563 7819062
-3.7687731 -0.36141831 3.380563 7884855
-3.7355418 -0.36141831 3.380563 8146746
-4.0388846 -0.3942745 3.687887 8803901
-4.4028959 -0.43370199 4.0566759 9132862
-4.3630185 -0.43370199 4.0566759 9462081
-4.3231416 -0.43370199 4.0566759 10118982
-4.2832642 -0.43370199 4.0566759 9987138
-4.2433867 -0.43370199 4.0566759 10118469
-4.2035093 -0.43370199 4.0566759 10315591
-3.78512 -0.3942745 3.687887 10381384
-3.7488678 -0.3942745 3.687887 10249799
-3.1414442 -0.33361691 3.1205199 10513225
-3.1107693 -0.33361691 3.1205199 10579274
-3.0800946 -0.33361691 3.1205199 10447687
-3.0494196 -0.33361691 3.1205199 10579785
-3.0187449 -0.33361691 3.1205199 10643781
-2.98807 -0.33361691 3.1205199 10906956
-2.9573951 -0.33361691 3.1205199 10972238
-2.3779602 -0.27106375 2.5354223 10578761
-2.3530369 -0.27106375 2.5354223 11103561
-2.1911657 -0.25511882 2.3862798 11038540
-2.1677084 -0.25511882 2.3862798 10972746
-2.6037335 -0.30978712 2.8976254 10907468
-3.004458 -0.36141831 3.380563 10841931
-3.2413385 -0.3942745 3.687887 10841417
0 0 0 10907722
0 0 0 11104331
0 0 0 11039308
-0.65499294 -0.083404228 0.78012997 11170639
-0.6351105 -0.081830561 0.76541048 11170124
-0.62758648 -0.081830561 0.76541048 11039053
-0.62006247 -0.081830561 0.76541048 11235919
-0.61253846 -0.081830561 0.76541048 11301455
-0.60501444 -0.081830561 0.76541048 11563599
-0.59749043 -0.081830561 0.76541048 11695695
-0.58996642 -0.081830561 0.76541048 11498830
-0.5824424 -0.081830561 0.76541048 11695184
-0.57491839 -0.081830561 0.76541048 11564880
-0.56739438 -0.081830561 0.76541048 11564623
-0.5598703 -0.081830561 0.76541048 11893074
-0.55234629 -0.081830561 0.76541048 11564623
-0.51563537 -0.077446781 0.72440636 11828051
-0.50851446 -0.077446781 0.72440636 11696465
-0.49259713 -0.076088071 0.71169752 11893074
-0.48560113 -0.076088071 0.71169752 12221265
-0.47860512 -0.076088071 0.71169752 11959636
-0.48003066 -0.077446781 0.72440636 12156244
-0.47290972 -0.077446781 0.72440636 12156242
-0.46578875 -0.077446781 0.72440636 12287058
-0.45866781 -0.077446781 0.72440636 12549717
-0.45154688 -0.077446781 0.72440636 12681557
-0.44442591 -0.077446781 0.72440636 12681045
-0.43730497 -0.077446781 0.72440636 12746837
-0.45453405 -0.081830561 0.76541048 12943700
-0.42306307 -0.077446781 0.72440636 12615762
-0.41594213 -0.077446781 0.72440636 12812371
-0.39472389 -0.074776202 0.69942683 8603695
-0.3878485 -0.074776202 0.69942683 4464157
-0.3809731 -0.074776202 0.69942683 3872536
-0.3740977 -0.074776202 0.69942683 3741207
-0.36722231 -0.074776202 0.69942683 3543573
-0.36034691 -0.074776202 0.69942683 3151388
-0.35347152 -0.074776202 0.69942683 3677731
-0.34659612 -0.074776202 0.69942683 4136480
-0.34568074 -0.076088071 0.71169752 3678241
-0.33868474 -0.076088071 0.71169752 3808542
-0.33168873 -0.076088071 0.71169752 3676440
-0.3246927 -0.076088071 0.71169752 3741719
-0.31769669 -0.076088071 0.71169752 3347987
-0.31624886 -0.077446781 0.72440636 3085074
-0.30912793 -0.077446781 0.72440636 2888209
-0.30200699 -0.077446781 0.72440636 3085075
-0.29488602 -0.077446781 0.72440636 2559760
-0.28776509 -0.077446781 0.72440636 2363151
-0.28574675 -0.078854904 0.73757738 2822930
-0.28365368 -0.08031518 0.75123626 3019280
-0.27626902 -0.08031518 0.75123626 3282452
-0.27395758 -0.081830561 0.76541048 3610389
-0.2715573 -0.083404228 0.78012997 3938583
-0.2638886 -0.083404228 0.78012997 4398105
-0.27190682 -0.08851061 0.82789302 4661016
-0.26376858 -0.08851061 0.82789302 5120795
-0.26095599 -0.090354577 0.84514076 4792602
-0.29578328 -0.10578097 0.98943311 6437938
0 0 0 6310206
0 0 0 6770242
0 0 0 7163456
0 0 0 9134155
0 0 0 10120015
0 0 0 10841678
0 0 0 11301454
0 0 0 11695952
0 0 0 11958611
0 0 0 12221009
-1.5481223 -0.86740398 8.1133518 12419414
-1.8354595 -1.084255 10.141689 12682068
-1.7357663 -1.084255 10.141689 13207383
-1.636073 -1.084255 10.141689 9721651
-1.2291038 -0.86740398 8.1133518 13404505
-1.1493492 -0.86740398 8.1133518 13404505
-1.7826576 -1.4456732 13.522252 13602141
-1.6497332 -1.4456732 13.522252 13995870
-1.5168089 -1.4456732 13.522252 13930075
-1.0379134 -1.084255 10.141689 14061663
-0.93822014 -1.084255 10.141689 14127708
-0.8385269 -1.084255 10.141689 14324065
-0.49255574 -0.72283661 6.761126 14192477
-0.42609358 -0.72283661 6.761126 13799003
-0.30825549 -0.61957425 5.7952509 14192479
-0.29316923 -0.72283661 6.761126 13930075
-0.19432034 -0.61957425 5.7952509 7027742
-0.13735276 -0.61957425 5.7952509 5318173
-0.080385178 -0.61957425 5.7952509 5778461
-0.023417605 -0.61957425 5.7952509 5844254
0.029356226 -0.54212749 5.0708447 5845538
0.079202853 -0.54212749 5.0708447 5713184
0.12904948 -0.54212749 5.0708447 5713184
0.20445271 -0.61957425 5.7952509 4793113
0.26142028 -0.61957425 5.7952509 5122846
0.31838787 -0.61957425 5.7952509 4858906
0.37535542 -0.61957425 5.7952509 5253403
0.37828264 -0.54212749 5.0708447 5646621
0.4892906 -0.61957425 5.7952509 1640711
0.4779759 -0.54212749 5.0708447 1641229
0.60322571 -0.61957425 5.7952509 1509902
0.57766914 -0.54212749 5.0708447 1509645
0.62751579 -0.54212749 5.0708447 1706255
0.67736244 -0.54212749 5.0708447 8542017
0.72720903 -0.54212749 5.0708447 9461057
0.77705568 -0.54212749 5.0708447 10250055
0.94503123 -0.61957425 5.7952509 11367503
1.1689986 -0.72283661 6.761126 11959380
1.482553 -0.86740398 8.1133518 12418385
1.5623076 -0.86740398 8.1133518 12419414
1.3683851 -0.72283661 6.761126 12682070
0.9565649 -0.4818911 4.5074177 12878166
1.000873 -0.4818911 4.5074177 13010522
1.1758287 -0.54212749 5.0708447 13010522
1.2256753 -0.54212749 5.0708447 13207643
1.275522 -0.54212749 5.0708447 13207640
1.3253686 -0.54212749 5.0708447 13272919
1.2224137 -0.4818911 4.5074177 13207641
1.2667217 -0.4818911 4.5074177 13207385
1.1799269 -0.43370199 4.0566759 13535581
1.0165035 -0.36141831 3.380563 13273433
0.96898574 -0.33361691 3.1205199 13535833
0.92825621 -0.30978712 2.8976254 13666652
0.89295733 -0.28913465 2.7044504 13601372
0.98522377 -0.30978712 2.8976254 13601114
1.0137075 -0.30978712 2.8976254 13601114
1.0421914 -0.30978712 2.8976254 13470298
1.0706751 -0.30978712 2.8976254 13864286
1.0258816 -0.28913465 2.7044504 13536091
0.98668742 -0.27106375 2.5354223 13535578
0.95210421 -0.25511882 2.3862798 13404251
0.97556144 -0.25511882 2.3862798 13338969
1.0614574 -0.27106375 2.5354223 13272922
1.158806 -0.28913465 2.7044504 13272922
1.1853908 -0.28913465 2.7044504 13076316
1.0099798 -0.24094555 2.2537088 13141084
1.0321339 -0.24094555 2.2537088 12943959
1.054288 -0.24094555 2.2537088 12878166
1.076442 -0.24094555 2.2537088 12746835
1.0407752 -0.2282642 2.1350925 6960164
1.0086751 -0.216851 2.028338 1180684
1.0286138 -0.216851 2.028338 1181711
1.1037394 -0.2282642 2.1350925 1181454
1.0684911 -0.216851 2.028338 1378320
1.0884298 -0.216851 2.028338 1247246
1.1083684 -0.216851 2.028338 1181709
1.1283071 -0.216851 2.028338 1050640
1.2086797 -0.2282642 2.1350925 1116433
1.2296677 -0.2282642 2.1350925 1247247
1.2506558 -0.2282642 2.1350925 1116428
1.2716439 -0.2282642 2.1350925 1115661
1.3644449 -0.24094555 2.2537088 984845
1.4681635 -0.25511882 2.3862798 919052
1.4087529 -0.24094555 2.2537088 984846
1.3555961 -0.2282642 2.1350925 919054
1.3765841 -0.2282642 2.1350925 1050125
1.3276936 -0.216851 2.028338 1049870
1.3476323 -0.216851 2.028338 918284
1.3675709 -0.216851 2.028338 984331
1.3875096 -0.216851 2.028338 853259
1.4815243 -0.2282642 2.1350925 984074
1.5025125 -0.2282642 2.1350925 852490
1.4473255 -0.216851 2.028338 852746
1.4672642 -0.216851 2.028338 787981
1.4163835 -0.20652474 1.9317503 852746
1.4353727 -0.20652474 1.9317503 787466
1.4543619 -0.20652474 1.9317503 787466
1.5470188 -0.216851 2.028338 787468
1.5669575 -0.216851 2.028338 787466
1.5868961 -0.216851 2.028338 852489
1.5303187 -0.20652474 1.9317503 1969937
1.5493079 -0.20652474 1.9317503 9593667
1.4970108 -0.19713725 1.8439435 10579021
1.3888755 -0.18070915 1.6902815 10382156
1.533263 -0.19713725 1.8439435 10447693
1.551389 -0.19713725 1.8439435 10251086
1.6442538 -0.20652474 1.9317503 10447182
1.6632431 -0.20652474 1.9317503 10184780
1.6057671 -0.19713725 1.8439435 10184780
1.7012215 -0.20652474 1.9317503 10316623
1.7202107 -0.20652474 1.9317503 10053965
1.7391998 -0.20652474 1.9317503 10054221
1.758189 -0.20652474 1.9317503 10250827
1.7771782 -0.20652474 1.9317503 10119241
1.7961674 -0.20652474 1.9317503 10118471
1.8151566 -0.20652474 1.9317503 10053194
1.7507756 -0.19713725 1.8439435 9922378
1.7689016 -0.19713725 1.8439435 9725258
2.4571631 -0.27106375 2.5354223 9725257
2.4820864 -0.27106375 2.5354223 9791050
2.6741436 -0.28913465 2.7044504 9856585
2.7007284 -0.28913465 2.7044504 9791050
2.7273133 -0.28913465 2.7044504 9790538
2.5817795 -0.27106375 2.5354223 9856844
2.1951182 -0.2282642 2.1350925 9725516
2.2161064 -0.2282642 2.1350925 9659210
2.2370944 -0.2282642 2.1350925 9725001
2.2580824 -0.2282642 2.1350925 9659208
2.4056857 -0.24094555 2.2537088 9725001
2.7313194 -0.27106375 2.5354223 9790794
3.3922989 -0.33361691 3.1205199 9856072
3.4229739 -0.33361691 3.1205199 9855815
3.4536486 -0.33361691 3.1205199 9724744
3.2354431 -0.30978712 2.8976254 9856587
3.2639267 -0.30978712 2.8976254 9725000
3.2924106 -0.30978712 2.8976254 10316622
3.8743768 -0.36141831 3.380563 10250571
2.1314225 -0.19713725 1.8439435 10119244
2.1495485 -0.19713725 1.8439435 9988170
2.0734279 -0.18856607 1.763772 9725001
2.1858006 -0.19713725 1.8439435 8936775
2.2039268 -0.19713725 1.8439435 8344636
2.3278649 -0.20652474 1.9317503 9594186
0 0 0 9988429
0 0 0 10316368
0 0 0 10119759
0 0 0 9988688
0 0 0 10053198
0 0 0 10118989
0 0 0 10053453
0 0 0 9922637
0 0 0 9988173
0 0 0 7686706
0 0 0 7490099
-3.0259664 -0.24614042 2.5354223 7424052
-3.2011125 -0.26254976 2.7044504 7424052
-3.1745276 -0.26254976 2.7044504 7489586
-3.6322417 -0.30294207 3.1205199 7424051
-3.601567 -0.30294207 3.1205199 7490873
-3.5708921 -0.30294207 3.1205199 7489847
-3.5402174 -0.30294207 3.1205199 7752500
-3.8020041 -0.32818723 3.380563 7489587
-4.5225282 -0.3938247 4.0566759 7687479
-4.4826508 -0.3938247 4.0566759 8146744
-4.0388846 -0.35802242 3.687887 8080694
-4.0026326 -0.35802242 3.687887 8607034
-4.3630185 -0.3938247 4.0566759 8935996
-4.3231416 -0.3938247 4.0566759 9066809
-4.7591825 -0.437583 4.5074177 5386779
-4.2433867 -0.3938247 4.0566759 3349260
-4.2035093 -0.3938247 4.0566759 8213825
-3.78512 -0.35802242 3.687887 10119239
-3.4364622 -0.32818723 3.380563 10118980
-3.1414442 -0.30294207 3.1205199 10315848
-3.1107693 -0.30294207 3.1205199 10381642
-3.0800946 -0.30294207 3.1205199 10381641
-3.0494196 -0.30294207 3.1205199 10250823
-2.4527302 -0.24614042 2.5354223 10645066
-2.4278069 -0.24614042 2.5354223 10579020
-2.4028835 -0.24614042 2.5354223 10710349
-2.3779602 -0.24614042 2.5354223 10644300
-2.214623 -0.23166157 2.3862798 10709318
-2.1911657 -0.23166157 2.3862798 10709577
-2.1677084 -0.23166157 2.3862798 10841931
-2.8040209 -0.30294207 3.1205199 10776653
-3.004458 -0.32818723 3.380563 10907469
-2.9712269 -0.32818723 3.380563 10972490
0 0 0 10841674
0 0 0 11300685
0 0 0 10908237
0 0 0 10973517
-0.6473242 -0.075735517 0.78012997 11170123
-0.63965553 -0.075735517 0.78012997 11366989
-0.6319868 -0.075735517 0.78012997 11301965
-0.62431812 -0.075735517 0.78012997 11235660
-0.62874055 -0.077220522 0.79542661 11367502
-0.62092143 -0.077220522 0.79542661 11301707
-0.60131198 -0.075735517 0.78012997 11564879
-0.59364325 -0.075735517 0.78012997 11564109
-0.57491839 -0.07430654 0.76541048 11367757
-0.56739438 -0.07430654 0.76541048 11499343
-0.5598703 -0.07430654 0.76541048 11629902
-0.55234629 -0.07430654 0.76541048 12023889
-0.534733 -0.072930492 0.75123626 11826509
-0.50851446 -0.070325829 0.72440636 11893844
-0.5013935 -0.070325829 0.72440636 12024658
-0.49427256 -0.070325829 0.72440636 12352851
-0.48715159 -0.070325829 0.72440636 12352851
-0.48003066 -0.070325829 0.72440636 12221268
-0.4904249 -0.072930492 0.75123626 12484181
-0.49215415 -0.07430654 0.76541048 12287058
-0.48463014 -0.07430654 0.76541048 12287827
-0.47710612 -0.07430654 0.76541048 12418645
-0.46958208 -0.07430654 0.76541048 12549201
-0.46205807 -0.07430654 0.76541048 12681557
-0.45453405 -0.07430654 0.76541048 12747350
-0.4556064 -0.075735517 0.78012997 12484177
-0.41594213 -0.070325829 0.72440636 12878164
-0.39472389 -0.067900807 0.69942683 8867639
-0.3878485 -0.067900807 0.69942683 4595741
-0.3809731 -0.067900807 0.69942683 4135708
-0.3740977 -0.067900807 0.69942683 3610135
-0.36722231 -0.067900807 0.69942683 3609364
-0.36034691 -0.067900807 0.69942683 2952978
-0.35347152 -0.067900807 0.69942683 2822422
-0.34659612 -0.067900807 0.69942683 4005922
-0.34568074 -0.06909205 0.71169752 3874591
-0.33868474 -0.06909205 0.71169752 3874333
-0.33168873 -0.06909205 0.71169752 3676953
-0.3246927 -0.06909205 0.71169752 3413782
-0.31769669 -0.06909205 0.71169752 3282452
-0.31624886 -0.070325829 0.72440636 3282195
-0.30912793 -0.070325829 0.72440636 3019539
-0.30200699 -0.070325829 0.72440636 2953489
-0.29488602 -0.070325829 0.72440636 2822673
-0.29299718 -0.071604483 0.73757738 2362638
-0.28574675 -0.071604483 0.73757738 2691346
-0.27849633 -0.071604483 0.73757738 2953489
-0.27626902 -0.072930492 0.75123626 3020050
-0.27395758 -0.07430654 0.76541048 3544082
-0.2715573 -0.075735517 0.78012997 3609876
-0.27444413 -0.078764938 0.81133515 3872790
-0.27190682 -0.080372386 0.82789302 4201240
-0.26376858 -0.080372386 0.82789302 4923420
-0.26095599 -0.082046807 0.84514076 4792600
0 0 0 5055774
0 0 0 6504245
0 0 0 6835523
0 0 0 7427399
0 0 0 9200460
0 0 0 10185806
0 0 0 10841934
0 0 0 11235919
0 0 0 11499088
0 0 0 12089681
0 0 0 12090449
-1.5481223 -0.78764939 8.1133518 12812371
-1.8354595 -0.98456168 10.141689 12747606
-1.7357663 -0.98456168 10.141689 13207125
-1.636073 -0.98456168 10.141689 9525299
-1.2291038 -0.78764939 8.1133518 13404505
-1.1493492 -0.78764939 8.1133518 13798491
-1.3369932 -0.98456168 10.141689 13731928
-1.6497332 -1.3127489 13.522252 13602911
-1.5168089 -1.3127489 13.522252 13798489
-1.0379134 -0.98456168 10.141689 14126686
-0.93822014 -0.98456168 10.141689 13995868
-0.67082155 -0.78764939 8.1133518 14061915
-0.49255574 -0.65637445 6.761126 14521182
-0.36522305 -0.56260663 5.7952509 13930586
-0.26972356 -0.49228084 5.0708447 13864796
-0.21987693 -0.49228084 5.0708447 13667674
-0.19432034 -0.56260663 5.7952509 6962717
-0.13735276 -0.56260663 5.7952509 5319197
-0.080385178 -0.56260663 5.7952509 5844511
-0.023417605 -0.56260663 5.7952509 5778460
0.033549972 -0.56260663 5.7952509 5582365
0.090517551 -0.56260663 5.7952509 5712668
0.14748512 -0.56260663 5.7952509 5712414
0.20445271 -0.56260663 5.7952509 4727320
0.22874275 -0.49228084 5.0708447 5056285
0.27858937 -0.49228084 5.0708447 4727834
0.32843602 -0.49228084 5.0708447 5515807
0.37828264 -0.49228084 5.0708447 5450012
0.4892906 -0.56260663 5.7952509 1575688
0.4779759 -0.49228084 5.0708447 1444110
0.70376337 -0.65637445 6.761126 1641231
0.77022552 -0.65637445 6.761126 1509903
0.62751579 -0.49228084 5.0708447 1378317
0.67736244 -0.49228084 5.0708447 8279361
0.72720903 -0.49228084 5.0708447 9067071
0.88806361 -0.56260663 5.7952509 10117956
0.94503123 -0.56260663 5.7952509 10579017
1.1689986 -0.65637445 6.761126 11695695
1.2354608 -0.65637445 6.761126 12287062
1.3019229 -0.65637445 6.761126 12353105
1.3683851 -0.65637445 6.761126 12484437
0.9565649 -0.437583 4.5074177 12747350
1.000873 -0.437583 4.5074177 13076315
1.0451812 -0.437583 4.5074177 13141336
1.2256753 -0.49228084 5.0708447 13272922
1.1337974 -0.437583 4.5074177 13272924
1.1781055 -0.437583 4.5074177 13338460
1.2224137 -0.437583 4.5074177 13273436
1.2667217 -0.437583 4.5074177 13207386
1.1799269 -0.3938247 4.0566759 13470556
1.0165035 -0.32818723 3.380563 13470040
0.89977241 -0.28130332 2.8976254 13535836
0.92825621 -0.28130332 2.8976254 13535837
0.95674002 -0.28130332 2.8976254 13470558
1.0610102 -0.30294207 3.1205199 13404762
1.0916852 -0.30294207 3.1205199 13667677
1.12236 -0.30294207 3.1205199 13142362
1.0706751 -0.28130332 2.8976254 13798236
1.0258816 -0.26254976 2.7044504 13470298
0.92864698 -0.23166157 2.3862798 13273177
0.95210421 -0.23166157 2.3862798 13208157
0.97556144 -0.23166157 2.3862798 13272922
1.0614574 -0.24614042 2.5354223 13142108
1.0863807 -0.24614042 2.5354223 13010522
0.98782581 -0.2187915 2.2537088 13010265
1.0099798 -0.2187915 2.2537088 13206872
0.97781104 -0.20727615 2.1350925 12878166
0.99879909 -0.20727615 2.1350925 12747350
1.0197872 -0.20727615 2.1350925 12812628
0.98873651 -0.19691235 2.028338 7089949
1.0086751 -0.19691235 2.028338 984329
1.0286138 -0.19691235 2.028338 1378576
1.0485525 -0.19691235 2.028338 1181454
1.0684911 -0.19691235 2.028338 1181197
1.0884298 -0.19691235 2.028338 1115660
1.1083684 -0.19691235 2.028338 1116174
1.1283071 -0.19691235 2.028338 1049612
1.1482457 -0.19691235 2.028338 1115661
1.1681844 -0.19691235 2.028338 1181708
1.188123 -0.19691235 2.028338 1115661
1.2716439 -0.20727615 2.1350925 787466
1.3644449 -0.2187915 2.2537088 1115662
1.31362 -0.20727615 2.1350925 1115661
1.334608 -0.20727615 2.1350925 919052
1.3555961 -0.20727615 2.1350925 984845
1.3765841 -0.20727615 2.1350925 984075
1.3975722 -0.20727615 2.1350925 853261
1.3476323 -0.19691235 2.028338 984075
1.3675709 -0.19691235 2.028338 984329
1.3875096 -0.19691235 2.028338 918794
1.4074482 -0.19691235 2.028338 852489
1.4273869 -0.19691235 2.028338 787466
1.4473255 -0.19691235 2.028338 984075
1.3973943 -0.18753555 1.9317503 852746
1.4872029 -0.19691235 2.028338 787209
1.5071415 -0.19691235 2.028338 852745
1.5270802 -0.19691235 2.028338 918282
1.5470188 -0.19691235 2.028338 853004
1.5669575 -0.19691235 2.028338 918282
1.6704168 -0.20727615 2.1350925 984075
1.5303187 -0.18753555 1.9317503 2101006
1.5493079 -0.18753555 1.9317503 9987395
1.4319234 -0.17122811 1.763772 10185804
1.3888755 -0.16409361 1.6902815 10382411
1.4665993 -0.17122811 1.763772 10381901
1.551389 -0.17901121 1.8439435 10185551
1.5695151 -0.17901121 1.8439435 10184782
1.5876411 -0.17901121 1.8439435 10315598
1.6057671 -0.17901121 1.8439435 10185038
1.6238931 -0.17901121 1.8439435 10185038
1.6420193 -0.17901121 1.8439435 10053709
1.6601453 -0.17901121 1.8439435 10119246
1.6782713 -0.17901121 1.8439435 9988171
1.6963974 -0.17901121 1.8439435 9922891
1.6399789 -0.17122811 1.763772 9922893
1.7326494 -0.17901121 1.8439435 9988173
1.7507756 -0.17901121 1.8439435 10119244
1.7689016 -0.17901121 1.8439435 9922891
1.7870276 -0.17901121 1.8439435 9725259
1.8911134 -0.18753555 1.9317503 9922380
2.5070097 -0.24614042 2.5354223 9856585
2.5319331 -0.24614042 2.5354223 9790278
2.5568564 -0.24614042 2.5354223 9659469
2.2949152 -0.2187915 2.2537088 9528140
2.1951182 -0.20727615 2.1350925 9528394
2.2161064 -0.20727615 2.1350925 9594187
2.1252398 -0.19691235 2.028338 9790538
2.1451783 -0.19691235 2.028338 9659466
2.2790704 -0.20727615 2.1350925 9725516
2.7313194 -0.24614042 2.5354223 9855306
3.3922989 -0.30294207 3.1205199 9659463
3.4229739 -0.30294207 3.1205199 9724742
3.2069592 -0.28130332 2.8976254 9724742
3.2354431 -0.28130332 2.8976254 9987401
3.2639267 -0.28130332 2.8976254 9987402
2.7113969 -0.23166157 2.3862798 9857100
2.446975 -0.20727615 2.1350925 9791307
2.1314225 -0.17901121 1.8439435 10249803
2.0560899 -0.17122811 1.763772 9988171
2.0734279 -0.17122811 1.763772 9856587
2.0907657 -0.17122811 1.763772 8278332
2.2039268 -0.17901121 1.8439435 7949621
2.2220528 -0.17901121 1.8439435 9790281
0 0 0 9987659
0 0 0 9988174
0 0 0 10053967
0 0 0 10053964
0 0 0 10120014
0 0 0 9988173
0 0 0 10184783
0 0 0 10250063
0 0 0 9790794
0 0 0 7161393
0 0 0 7226674
-3.0259664 -0.22121711 2.5354223 7358259
-3.2011125 -0.23596489 2.7044504 7226673
-3.6629167 -0.27226722 3.1205199 7095343
-3.6322417 -0.27226722 3.1205199 7029549
-3.601567 -0.27226722 3.1205199 6371364
-3.5708921 -0.27226722 3.1205199 6504235
-3.5402174 -0.27226722 3.1205199 6635308
-3.8020041 -0.29495612 3.380563 6897962
-4.5225282 -0.35394737 4.0566759 7226157
-4.4826508 -0.35394737 4.0566759 7357489
-4.0388846 -0.32177034 3.687887 7686195
-4.4028959 -0.35394737 4.0566759 8081206
-4.3630185 -0.35394737 4.0566759 8409909
-4.3231416 -0.35394737 4.0566759 8081969
-4.7591825 -0.39327487 4.5074177 5057563
-4.7148743 -0.39327487 4.5074177 2428942
-4.2035093 -0.35394737 4.0566759 6177854
-3.4696932 -0.29495612 3.380563 9594191
-3.4364622 -0.29495612 3.380563 9987397
-3.4032311 -0.29495612 3.380563 9855555
-3.1107693 -0.27226722 3.1205199 9987140
-3.0800946 -0.27226722 3.1205199 10118469
-3.0494196 -0.27226722 3.1205199 10185032
-3.0187449 -0.27226722 3.1205199 10185543
-2.2849946 -0.20820433 2.3862798 10185033
-2.2615373 -0.20820433 2.3862798 10315850
-2.23808 -0.20820433 2.3862798 10446923
-2.3530369 -0.22121711 2.5354223 10512714
-2.1911657 -0.20820433 2.3862798 10250825
-2.8346958 -0.27226722 3.1205199 10382411
-2.8040209 -0.27226722 3.1205199 10644550
-3.004458 -0.29495612 3.380563 10578760
-2.9712269 -0.29495612 3.380563 10710345
-2.9379959 -0.29495612 3.380563 10972745
0 0 0 11038795
0 0 0 10776394
-2.8383026 -0.29495612 3.380563 10973518
-1.8700478 -0.19663744 2.2537088 10973260
-1.8478937 -0.19663744 2.2537088 10973772
-1.8257397 -0.19663744 2.2537088 11039049
-2.0290337 -0.22121711 2.5354223 11170126
-2.0041103 -0.22121711 2.5354223 11235662
-0.95960581 -0.10725677 1.2292956 11301709
-0.61310238 -0.069401443 0.79542661 11498316
-0.60528326 -0.069401443 0.79542661 11695695
-0.5974642 -0.069401443 0.79542661 11761488
-0.57830584 -0.068066806 0.78012997 11629902
-0.57063711 -0.068066806 0.78012997 11499089
-0.58548713 -0.070789471 0.81133515 11564879
-0.54482228 -0.066782519 0.76541048 11565136
-0.52734834 -0.065545812 0.75123626 12155216
-0.5013935 -0.063204885 0.72440636 12090451
-0.49427256 -0.063204885 0.72440636 11893842
-0.48715159 -0.063204885 0.72440636 11959121
-0.48875847 -0.064354062 0.73757738 12221009
-0.4904249 -0.065545812 0.75123626 12746580
-0.48304021 -0.065545812 0.75123626 12155472
-0.48463014 -0.066782519 0.76541048 12221006
-0.47710612 -0.066782519 0.76541048 12157010
-0.46958208 -0.066782519 0.76541048 12353105
-0.46205807 -0.066782519 0.76541048 12484691
-0.46327513 -0.068066806 0.78012997 12419668
-0.47383067 -0.070789471 0.81133515 12419155
-0.4479377 -0.068066806 0.78012997 12615764
-0.39472389 -0.061025407 0.69942683 9854016
-0.3878485 -0.061025407 0.69942683 4727584
-0.3809731 -0.061025407 0.69942683 4201501
-0.3740977 -0.061025407 0.69942683 4003609
-0.36722231 -0.061025407 0.69942683 3806229
-0.36666882 -0.06209603 0.71169752 3084305
-0.35967278 -0.06209603 0.71169752 2427922
-0.35267678 -0.06209603 0.71169752 3809316
-0.34568074 -0.06209603 0.71169752 3940897
-0.33868474 -0.06209603 0.71169752 3742747
-0.33168873 -0.06209603 0.71169752 3545625
-0.3246927 -0.06209603 0.71169752 3414037
-0.31769669 -0.06209603 0.71169752 3216404
-0.31624886 -0.063204885 0.72440636 2822675
-0.30912793 -0.063204885 0.72440636 3085075
-0.30200699 -0.063204885 0.72440636 2756880
-0.30024758 -0.064354062 0.73757738 2428173
-0.29299718 -0.064354062 0.73757738 1969421
-0.28574675 -0.064354062 0.73757738 2166542
-0.27849633 -0.064354062 0.73757738 2625551
-0.27124593 -0.064354062 0.73757738 2953491
-0.27395758 -0.066782519 0.76541048 3216146
-0.2715573 -0.068066806 0.78012997 3413269
-0.28004503 -0.072234161 0.82789302 3545111
-0.27190682 -0.072234161 0.82789302 4069654
-0.26376858 -0.072234161 0.82789302 4069656
-0.25563037 -0.072234161 0.82789302 4464152
-0.2526482 -0.073739029 0.84514076 4923416
0 0 0 4989722
0 0 0 6240558
0 0 0 8017992
0 0 0 9068873
0 0 0 10120013
0 0 0 10645325
0 0 0 11235661
0 0 0 11433294
0 0 0 12024660
0 0 0 12222292
-1.5481223 -0.70789474 8.1133518 12549457
-2.4472792 -1.1798245 13.522252 12812371
-1.7357663 -0.88486844 10.141689 13076054
-1.636073 -0.88486844 10.141689 9722675
-1.5363797 -0.88486844 10.141689 13338713
-1.4366865 -0.88486844 10.141689 13601112
-1.7826576 -1.1798245 13.522252 13798491
-1.6497332 -1.1798245 13.522252 13930077
-1.1376067 -0.88486844 10.141689 13930075
-1.0379134 -0.88486844 10.141689 14061661
-0.75057614 -0.70789474 8.1133518 14192477
-0.67082155 -0.70789474 8.1133518 13996122
-0.49255574 -0.58991224 6.761126 14061405
-0.31957018 -0.44243422 5.0708447 14061406
-0.23975429 -0.39327487 4.5074177 13799261
-0.19544616 -0.39327487 4.5074177 13666647
-0.1700303 -0.44243422 5.0708447 7290911
-0.13735276 -0.50563908 5.7952509 5516316
-0.080385178 -0.50563908 5.7952509 6041633
-0.023417605 -0.50563908 5.7952509 5844253
0.033549972 -0.50563908 5.7952509 5778461
0.090517551 -0.50563908 5.7952509 5648161
0.14748512 -0.50563908 5.7952509 5450782
0.20445271 -0.50563908 5.7952509 4793113
0.22874275 -0.44243422 5.0708447 5122078
0.27858937 -0.44243422 5.0708447 4990233
0.32843602 -0.44243422 5.0708447 5450014
0.37828264 -0.44243422 5.0708447 5384989
0.4892906 -0.50563908 5.7952509 1509895
0.63730121 -0.58991224 6.761126 1509645
0.70376337 -0.58991224 6.761126 1444109
0.92427069 -0.70789474 8.1133518 1313294
0.83668768 -0.58991224 6.761126 1378317
0.9031499 -0.58991224 6.761126 8016961
0.96961206 -0.58991224 6.761126 9067073
1.0360743 -0.58991224 6.761126 9527622
1.1025364 -0.58991224 6.761126 10249798
1.1689986 -0.58991224 6.761126 10973260
1.2354608 -0.58991224 6.761126 11827022
1.3019229 -0.58991224 6.761126 12418385
1.1729015 -0.50563908 5.7952509 12616023
0.9565649 -0.39327487 4.5074177 12878166
1.000873 -0.39327487 4.5074177 12812119
1.0451812 -0.39327487 4.5074177 12878935
1.0894892 -0.39327487 4.5074177 12879190
1.1337974 -0.39327487 4.5074177 13338459
1.1781055 -0.39327487 4.5074177 12944731
0.73344809 -0.23596489 2.7044504 13404507
1.2667217 -0.39327487 4.5074177 13404505
1.1799269 -0.35394737 4.0566759 13404251
1.2198042 -0.35394737 4.0566759 13273689
1.0497345 -0.29495612 3.380563 13338715
0.92825621 -0.25281954 2.8976254 13338458
1.0303354 -0.27226722 3.1205199 13535834
1.0610102 -0.27226722 3.1205199 13470043
1.0916852 -0.27226722 3.1205199 13273180
1.12236 -0.27226722 3.1205199 13601116
1.1530348 -0.27226722 3.1205199 13470044
1.0258816 -0.23596489 2.7044504 13338458
0.92864698 -0.20820433 2.3862798 13272922
0.95210421 -0.20820433 2.3862798 13272923
0.97556144 -0.20820433 2.3862798 13141084
0.99901867 -0.20820433 2.3862798 12879447
0.96567178 -0.19663744 2.2537088 12813402
0.98782581 -0.19663744 2.2537088 12813146
1.0099798 -0.19663744 2.2537088 13009498
0.97781104 -0.18628809 2.1350925 12681818
0.94885921 -0.17697369 2.028338 12617047
0.96879786 -0.17697369 2.028338 12419157
0.98873651 -0.17697369 2.028338 7943972
1.0617633 -0.18628809 2.1350925 1115661
1.0286138 -0.17697369 2.028338 1181453
1.1037394 -0.18628809 2.1350925 1115663
1.0684911 -0.17697369 2.028338 1115661
1.0884298 -0.17697369 2.028338 1050381
1.1083684 -0.17697369 2.028338 984845
1.1283071 -0.17697369 2.028338 984075
1.1482457 -0.17697369 2.028338 918539
1.1681844 -0.17697369 2.028338 918540
1.188123 -0.17697369 2.028338 853259
1.2716439 -0.18628809 2.1350925 918538
1.2926319 -0.18628809 2.1350925 918797
1.31362 -0.18628809 2.1350925 853261
1.334608 -0.18628809 2.1350925 1181454
1.3555961 -0.18628809 2.1350925 853259
1.3765841 -0.18628809 2.1350925 919054
1.3975722 -0.18628809 2.1350925 787468
1.3476323 -0.17697369 2.028338 722188
1.3675709 -0.17697369 2.028338 787466
1.3875096 -0.17697369 2.028338 918541
1.4074482 -0.17697369 2.028338 918282
1.359416 -0.16854636 1.9317503 853003
1.3784052 -0.16854636 1.9317503 852489
1.3973943 -0.16854636 1.9317503 852489
1.4872029 -0.17697369 2.028338 853002
1.5071415 -0.17697369 2.028338 852489
1.5270802 -0.17697369 2.028338 787466
1.5470188 -0.17697369 2.028338 918283
1.6494288 -0.18628809 2.1350925 918282
1.6704168 -0.18628809 2.1350925 852489
1.5303187 -0.16854636 1.9317503 1838088
1.4788848 -0.16088517 1.8439435 9593149
1.4319234 -0.15389016 1.763772 10381643
1.3888755 -0.14747806 1.6902815 10250827
1.4665993 -0.15389016 1.763772 10381900
1.4839373 -0.15389016 1.763772 10118987
1.5695151 -0.16088517 1.8439435 10184780
1.5876411 -0.16088517 1.8439435 10053964
1.6057671 -0.16088517 1.8439435 10381643
1.6238931 -0.16088517 1.8439435 10250316
1.6420193 -0.16088517 1.8439435 9790794
1.6601453 -0.16088517 1.8439435 9988427
1.605303 -0.15389016 1.763772 9922634
1.622641 -0.15389016 1.763772 9922378
1.6399789 -0.15389016 1.763772 9856840
1.6573169 -0.15389016 1.763772 10185293
1.6746548 -0.15389016 1.763772 10184781
1.6919928 -0.15389016 1.763772 10053195
1.7093308 -0.15389016 1.763772 9987403
1.7266687 -0.15389016 1.763772 9659464
2.0056078 -0.17697369 2.028338 9921610
2.2506073 -0.19663744 2.2537088 9791307
2.4064529 -0.20820433 2.3862798 9725003
2.2949152 -0.19663744 2.2537088 9921612
2.1951182 -0.18628809 2.1350925 9725001
2.1053011 -0.17697369 2.028338 9659721
2.1252398 -0.17697369 2.028338 9593930
2.1451783 -0.17697369 2.028338 9659723
2.165117 -0.17697369 2.028338 9855817
2.1850557 -0.17697369 2.028338 9331018
2.7562428 -0.22121711 2.5354223 9462858
2.7811661 -0.22121711 2.5354223 9528393
2.8060894 -0.22121711 2.5354223 9593414
2.8310127 -0.22121711 2.5354223 9987146
2.8559361 -0.22121711 2.5354223 9987147
2.7113969 -0.20820433 2.3862798 10053452
2.7348542 -0.20820433 2.3862798 10053195
2.1314225 -0.16088517 1.8439435 10053454
2.0560899 -0.15389016 1.763772 9922380
2.0734279 -0.15389016 1.763772 9921610
2.0907657 -0.15389016 1.763772 8738881
2.1081038 -0.15389016 1.763772 7754039
2.2220528 -0.16088517 1.8439435 9527878
0 0 0 9856843
0 0 0 9922380
0 0 0 10184784
0 0 0 10249805
0 0 0 9857100
0 0 0 9659721
0 0 0 10053195
0 0 0 10052938
0 0 0 9659721
0 0 0 6241577
0 0 0 6570030
-3.2276974 -0.20938003 2.7044504 6437931
-3.6935916 -0.24159236 3.1205199 6635565
-3.6629167 -0.24159236 3.1205199 6307371
-3.6322417 -0.24159236 3.1205199 4334613
-3.601567 -0.24159236 3.1205199 2164998
-3.5708921 -0.24159236 3.1205199 1313037
-3.5402174 -0.24159236 3.1205199 1312779
-3.8020041 -0.26172504 3.380563 1378314
-4.1113887 -0.28551823 3.687887 1443594
-4.0751367 -0.28551823 3.687887 1574920
-4.0388846 -0.28551823 3.687887 2230794
-4.4028959 -0.31407008 4.0566759 5058082
-4.3630185 -0.31407008 4.0566759 7359282
-4.8034906 -0.34896675 4.5074177 5649438
-4.7591825 -0.34896675 4.5074177 2230534
-4.7148743 -0.34896675 4.5074177 1640717
-4.6705661 -0.34896675 4.5074177 2232596
-3.78512 -0.28551823 3.687887 6571067
-3.4364622 -0.26172504 3.380563 9527365
-3.4032311 -0.26172504 3.380563 9724483
-3.3699999 -0.26172504 3.380563 9724740
-3.0800946 -0.24159236 3.1205199 9724740
-3.0494196 -0.24159236 3.1205199 9921862
-3.0187449 -0.24159236 3.1205199 9987654
-2.98807 -0.24159236 3.1205199 10053959
-2.9573951 -0.24159236 3.1205199 10054216
-2.7176688 -0.22433576 2.8976254 10250827
-2.6891849 -0.22433576 2.8976254 10315848
-2.660701 -0.22433576 2.8976254 10513224
-2.8346958 -0.24159236 3.1205199 10447173
-2.8040209 -0.24159236 3.1205199 10644553
-3.004458 -0.26172504 3.380563 10513223
-2.9712269 -0.26172504 3.380563 10513223
-2.9379959 -0.26172504 3.380563 10447688
-2.9047649 -0.26172504 3.380563 10513479
-2.8715336 -0.26172504 3.380563 10645065
-2.8383026 -0.26172504 3.380563 10906954
-2.5892968 -0.24159236 3.1205199 10907212
-1.9565933 -0.1847471 2.3862798 10776139
-2.053957 -0.19629379 2.5354223 10644554
-2.0290337 -0.19629379 2.5354223 11039823
-2.4665976 -0.24159236 3.1205199 11039308
-1.9791871 -0.19629379 2.5354223 11235915
-0.9771319 -0.098146893 1.2677112 11499086
-0.93543774 -0.095172741 1.2292956 11433550
-0.95220858 -0.098146893 1.2677112 11761485
-0.73346102 -0.076602452 0.98943311 11498829
-0.61819017 -0.06543126 0.84514076 11630158
-0.65054125 -0.069793344 0.90148348 11499343
-0.6015746 -0.06543126 0.84514076 11630927
-0.53729826 -0.059258498 0.76541048 11695435
-0.51996362 -0.058161125 0.75123626 11696208
-0.49427256 -0.05608394 0.72440636 12089166
-0.48715159 -0.05608394 0.72440636 11957582
-0.48003066 -0.05608394 0.72440636 11958863
-0.4904249 -0.058161125 0.75123626 12155474
-0.48304021 -0.058161125 0.75123626 12221008
-0.48463014 -0.059258498 0.76541048 12156496
-0.47710612 -0.059258498 0.76541048 12352592
-0.46958208 -0.059258498 0.76541048 12286545
-0.46205807 -0.059258498 0.76541048 12484438
-0.46327513 -0.060398091 0.78012997 12352851
-0.4556064 -0.060398091 0.78012997 12549971
-0.4479377 -0.060398091 0.78012997 12877909
-0.39472389 -0.054150008 0.69942683 11169616
-0.3878485 -0.054150008 0.69942683 4663333
-0.3809731 -0.054150008 0.69942683 3741463
-0.3740977 -0.054150008 0.69942683 2164747
-0.36722231 -0.054150008 0.69942683 2100242
-0.36666882 -0.055100013 0.71169752 2296335
-0.35967278 -0.055100013 0.71169752 3020059
-0.35267678 -0.055100013 0.71169752 3415072
-0.34568074 -0.055100013 0.71169752 3349274
-0.33868474 -0.055100013 0.71169752 3086102
-0.33168873 -0.055100013 0.71169752 3085846
-0.3246927 -0.055100013 0.71169752 2955288
-0.31769669 -0.055100013 0.71169752 2954516
-0.31624886 -0.05608394 0.72440636 2757137
-0.30912793 -0.05608394 0.72440636 2691346
-0.30200699 -0.05608394 0.72440636 2757139
-0.30024758 -0.057103645 0.73757738 2165259
-0.29299718 -0.057103645 0.73757738 2099725
-0.28574675 -0.057103645 0.73757738 2231311
-0.27849633 -0.057103645 0.73757738 2559503
-0.27626902 -0.058161125 0.75123626 2690319
-0.27395758 -0.059258498 0.76541048 2953489
-0.26643357 -0.059258498 0.76541048 3478548
-0.26906288 -0.061582364 0.79542661 3610134
-0.26646867 -0.062814012 0.81133515 3676179
-0.26376858 -0.064095929 0.82789302 3676181
-0.25563037 -0.064095929 0.82789302 3938322
-0.24749213 -0.064095929 0.82789302 4266773
-0.23935391 -0.064095929 0.82789302 4266773
0 0 0 4463640
0 0 0 5186587
0 0 0 6963247
0 0 0 4070412
0 0 0 3083781
0 0 0 8608580
0 0 0 11302227
0 0 0 11827538
0 0 0 12155730
0 0 0 12418900
0 0 0 12681814
-1.7357663 -0.78517514 10.141689 12944726
-1.636073 -0.78517514 10.141689 9787699
-1.5363797 -0.78517514 10.141689 13141335
-1.9155819 -1.0469002 13.522252 13404505
-1.7826576 -1.0469002 13.522252 13601884
-1.6497332 -1.0469002 13.522252 13667675
-0.91008538 -0.62814015 8.1133518 13797721
-0.83033079 -0.62814015 8.1133518 13734497
-0.75057614 -0.62814015 8.1133518 13799263
-0.67082155 -0.62814015 8.1133518 13930077
-0.36941683 -0.39258757 5.0708447 13864795
-0.31957018 -0.39258757 5.0708447 14126684
-0.23975429 -0.34896675 4.5074177 13404762
-0.19544616 -0.34896675 4.5074177 13076567
-0.1700303 -0.39258757 5.0708447 7356703
-0.13735276 -0.44867152 5.7952509 5516059
-0.080385178 -0.44867152 5.7952509 5844770
-0.023417605 -0.44867152 5.7952509 5844254
0.033549972 -0.44867152 5.7952509 5844254
0.090517551 -0.44867152 5.7952509 5975840
0.14748512 -0.44867152 5.7952509 5319709
0.20445271 -0.44867152 5.7952509 4793113
0.26142028 -0.44867152 5.7952509 5122078
0.27858937 -0.39258757 5.0708447 4727834
0.32843602 -0.39258757 5.0708447 5253403
0.37828264 -0.39258757 5.0708447 5515805
0.4892906 -0.44867152 5.7952509 1706504
0.76476151 -0.62814015 8.1133518 1509645
0.8445161 -0.62814015 8.1133518 1312523
0.92427069 -0.62814015 8.1133518 1378316
0.83668768 -0.52345008 6.761126 1443852
0.9031499 -0.52345008 6.761126 7819584
0.96961206 -0.52345008 6.761126 8542269
1.0360743 -0.52345008 6.761126 9264961
1.1025364 -0.52345008 6.761126 10120008
1.1689986 -0.52345008 6.761126 11038796
1.2354608 -0.52345008 6.761126 11893072
1.3019229 -0.52345008 6.761126 12352596
1.1729015 -0.44867152 5.7952509 12418385
1.0761355 -0.39258757 5.0708447 12484692
1.000873 -0.34896675 4.5074177 12813913
1.0451812 -0.34896675 4.5074177 13009496
1.0894892 -0.34896675 4.5074177 12944984
1.1337974 -0.34896675 4.5074177 13010265
1.1781055 -0.34896675 4.5074177 13273693
0.78583729 -0.22433576 2.8976254 13206873
1.2667217 -0.34896675 4.5074177 13141849
1.3110299 -0.34896675 4.5074177 13338715
1.355338 -0.34896675 4.5074177 13403993
1.145165 -0.28551823 3.687887 13404761
0.99966061 -0.24159236 3.1205199 13338714
1.0303354 -0.24159236 3.1205199 13273176
1.0610102 -0.24159236 3.1205199 13207641
1.0916852 -0.24159236 3.1205199 13207644
1.12236 -0.24159236 3.1205199 13272922
1.1530348 -0.24159236 3.1205199 13273692
1.0991589 -0.22433576 2.8976254 13076313
0.98668742 -0.19629379 2.5354223 13010522
0.95210421 -0.1847471 2.3862798 13010778
0.97556144 -0.1847471 2.3862798 13009750
0.94351768 -0.17448337 2.2537088 13272667
0.96567178 -0.17448337 2.2537088 13075288
0.98782581 -0.17448337 2.2537088 12878679
1.0099798 -0.17448337 2.2537088 12813143
0.97781104 -0.16530003 2.1350925 13009498
0.94885921 -0.15703504 2.028338 12681557
1.076442 -0.17448337 2.2537088 12549200
0.98873651 -0.15703504 2.028338 8012585
1.0617633 -0.16530003 2.1350925 1050122
1.0827513 -0.16530003 2.1350925 984075
1.1037394 -0.16530003 2.1350925 984075
1.1247275 -0.16530003 2.1350925 1115915
1.0884298 -0.15703504 2.028338 984075
1.1083684 -0.15703504 2.028338 787468
1.1283071 -0.15703504 2.028338 918282
1.1482457 -0.15703504 2.028338 984331
1.1681844 -0.15703504 2.028338 984588
1.188123 -0.15703504 2.028338 918540
1.2080617 -0.15703504 2.028338 984076
1.2280003 -0.15703504 2.028338 1049870
1.31362 -0.16530003 2.1350925 984077
1.334608 -0.16530003 2.1350925 852748
1.3555961 -0.16530003 2.1350925 984077
1.3765841 -0.16530003 2.1350925 853259
1.3975722 -0.16530003 2.1350925 1115661
1.3476323 -0.15703504 2.028338 918282
1.3675709 -0.15703504 2.028338 918282
1.3875096 -0.15703504 2.028338 853003
1.3404268 -0.14955717 1.9317503 787466
1.359416 -0.14955717 1.9317503 786954
1.3784052 -0.14955717 1.9317503 721675
1.3973943 -0.14955717 1.9317503 852489
1.4163835 -0.14955717 1.9317503 786696
1.5071415 -0.15703504 2.028338 721673
1.5270802 -0.15703504 2.028338 721673
1.5470188 -0.15703504 2.028338 852489
1.7410638 -0.17448337 2.2537088 984075
1.7632179 -0.17448337 2.2537088 852489
1.5303187 -0.14955717 1.9317503 1706500
1.4788848 -0.14275911 1.8439435 9724475
1.4970108 -0.14275911 1.8439435 10381128
1.4492614 -0.1365522 1.763772 10053707
1.3492714 -0.12562802 1.6226703 10316109
1.3652223 -0.12562802 1.6226703 10315850
1.5012753 -0.1365522 1.763772 10250827
1.5876411 -0.14275911 1.8439435 10381389
1.6057671 -0.14275911 1.8439435 10315594
1.6238931 -0.14275911 1.8439435 10119245
1.6420193 -0.14275911 1.8439435 9857098
1.6601453 -0.14275911 1.8439435 9857098
1.605303 -0.1365522 1.763772 9791559
1.622641 -0.1365522 1.763772 9988171
1.6399789 -0.1365522 1.763772 9856587
1.6573169 -0.1365522 1.763772 9921866
1.6048776 -0.13086252 1.6902815 9725256
1.6919928 -0.1365522 1.763772 9725257
1.7093308 -0.1365522 1.763772 9790794
1.7266687 -0.1365522 1.763772 9922381
2.0056078 -0.15703504 2.028338 9725259
2.132154 -0.16530003 2.1350925 9921609
2.1531422 -0.16530003 2.1350925 9725258
2.1741302 -0.16530003 2.1350925 9986890
