# .PCD v0.7 - Point Cloud Data file format
VERSION 0.7
FIELDS x y z rgb
SIZE 4 4 4 4
TYPE F F F U
COUNT 1 1 1 1
WIDTH 1274
HEIGHT 1
VIEWPOINT 0 0 0 1 0 0 0
POINTS 1274
DATA ascii
-0.28900564 0.17398611 0.76541048 786952
-0.26640224 0.16466542 0.72440636 590088
-0.25034055 0.1589873 0.69942683 721675
-0.24346517 0.1589873 0.69942683 786698
-0.23658976 0.1589873 0.69942683 786698
-0.22971436 0.1589873 0.69942683 852491
-0.21906206 0.15629262 0.68757218 721675
-0.21230319 0.15629262 0.68757218 917769
-0.20211858 0.15368773 0.67611259 1181454
-0.19547234 0.15368773 0.67611259 721673
-0.18882613 0.15368773 0.67611259 853001
-0.18217991 0.15368773 0.67611259 1903633
-0.1755337 0.15368773 0.67611259 4070173
-0.16888748 0.15368773 0.67611259 7154729
-0.15958159 0.15116826 0.66502881 9648168
-0.15304431 0.15116826 0.66502881 10893606
-0.14650705 0.15116826 0.66502881 10958626
-0.1472096 0.1589873 0.69942683 11351583
-0.13795567 0.15629262 0.68757218 11548449
-0.12901019 0.15368773 0.67611259 11418146
-0.12035801 0.15116826 0.66502881 11417377
-0.11382074 0.15116826 0.66502881 11089696
-0.10728347 0.15116826 0.66502881 11351585
-0.10074621 0.15116826 0.66502881 11351840
-0.094208948 0.15116826 0.66502881 11351842
-0.08767169 0.15116826 0.66502881 11416863
-0.081134424 0.15116826 0.66502881 11286305
-0.075840443 0.15368773 0.67611259 11483169
-0.078333087 0.17398611 0.76541048 11745314
0 0 0 11811364
0 0 0 11680035
-0.053733353 0.16765934 0.73757738 11679777
-0.044851959 0.16177656 0.71169752 11877411
-0.037855938 0.16177656 0.71169752 11811361
-0.031982098 0.16765934 0.73757738 11548964
-0.025189674 0.17076415 0.75123626 11548703
-0.018489795 0.177332 0.78012997 11548960
-0.011253926 0.18442528 0.81133515 11877927
-0.0034877283 0.19619709 0.86312246 11746339
0 0 0 11483171
0 0 0 11024160
0 0 0 10958882
0 0 0 10893859
0 0 0 10893859
0 0 0 10959652
0 0 0 11090468
0 0 0 11090468
0 0 0 11812388
0 0 0 11418918
0.18359044 0.4009245 1.763772 12074533
0.19255638 0.38421932 1.6902815 12009254
0.21826635 0.4009245 1.763772 11943207
0.23560432 0.4009245 1.763772 12140324
0.27703202 0.43910778 1.9317503 11943461
0.29602119 0.43910778 1.9317503 12009252
0.3150104 0.43910778 1.9317503 12074533
0.3339996 0.43910778 1.9317503 11813158
0.35298878 0.43910778 1.9317503 12075047
0.3905769 0.46106321 2.028338 12140326
0.48295945 0.5424273 2.3862798 12075045
0.66223723 0.709328 3.1205199 11943459
0.6929121 0.709328 3.1205199 11943717
0.52259058 0.51229244 2.2537088 12008997
0.49027017 0.46106321 2.028338 12205861
0.46382618 0.41914836 1.8439435 11877924
0.46099776 0.4009245 1.763772 11878439
0.28951901 0.24266484 1.0675462 12075047
0.30001304 0.24266484 1.0675462 12075559
0.49163616 0.38421932 1.6902815 11681830
0.33883449 0.25614622 1.1268544 11943974
0.34991151 0.25614622 1.1268544 12009767
0.37130249 0.26346469 1.1590502 11878951
0.44647866 0.30737546 1.3522252 12009513
0.49261189 0.32933083 1.4488127 12075306
0.56767625 0.36885056 1.6226703 11812133
0.56118 0.354664 1.5602599 12009256
0.5765174 0.354664 1.5602599 11943977
0.56993431 0.3415283 1.5024725 12140581
0.58470368 0.3415283 1.5024725 11943977
0.59947306 0.3415283 1.5024725 11943463
0.61424243 0.3415283 1.5024725 11944231
0.62901175 0.3415283 1.5024725 12074793
0.62078893 0.32933083 1.4488127 11747365
0.63503081 0.32933083 1.4488127 11551017
0.64927274 0.32933083 1.4488127 11616040
0.66351461 0.32933083 1.4488127 11484709
0.67775649 0.32933083 1.4488127 11484968
0.69199842 0.32933083 1.4488127 11812391
0.7062403 0.32933083 1.4488127 11549989
0.77590394 0.354664 1.5602599 11484709
0.79124135 0.354664 1.5602599 11222050
0.83884192 0.36885056 1.6226703 11352869
0.85479283 0.36885056 1.6226703 11418918
0.87074375 0.36885056 1.6226703 11287590
0.88669467 0.36885056 1.6226703 11485226
0.94025582 0.38421932 1.6902815 11353896
0.99847448 0.4009245 1.763772 11090981
1.1125565 0.43910778 1.9317503 11221799
1.1315457 0.43910778 1.9317503 10959139
1.2080617 0.46106321 2.028338 10828578
1.2280003 0.46106321 2.028338 10828323
1.0851643 0.4009245 1.763772 11157031
1.014302 0.36885056 1.6226703 10827812
1.0302529 0.36885056 1.6226703 10828839
1.0897957 0.38421932 1.6902815 10696998
1.1545161 0.4009245 1.763772 10828071
1.171854 0.4009245 1.763772 10696740
1.1891921 0.4009245 1.763772 10697255
1.20653 0.4009245 1.763772 10434851
1.3404268 0.43910778 1.9317503 10697253
1.1419095 0.36885056 1.6226703 10565154
1.1578604 0.36885056 1.6226703 10237987
1.1738113 0.36885056 1.6226703 10172707
1.1897622 0.36885056 1.6226703 10303267
1.2559512 0.38421932 1.6902815 10172194
1.3278956 0.4009245 1.763772 10434083
1.3452337 0.4009245 1.763772 10237730
1.3057978 0.38421932 1.6902815 10303780
1.3224133 0.38421932 1.6902815 10569519
1.3390288 0.38421932 1.6902815 10700080
1.4145855 0.4009245 1.763772 10503729
1.4319234 0.4009245 1.763772 10306094
1.515137 0.41914836 1.8439435 10437165
1.533263 0.41914836 1.8439435 10240043
1.551389 0.41914836 1.8439435 9846570
1.5695151 0.41914836 1.8439435 9781034
1.5876411 0.41914836 1.8439435 9583402
1.4719532 0.38421932 1.6902815 9518376
1.4885688 0.38421932 1.6902815 9518119
1.5051843 0.38421932 1.6902815 9583656
1.7391998 0.43910778 1.9317503 9715756
1.758189 0.43910778 1.9317503 9715759
1.8660372 0.46106321 2.028338 9978413
1.7961674 0.43910778 1.9317503 9978415
1.8151566 0.43910778 1.9317503 9781295
1.8341458 0.43910778 1.9317503 9847085
2.1619909 0.51229244 2.2537088 9781549
2.184145 0.51229244 2.2537088 9977645
2.2062991 0.51229244 2.2537088 9780522
1.4856354 0.3415283 1.5024725 9452584
1.4468188 0.32933083 1.4488127 9846571
1.4106793 0.3179746 1.3988537 9583912
1.3769491 0.30737546 1.3522252 9650733
1.2638559 0.27943221 1.2292956 9453100
1.2759399 0.27943221 1.2292956 9453868
1.3282747 0.2881645 1.2677112 8929066
1.383986 0.29746011 1.3086051 8340270
1.6037904 0.3415283 1.5024725 8211507
1.5069349 0.3179746 1.3988537 8737854
1.5206857 0.3179746 1.3988537 8343355
1.5344365 0.3179746 1.3988537 7554359
1.7958972 0.36885056 1.6226703 6962479
1.8118482 0.36885056 1.6226703 7552814
1.8277991 0.36885056 1.6226703 8931125
1.9205729 0.38421932 1.6902815 9717300
1.9371884 0.38421932 1.6902815 9914419
1.953804 0.38421932 1.6902815 9782831
1.9704195 0.38421932 1.6902815 9716783
1.9075537 0.36885056 1.6226703 9584430
1.9235046 0.36885056 1.6226703 9256494
2.4243195 0.46106321 2.028338 8666158
2.8755977 0.5424273 2.3862798 8469547
4.9283938 0.92212641 4.0566759 8337961
4.1402254 0.76843864 3.380563 8206376
0 0 0 8337447
0 0 0 8731433
0 0 0 8993577
0 0 0 9058600
0 0 0 9124393
0 0 0 9124908
0 0 0 9190957
0 0 0 4334103
0 0 0 1901828
-3.7242663 0.74000287 3.1205199 918282
-4.0013905 0.80166972 3.380563 984075
-3.9681594 0.80166972 3.380563 1969425
-3.9349284 0.80166972 3.380563 2626067
-4.2563972 0.87454879 3.687887 2822931
-4.2201452 0.87454879 3.687887 2757137
-4.6022825 0.96200371 4.0566759 2625808
-4.5624051 0.96200371 4.0566759 2560271
-5.0250311 1.0688931 4.5074177 2757137
-4.9807229 1.0688931 4.5074177 2757139
-4.9364147 1.0688931 4.5074177 2691345
-4.8921065 1.0688931 4.5074177 2559760
-4.3630185 0.96200371 4.0566759 2560017
-4.3231416 0.96200371 4.0566759 2034702
-4.2832642 0.96200371 4.0566759 1509643
-4.7148743 1.0688931 4.5074177 1246473
-4.2035093 0.96200371 4.0566759 1049351
-4.1636324 0.96200371 4.0566759 786950
-4.123755 0.96200371 4.0566759 655880
-4.0838776 0.96200371 4.0566759 721161
-4.0440001 0.96200371 4.0566759 786696
-4.0041227 0.96200371 4.0566759 1903633
-3.9642456 0.96200371 4.0566759 1246471
-3.9243684 0.96200371 4.0566759 918282
-3.884491 0.96200371 4.0566759 984075
-3.8446138 0.96200371 4.0566759 721675
-3.4588511 0.87454879 3.687887 1115917
-3.4225991 0.87454879 3.687887 1312270
-3.7249818 0.96200371 4.0566759 1377804
-3.6851046 0.96200371 4.0566759 984331
-3.3138428 0.87454879 3.687887 1050123
-3.2775905 0.87454879 3.687887 1050122
-3.2413385 0.87454879 3.687887 1904404
-3.2050865 0.87454879 3.687887 1838356
-3.1688342 0.87454879 3.687887 1706255
-3.4458406 0.96200371 4.0566759 3153696
-3.4059634 0.96200371 4.0566759 3612954
-3.366086 0.96200371 4.0566759 3810847
-3.6957874 1.0688931 4.5074177 4862506
-3.2863314 0.96200371 4.0566759 5914163
-3.2464542 0.96200371 4.0566759 5584428
-3.2065768 0.96200371 4.0566759 4992549
-3.1666996 0.96200371 4.0566759 4532771
-3.1268222 0.96200371 4.0566759 4533795
-3.4299388 1.0688931 4.5074177 4796452
-3.3856306 1.0688931 4.5074177 5189668
-3.3413227 1.0688931 4.5074177 5584426
-3.2970145 1.0688931 4.5074177 6372909
-3.2527063 1.0688931 4.5074177 6832686
-3.2083981 1.0688931 4.5074177 6701356
-3.1640902 1.0688931 4.5074177 6438444
-3.5097547 1.2025046 5.0708447 6635821
-3.459908 1.2025046 5.0708447 6964275
-3.4100614 1.2025046 5.0708447 7293238
-3.3602147 1.2025046 5.0708447 7292466
-3.3103681 1.2025046 5.0708447 7489329
-3.2605214 1.2025046 5.0708447 7752500
-3.2106748 1.2025046 5.0708447 7358770
-3.1608281 1.2025046 5.0708447 7555892
-3.1109815 1.2025046 5.0708447 7686706
-3.0611348 1.2025046 5.0708447 8146230
-3.0112882 1.2025046 5.0708447 8409656
-2.6323926 1.0688931 4.5074177 8409916
-2.5880845 1.0688931 4.5074177 8541499
-2.5437765 1.0688931 4.5074177 8935229
-2.4994683 1.0688931 4.5074177 8803643
-2.4551601 1.0688931 4.5074177 8934715
-2.4108522 1.0688931 4.5074177 8870205
-2.366544 1.0688931 4.5074177 9394748
-2.6125152 1.2025046 5.0708447 9723200
-2.5626686 1.2025046 5.0708447 9461311
-2.5128219 1.2025046 5.0708447 9527620
-2.4629753 1.2025046 5.0708447 9461054
-2.4131286 1.2025046 5.0708447 9460284
-2.1006951 1.0688931 4.5074177 9920317
-2.0563872 1.0688931 4.5074177 9920832
-2.012079 1.0688931 4.5074177 10643780
-1.041761 0.56588453 2.3862798 10710597
-0.69244659 0.38480148 1.6226703 10447938
-0.33824784 0.19240074 0.81133515 6500903
-0.31756958 0.18500072 0.78012997 6369316
-0.30405366 0.18151012 0.76541048 5778210
-0.29652965 0.18151012 0.76541048 4990496
-0.28365368 0.17814884 0.75123626 3151897
-0.27626902 0.17814884 0.75123626 1114888
-0.25928131 0.17178637 0.72440636 786697
-0.24346517 0.16586269 0.69942683 655625
-0.24949466 0.17490976 0.73757738 852489
-0.27757153 0.20041743 0.84514076 984075
-0.24386151 0.18151012 0.76541048 1509903
-0.21596357 0.16586269 0.69942683 2101782
-0.20554432 0.16305147 0.68757218 4203300
-0.19878545 0.16305147 0.68757218 6239024
-0.19202659 0.16305147 0.68757218 8600111
-0.19176835 0.16877258 0.71169752 10369319
-0.18477233 0.16877258 0.71169752 10958370
-0.17777631 0.16877258 0.71169752 11155492
-0.16224127 0.16033395 0.67611259 11221027
-0.16096039 0.16586269 0.69942683 11221027
-0.1514734 0.16305147 0.68757218 11351329
-0.1472096 0.16586269 0.69942683 11285279
-0.13795567 0.16305147 0.68757218 11351583
-0.12901019 0.16033395 0.67611259 11023390
-0.12236396 0.16033395 0.67611259 11482658
-0.11970802 0.16586269 0.69942683 11679521
-0.11283262 0.16586269 0.69942683 11548705
-0.10074621 0.15770552 0.66502881 11614242
-0.094208948 0.15770552 0.66502881 11614242
-0.08767169 0.15770552 0.66502881 11548449
-0.082486659 0.16033395 0.67611259 11745315
-0.075840443 0.16033395 0.67611259 11482913
-0.072836034 0.16877258 0.71169752 11417378
-0.070809066 0.18151012 0.76541048 11482658
0 0 0 11548705
0 0 0 11351840
-0.058103669 0.2186372 0.92197174 11482657
-0.046908442 0.20913123 0.88188601 11942437
-0.039977621 0.2186372 0.92197174 11680035
-0.027204847 0.19240074 0.81133515 12074020
-0.019229386 0.19240074 0.81133515 11943461
-0.011972261 0.20468163 0.86312246 11680035
0 0 0 11352353
0 0 0 11221541
0 0 0 10892833
0 0 0 10893859
0 0 0 10893859
0 0 0 11221539
0 0 0 11024675
0 0 0 11090468
0 0 0 11614757
0 0 0 11287332
0.18208605 0.45809698 1.9317503 11746343
0.20107524 0.45809698 1.9317503 11746341
0.22006443 0.45809698 1.9317503 12074533
0.23905364 0.45809698 1.9317503 12140326
0.2463136 0.4372744 1.8439435 11746593
0.26443964 0.4372744 1.8439435 11747365
0.29602119 0.45809698 1.9317503 11943207
0.3150104 0.45809698 1.9317503 12009000
0.3339996 0.45809698 1.9317503 11877666
0.37063825 0.48100185 2.028338 12009254
0.41113356 0.50631773 2.1350925 11812134
0 0 0 11943460
0 0 0 12009252
0.7506547 0.80166972 3.380563 12337705
0.55333114 0.56588453 2.3862798 11943974
0.46692392 0.45809698 1.9317503 12337960
0.46382618 0.4372744 1.8439435 12009767
0.46099776 0.41826245 1.763772 12337703
0.28951901 0.25315887 1.0675462 12140840
0.30001304 0.25315887 1.0675462 12272681
0.32775748 0.26722327 1.1268544 12272169
0.33883449 0.26722327 1.1268544 12206633
0.34991151 0.26722327 1.1268544 12271910
0.38222316 0.28294227 1.1931399 12009765
0.44647866 0.32066789 1.3522252 12206379
0.47562528 0.33172539 1.3988537 11747111
0.54584259 0.37000144 1.5602599 11878439
0.56118 0.37000144 1.5602599 11812645
0.5765174 0.37000144 1.5602599 11878442
0.59185487 0.37000144 1.5602599 11550502
0.58470368 0.35629767 1.5024725 11943717
0.59947306 0.35629767 1.5024725 11877927
0.59230512 0.34357274 1.4488127 12140069
0.60654706 0.34357274 1.4488127 12207146
0.62078893 0.34357274 1.4488127 12009254
0.63503081 0.34357274 1.4488127 11943207
0.64927274 0.34357274 1.4488127 11943207
0.66351461 0.34357274 1.4488127 11877927
0.67775649 0.34357274 1.4488127 11747111
0.69199842 0.34357274 1.4488127 11746341
0.7062403 0.34357274 1.4488127 11615527
0.695638 0.33172539 1.3988537 11222052
0.7347241 0.34357274 1.4488127 11222822
0.7767055 0.35629767 1.5024725 11091752
0.85479283 0.38480148 1.6226703 11287334
0.87074375 0.38480148 1.6226703 11222566
0.88669467 0.38480148 1.6226703 11418920
0.94025582 0.40083486 1.6902815 10959138
1.0935673 0.45809698 1.9317503 11288359
1.1125565 0.45809698 1.9317503 11156259
1.1315457 0.45809698 1.9317503 11353127
1.1505349 0.45809698 1.9317503 11025445
1.1695241 0.45809698 1.9317503 10959910
1.0399491 0.40083486 1.6902815 11222824
0.97529048 0.37000144 1.5602599 10827811
1.0302529 0.38480148 1.6226703 10893859
1.1371782 0.41826245 1.763772 10500389
1.2069941 0.4372744 1.8439435 10565667
1.2251202 0.4372744 1.8439435 10696996
1.2432462 0.4372744 1.8439435 10499876
1.1562579 0.40083486 1.6902815 10500131
1.1728734 0.40083486 1.6902815 10828326
1.1419095 0.38480148 1.6226703 10894118
1.1578604 0.38480148 1.6226703 10565925
1.1738113 0.38480148 1.6226703 10631460
1.2393357 0.40083486 1.6902815 10434083
1.3701285 0.4372744 1.8439435 10237476
1.4543619 0.45809698 1.9317503 10303267
1.4733511 0.45809698 1.9317503 10369832
1.3625716 0.41826245 1.763772 10172451
1.4426327 0.4372744 1.8439435 10371112
1.3390288 0.40083486 1.6902815 10175019
1.4145855 0.41826245 1.763772 9976872
1.4319234 0.41826245 1.763772 9911337
1.515137 0.4372744 1.8439435 10370859
1.533263 0.4372744 1.8439435 10306349
1.551389 0.4372744 1.8439435 10305579
1.5695151 0.4372744 1.8439435 10108972
1.5876411 0.4372744 1.8439435 9912622
1.5359511 0.41826245 1.763772 10043436
1.5532892 0.41826245 1.763772 10043436
1.7202107 0.45809698 1.9317503 10043693
1.7391998 0.45809698 1.9317503 9846574
1.758189 0.45809698 1.9317503 9714731
1.7771782 0.45809698 1.9317503 9584172
1.7961674 0.45809698 1.9317503 9452841
1.8151566 0.45809698 1.9317503 9582887
1.9258533 0.48100185 2.028338 9584430
2.4322398 0.60125232 2.5354223 9387051
2.4571631 0.60125232 2.5354223 9452841
2.4820864 0.60125232 2.5354223 9518634
1.4325769 0.34357274 1.4488127 9584427
1.4468188 0.34357274 1.4488127 9649707
1.4106793 0.33172539 1.3988537 9847339
1.4244301 0.33172539 1.3988537 9650988
1.2638559 0.29151624 1.2292956 9913134
1.2759399 0.29151624 1.2292956 9781805
1.3711224 0.31032377 1.3086051 9715758
1.4301188 0.32066789 1.3522252 9453869
1.546512 0.34357274 1.4488127 8602671
1.5607539 0.34357274 1.4488127 8474167
1.5749959 0.34357274 1.4488127 8737853
1.6480985 0.35629767 1.5024725 8277819
1.7958972 0.38480148 1.6226703 7226421
1.8873417 0.40083486 1.6902815 5845545
1.8277991 0.38480148 1.6226703 6700851
1.84375 0.38480148 1.6226703 8340786
1.8597009 0.38480148 1.6226703 9717300
1.953804 0.40083486 1.6902815 9847856
2.1495485 0.4372744 1.8439435 9913647
2.1676745 0.4372744 1.8439435 9913392
2.0036507 0.40083486 1.6902815 9716270
2.0202661 0.40083486 1.6902815 9913392
2.3278649 0.45809698 1.9317503 9716529
3.080246 0.60125232 2.5354223 9454128
4.1402254 0.80166972 3.380563 9257263
0 0 0 9256750
0 0 0 9322543
0 0 0 9519407
0 0 0 9256749
0 0 0 9190957
0 0 0 9125163
0 0 0 9388335
0 0 0 4532254
0 0 0 2823183
-3.7242663 0.77067769 3.1205199 1114887
-4.0013905 0.8349008 3.380563 1049868
-4.3289013 0.91080087 3.687887 1575696
-4.2926493 0.91080087 3.687887 2298389
-4.2563972 0.91080087 3.687887 2428945
-4.2201452 0.91080087 3.687887 2428431
-4.1838932 0.91080087 3.687887 2165259
-4.5624051 1.001881 4.0566759 1771274
-5.0250311 1.1132011 4.5074177 1377288
-4.9807229 1.1132011 4.5074177 983559
-4.9364147 1.1132011 4.5074177 786696
-4.4028959 1.001881 4.0566759 786698
-4.3630185 1.001881 4.0566759 721673
-4.3231416 1.001881 4.0566759 655880
-4.7591825 1.1132011 4.5074177 786696
-4.7148743 1.1132011 4.5074177 721160
-4.6705661 1.1132011 4.5074177 655625
-4.1636324 1.001881 4.0566759 655628
-4.123755 1.001881 4.0566759 786698
-4.0838776 1.001881 4.0566759 852491
-4.0440001 1.001881 4.0566759 1115661
-4.0041227 1.001881 4.0566759 1837838
-3.9642456 1.001881 4.0566759 1640459
-3.9243684 1.001881 4.0566759 1575695
-3.884491 1.001881 4.0566759 1509902
-3.4951031 0.91080087 3.687887 1970196
-3.4588511 0.91080087 3.687887 2233110
-3.4225991 0.91080087 3.687887 2429976
-3.3863468 0.91080087 3.687887 2035474
-3.6851046 1.001881 4.0566759 1180680
-3.0376892 0.8349008 3.380563 1575433
-2.7733459 0.77067769 3.1205199 3283476
-2.7426713 0.77067769 3.1205199 4532771
-2.9379959 0.8349008 3.380563 5847348
-3.1688342 0.91080087 3.687887 6635318
-3.4458406 1.001881 4.0566759 6898226
-3.4059634 1.001881 4.0566759 7094576
-2.5892968 0.77067769 3.1205199 7554352
-2.5586221 0.77067769 3.1205199 7421996
-2.5279472 0.77067769 3.1205199 7488302
-2.7053783 0.8349008 3.380563 7290926
-3.2065768 1.001881 4.0566759 6634536
-3.1666996 1.001881 4.0566759 5912103
-3.1268222 1.001881 4.0566759 5912875
-3.0869448 1.001881 4.0566759 6373165
-2.7700613 0.91080087 3.687887 6570030
-2.7338092 0.91080087 3.687887 6766896
-2.9673131 1.001881 4.0566759 6767407
-3.2527063 1.1132011 4.5074177 7555638
-3.2083981 1.1132011 4.5074177 6964014
-3.1640902 1.1132011 4.5074177 7357745
-3.119782 1.1132011 4.5074177 7424309
-3.459908 1.2523513 5.0708447 7554869
-3.0311658 1.1132011 4.5074177 7818294
-2.9868577 1.1132011 4.5074177 7555890
-3.3103681 1.2523513 5.0708447 7555892
-3.2605214 1.2523513 5.0708447 8015412
-3.2106748 1.2523513 5.0708447 7950135
-3.1608281 1.2523513 5.0708447 8015416
-3.1109815 1.2523513 5.0708447 8410169
-2.721009 1.1132011 4.5074177 8410168
-2.6767008 1.1132011 4.5074177 8606520
-2.6323926 1.1132011 4.5074177 8870205
-2.5880845 1.1132011 4.5074177 9067325
-2.5437765 1.1132011 4.5074177 9526847
-2.4994683 1.1132011 4.5074177 9592639
-2.4551601 1.1132011 4.5074177 9657405
-2.4108522 1.1132011 4.5074177 9526845
-2.366544 1.1132011 4.5074177 9592125
-2.3222358 1.1132011 4.5074177 9854784
-2.5626686 1.2523513 5.0708447 10314819
-2.5128219 1.2523513 5.0708447 10183233
-2.4629753 1.2523513 5.0708447 9854784
-2.1450033 1.1132011 4.5074177 9854527
-2.1006951 1.1132011 4.5074177 10249282
-1.4236526 0.77067769 3.1205199 10446404
-1.3929777 0.77067769 3.1205199 10840389
-1.1806624 0.66792065 2.7044504 10841414
-0.64115423 0.37106705 1.5024725 8210726
-0.33161551 0.19644725 0.79542661 6303524
-0.31756958 0.19266942 0.78012997 5778725
-0.30405366 0.18903413 0.76541048 5580835
-0.29652965 0.18903413 0.76541048 4924703
-0.28900564 0.18903413 0.76541048 4267033
-0.28148162 0.18903413 0.76541048 3282451
-0.26888433 0.18553352 0.75123626 2296074
-0.26149964 0.18553352 0.75123626 4397077
-0.26906288 0.19644725 0.79542661 7876128
-0.27757153 0.2087252 0.84514076 10632232
-0.24386151 0.18903413 0.76541048 11155748
-0.22367656 0.17890732 0.72440636 11286562
-0.20908818 0.17273809 0.69942683 11352355
-0.20221278 0.17273809 0.69942683 11089953
-0.19533738 0.17273809 0.69942683 11024675
-0.19176835 0.1757686 0.71169752 10959652
-0.18477233 0.1757686 0.71169752 11220771
-0.1747112 0.17273809 0.69942683 11286305
-0.16499113 0.16981034 0.68757218 11286306
-0.15823227 0.16981034 0.68757218 11351843
-0.1514734 0.16981034 0.68757218 11482914
-0.14979224 0.1757686 0.71169752 11679776
-0.1403342 0.17273809 0.69942683 11548449
-0.13345881 0.17273809 0.69942683 11614496
-0.12658341 0.17273809 0.69942683 11482658
-0.12180816 0.1757686 0.71169752 11417378
-0.11283262 0.17273809 0.69942683 11416863
-0.10074621 0.16424279 0.66502881 11482142
-0.094208948 0.16424279 0.66502881 11548706
-0.089132875 0.16698016 0.67611259 11614500
-0.08533103 0.17273809 0.69942683 11549218
-0.079832047 0.1757686 0.71169752 11613986
-0.078333087 0.18903413 0.76541048 11614497
0 0 0 11417376
0 0 0 11679775
-0.065674096 0.22264022 0.90148348 12074020
-0.058103669 0.22770022 0.92197174 11680035
-0.049040645 0.22770022 0.92197174 11745825
-0.039977621 0.22770022 0.92197174 11811107
-0.031633545 0.23299558 0.94341296 11876641
-0.021365985 0.22264022 0.90148348 11811875
-0.01308596 0.23299558 0.94341296 11548703
0 0 0 11811621
0 0 0 11222054
0 0 0 11156261
0 0 0 10958882
0 0 0 10696994
0 0 0 11024675
0 0 0 11090466
0 0 0 11155744
0.12609421 0.4174504 1.6902815 11287332
0.17125171 0.5009405 2.028338 11024160
0.19119038 0.5009405 2.028338 11352353
0.21112902 0.5009405 2.028338 11942947
0 0 0 12008740
0 0 0 11943461
0 0 0 12139813
0.26443964 0.45540044 1.8439435 12008740
0.28256571 0.45540044 1.8439435 11877414
0.30069175 0.45540044 1.8439435 11943461
0.3506996 0.5009405 2.028338 12075047
0.37063825 0.5009405 2.028338 11812386
0.45950222 0.58934176 2.3862798 11878181
0 0 0 12075046
0 0 0 11878180
1.125982 1.2523513 5.0708447 12271910
0.78388578 0.8349008 3.380563 12206119
0.57678843 0.58934176 2.3862798 12074533
0.5668987 0.55660057 2.2537088 12206632
0.5049023 0.47708619 1.9317503 12140581
0.47833574 0.43560043 1.763772 12140582
0 0 0 12205605
0 0 0 12206117
0.36963758 0.30360028 1.2292956 12271912
0.38172162 0.30360028 1.2292956 12075308
0.39380565 0.30360028 1.2292956 12337190
0.46187449 0.34547618 1.3988537 11681572
0.47562528 0.34547618 1.3988537 12009511
0.50685376 0.35781464 1.4488127 11943974
0.56118 0.38533884 1.5602599 11943974
0.59957808 0.4007524 1.6226703 11877928
0.59185487 0.38533884 1.5602599 11877927
0.58470368 0.37106705 1.5024725 12009767
0.57806325 0.35781464 1.4488127 12008997
0.59230512 0.35781464 1.4488127 12075303
0.60654706 0.35781464 1.4488127 11616297
0.62078893 0.35781464 1.4488127 11812904
0.63503081 0.35781464 1.4488127 11353380
0.64927274 0.35781464 1.4488127 11485223
0.66351461 0.35781464 1.4488127 11746599
0.67775649 0.35781464 1.4488127 11549989
0.69199842 0.35781464 1.4488127 11680806
0.68188721 0.34547618 1.3988537 11812136
0.695638 0.34547618 1.3988537 11615525
0.7347241 0.35781464 1.4488127 11418405
0.74896598 0.35781464 1.4488127 11550504
0.85479283 0.4007524 1.6226703 11287845
0.98948157 0.45540044 1.8439435 11287846
1.0076076 0.45540044 1.8439435 11090726
1.074578 0.47708619 1.9317503 11222053
1.0935673 0.47708619 1.9317503 11287845
1.1125565 0.47708619 1.9317503 10762533
1.1315457 0.47708619 1.9317503 10894629
1.1505349 0.47708619 1.9317503 11156259
1.1163639 0.45540044 1.8439435 10893347
1.0399491 0.4174504 1.6902815 10894118
1.0565646 0.4174504 1.6902815 10828068
1.170742 0.45540044 1.8439435 10696226
1.2454808 0.47708619 1.9317503 10630947
1.26447 0.47708619 1.9317503 10762787
1.2834592 0.47708619 1.9317503 10762787
1.3024484 0.47708619 1.9317503 10696740
1.2613722 0.45540044 1.8439435 10565924
1.1728734 0.4174504 1.6902815 10696483
1.1419095 0.4007524 1.6226703 10565669
1.1578604 0.4007524 1.6226703 10631203
1.22272 0.4174504 1.6902815 10499876
1.2932198 0.43560043 1.763772 10369058
1.4353727 0.47708619 1.9317503 10369061
1.4543619 0.47708619 1.9317503 10302499
1.4733511 0.47708619 1.9317503 10172195
1.4923403 0.47708619 1.9317503 10106658
1.5868961 0.5009405 2.028338 10568749
1.6068348 0.5009405 2.028338 10568749
1.7123929 0.52730578 2.1350925 10568751
1.4970108 0.45540044 1.8439435 10305578
1.515137 0.45540044 1.8439435 10240299
1.533263 0.45540044 1.8439435 10239787
1.551389 0.45540044 1.8439435 9977130
1.5695151 0.45540044 1.8439435 10108459
1.5876411 0.45540044 1.8439435 9780264
1.6057671 0.45540044 1.8439435 9583657
1.6238931 0.45540044 1.8439435 9583657
1.7202107 0.47708619 1.9317503 10108718
1.7391998 0.47708619 1.9317503 9649448
1.758189 0.47708619 1.9317503 9780009
2.0733747 0.55660057 2.2537088 9780264
2.9015014 0.77067769 3.1205199 9583655
2.9321761 0.77067769 3.1205199 9650218
2.962851 0.77067769 3.1205199 9715500
2.594389 0.66792065 2.7044504 9781293
2.4571631 0.62617564 2.5354223 9716013
2.6475587 0.66792065 2.7044504 9780264
2.6741436 0.66792065 2.7044504 9649448
2.7007284 0.66792065 2.7044504 9518632
1.4610606 0.35781464 1.4488127 9518633
1.4244301 0.34547618 1.3988537 9584684
1.2638559 0.30360028 1.2292956 9847599
1.3582587 0.32318741 1.3086051 9913135
1.4168264 0.33396032 1.3522252 9913393
1.4301188 0.33396032 1.3522252 9650222
1.546512 0.35781464 1.4488127 9322283
1.5607539 0.35781464 1.4488127 8733487
1.7639954 0.4007524 1.6226703 8013877
1.7799463 0.4007524 1.6226703 8344638
1.7958972 0.4007524 1.6226703 8409660
2.0589182 0.45540044 1.8439435 7160114
1.8277991 0.4007524 1.6226703 5451820
1.9205729 0.4174504 1.6902815 6503985
1.9371884 0.4174504 1.6902815 8340016
2.1314225 0.45540044 1.8439435 9585454
2.2519081 0.47708619 1.9317503 9651248
2.1676745 0.45540044 1.8439435 9782575
1.9235046 0.4007524 1.6226703 9782061
2.0202661 0.4174504 1.6902815 9847085
2.1254418 0.43560043 1.763772 9846829
3.080246 0.62617564 2.5354223 9912622
0 0 0 9715759
0 0 0 9387310
0 0 0 9255726
0 0 0 9189932
0 0 0 9321260
0 0 0 9189674
0 0 0 8928555
0 0 0 8796969
0 0 0 5518885
0 0 0 3217422
-4.0346217 0.86813188 3.380563 1245954
-4.3651533 0.94705296 3.687887 786696
-4.7617917 1.0417583 4.0566759 852489
-4.7219143 1.0417583 4.0566759 983817
-4.2563972 0.94705296 3.687887 852489
-4.2201452 0.94705296 3.687887 983305
-4.1838932 0.94705296 3.687887 983305
-4.5624051 1.0417583 4.0566759 721161
-5.0250311 1.1575093 4.5074177 721675
-4.9807229 1.1575093 4.5074177 655882
-4.9364147 1.1575093 4.5074177 721673
-4.4028959 1.0417583 4.0566759 655367
-4.3630185 1.0417583 4.0566759 786953
-4.3231416 1.0417583 4.0566759 786696
-4.7591825 1.1575093 4.5074177 918282
-4.7148743 1.1575093 4.5074177 1050124
-4.2035093 1.0417583 4.0566759 1378833
-4.1636324 1.0417583 4.0566759 1838869
-3.7488678 0.94705296 3.687887 2035990
-3.7126157 0.94705296 3.687887 2430232
-4.0440001 1.0417583 4.0566759 2692886
-4.0041227 1.0417583 4.0566759 2955288
-3.9642456 1.0417583 4.0566759 3284253
-3.5676074 0.94705296 3.687887 3087643
-3.5313554 0.94705296 3.687887 3612958
-3.4951031 0.94705296 3.687887 4861480
-3.4588511 0.94705296 3.687887 5846826
-3.4225991 0.94705296 3.687887 6503211
-3.3863468 0.94705296 3.687887 6568493
-3.0709202 0.86813188 3.380563 6437161
-2.8040209 0.80135256 3.1205199 6371368
-2.7733459 0.80135256 3.1205199 6765354
-2.7426713 0.80135256 3.1205199 6699561
-2.7119963 0.80135256 3.1205199 6896940
-2.6813214 0.80135256 3.1205199 6766124
-2.8715336 0.86813188 3.380563 6897708
-2.6199718 0.80135256 3.1205199 7225644
-2.4043469 0.74411303 2.8976254 7159851
-2.3758633 0.74411303 2.8976254 7159598
-2.3473794 0.74411303 2.8976254 6503213
-2.4972725 0.80135256 3.1205199 5714990
-2.6721473 0.86813188 3.380563 5715246
-2.8788176 0.94705296 3.687887 6175019
-3.1268222 1.0417583 4.0566759 6569261
-3.0869448 1.0417583 4.0566759 6109479
-2.7700613 0.94705296 3.687887 6241063
-2.3132234 0.80135256 3.1205199 6438958
-2.1195092 0.74411303 2.8976254 6897710
-2.0910254 0.74411303 2.8976254 7555122
-3.2083981 1.1575093 4.5074177 7490100
-3.1640902 1.1575093 4.5074177 7818294
-3.119782 1.1575093 4.5074177 7884087
-3.0754738 1.1575093 4.5074177 7818295
-3.0311658 1.1575093 4.5074177 8212793
-2.9868577 1.1575093 4.5074177 8146998
-2.9425495 1.1575093 4.5074177 8015158
-2.8982413 1.1575093 4.5074177 8081462
-3.2106748 1.3021978 5.0708447 8146998
-2.8096251 1.1575093 4.5074177 8541242
-2.765317 1.1575093 4.5074177 8738618
-2.721009 1.1575093 4.5074177 9066556
-2.6767008 1.1575093 4.5074177 9591869
-2.6323926 1.1575093 4.5074177 9789504
-2.5880845 1.1575093 4.5074177 9460539
-2.5437765 1.1575093 4.5074177 9855549
-2.4994683 1.1575093 4.5074177 9921342
-2.4551601 1.1575093 4.5074177 10052932
-2.4108522 1.1575093 4.5074177 9921087
-2.366544 1.1575093 4.5074177 10052930
-2.3222358 1.1575093 4.5074177 10315587
-2.2779276 1.1575093 4.5074177 10184003
-2.2336197 1.1575093 4.5074177 10446146
-2.1893115 1.1575093 4.5074177 10249542
-1.4850023 0.80135256 3.1205199 10183233
-1.3504468 0.74411303 2.8976254 10380612
-1.0886755 0.61279899 2.3862798 10709573
-0.86231953 0.49607536 1.9317503 10709316
-0.70839751 0.41670331 1.6226703 10643778
-0.61825585 0.37205651 1.4488127 6565658
-0.46978867 0.28937733 1.1268544 5843489
-0.32379642 0.20426632 0.79542661 5383967
-0.30405366 0.19655816 0.76541048 5844007
-0.29103836 0.19291821 0.75123626 7224113
-0.28365368 0.19291821 0.75123626 8666928
-0.28148162 0.19655816 0.76541048 10239534
-0.27395758 0.19655816 0.76541048 10959911
-0.2715573 0.20033814 0.78012997 11221796
-0.26906288 0.20426632 0.79542661 11287076
-0.26124379 0.20426632 0.79542661 11286562
-0.2307975 0.18602826 0.72440636 11286560
-0.22367656 0.18602826 0.72440636 11286562
-0.21655561 0.18602826 0.72440636 11483169
-0.20221278 0.1796135 0.69942683 11351842
-0.19533738 0.1796135 0.69942683 11351843
-0.18846199 0.1796135 0.69942683 11286049
-0.18158659 0.1796135 0.69942683 11286562
-0.1747112 0.1796135 0.69942683 11154978
-0.16783579 0.1796135 0.69942683 11154978
-0.16096039 0.1796135 0.69942683 10827041
-0.154085 0.1796135 0.69942683 11154976
-0.1472096 0.1796135 0.69942683 11351840
-0.1403342 0.1796135 0.69942683 11286305
-0.1358002 0.18276462 0.71169752 11286307
-0.13110425 0.18602826 0.72440636 11286562
-0.1239833 0.18602826 0.72440636 11680035
-0.11283262 0.1796135 0.69942683 11482658
-0.10242531 0.17362638 0.67611259 11286560
-0.095779091 0.17362638 0.67611259 11090466
-0.092206426 0.1796135 0.69942683 11351585
-0.086828068 0.18276462 0.71169752 11155747
-0.10112059 0.23150183 0.90148348 11417635
0 0 0 11417378
0 0 0 11417633
0 0 0 11613985
-0.068728708 0.24226937 0.94341296 11679521
-0.058103669 0.23676324 0.92197174 11679521
-0.049040645 0.23676324 0.92197174 11483171
-0.040907335 0.24226937 0.94341296 11745828
-0.031633545 0.24226937 0.94341296 11811361
-0.022359751 0.24226937 0.94341296 12008740
-0.01308596 0.24226937 0.94341296 11548449
-0.0043137693 0.27414691 1.0675462 11287332
0 0 0 11352355
0 0 0 11155746
0 0 0 11089955
0 0 0 10893859
0 0 0 11156261
0 0 0 11483169
0.10947867 0.43406594 1.6902815 11222050
0.12609421 0.43406594 1.6902815 11548962
0.15568337 0.47352648 1.8439435 11287332
0.19119038 0.52087915 2.028338 11353125
0.21112902 0.52087915 2.028338 11287847
0.23106767 0.52087915 2.028338 12008740
0.23905364 0.49607536 1.9317503 11680287
0.2463136 0.47352648 1.8439435 12074020
0.26443964 0.47352648 1.8439435 11878181
0.28256571 0.47352648 1.8439435 12074279
0.3150104 0.49607536 1.9317503 11943461
0.3506996 0.52087915 2.028338 12009254
0.41182026 0.57875466 2.2537088 12008740
0.45950222 0.61279899 2.3862798 12140326
0 0 0 12009253
0 0 0 11877925
1.000873 1.1575093 4.5074177 11877926
0.78388578 0.86813188 3.380563 12009511
0.81711692 0.86813188 3.380563 12008996
0.850348 0.86813188 3.380563 11747108
0.58905274 0.57875466 2.2537088 12009768
0.52389151 0.49607536 1.9317503 12140068
0 0 0 11943720
0 0 0 12009000
0.34851548 0.29764524 1.1590502 12009254
0.38172162 0.31568432 1.2292956 12205606
0.39380565 0.31568432 1.2292956 12009254
0.46187449 0.359227 1.3988537 11943206
0.49261189 0.37205651 1.4488127 12075046
0.50685376 0.37205651 1.4488127 12140583
0.54039556 0.38583642 1.5024725 11943974
0.5765174 0.40067628 1.5602599 11943461
0.59185487 0.40067628 1.5602599 11943207
0.60719228 0.40067628 1.5602599 11418917
0.57806325 0.37205651 1.4488127 11746853
0.59230512 0.37205651 1.4488127 11812388
0.60654706 0.37205651 1.4488127 11812134
0.62078893 0.37205651 1.4488127 11746599
0.63503081 0.37205651 1.4488127 11550247
0.64927274 0.37205651 1.4488127 11615012
0.66351461 0.37205651 1.4488127 11418918
0.67775649 0.37205651 1.4488127 11484711
0.66813642 0.359227 1.3988537 11287588
0.68188721 0.359227 1.3988537 11614755
0.695638 0.359227 1.3988537 11746341
0.7347241 0.37205651 1.4488127 11287845
0.80657881 0.40067628 1.5602599 11025443
0.85479283 0.41670331 1.6226703 10959652
1.0365998 0.49607536 1.9317503 11025445
1.0555888 0.49607536 1.9317503 11222054
1.074578 0.49607536 1.9317503 10893862
1.0935673 0.49607536 1.9317503 11025191
1.1125565 0.49607536 1.9317503 11156005
1.1315457 0.49607536 1.9317503 11090468
1.1505349 0.49607536 1.9317503 11024419
1.1163639 0.47352648 1.8439435 10827813
1.0399491 0.43406594 1.6902815 10631461
1.1526159 0.47352648 1.8439435 10630433
1.170742 0.47352648 1.8439435 10565154
1.2454808 0.49607536 1.9317503 10696740
1.26447 0.49607536 1.9317503 10500644
1.2251202 0.47352648 1.8439435 10631460
1.2432462 0.47352648 1.8439435 10762533
1.2613722 0.47352648 1.8439435 10762533
1.2794983 0.47352648 1.8439435 10303009
1.189489 0.43406594 1.6902815 10237474
1.2061045 0.43406594 1.6902815 10500644
1.2758818 0.45293838 1.763772 10828326
1.3520025 0.47352648 1.8439435 10762019
1.4353727 0.49607536 1.9317503 10434596
1.4543619 0.49607536 1.9317503 10368292
1.4733511 0.49607536 1.9317503 10172196
1.5669575 0.52087915 2.028338 9975333
1.6704168 0.54829383 2.1350925 10371370
1.6914049 0.54829383 2.1350925 10436652
1.7123929 0.54829383 2.1350925 10436649
1.4970108 0.47352648 1.8439435 10108970
1.515137 0.47352648 1.8439435 9584168
1.533263 0.47352648 1.8439435 9650220
1.8961422 0.57875466 2.2537088 9846827
1.6442538 0.49607536 1.9317503 10043691
1.5876411 0.47352648 1.8439435 10043436
1.6057671 0.47352648 1.8439435 10042922
1.7012215 0.49607536 1.9317503 9846829
1.7202107 0.49607536 1.9317503 9911850
1.7391998 0.49607536 1.9317503 9781036
1.758189 0.49607536 1.9317503 9911848
2.6657672 0.74411303 2.8976254 9978155
2.9015014 0.80135256 3.1205199 9780264
2.9321761 0.80135256 3.1205199 9517352
2.962851 0.80135256 3.1205199 9320488
2.993526 0.80135256 3.1205199 9321001
2.6209738 0.69450551 2.7044504 9321255
2.6475587 0.69450551 2.7044504 9451817
3.0855503 0.80135256 3.1205199 9451817
2.7007284 0.69450551 2.7044504 9321257
1.4610606 0.37205651 1.4488127 9518635
1.4753026 0.37205651 1.4488127 9584682
1.4381809 0.359227 1.3988537 9913388
1.4519317 0.359227 1.3988537 9979183
1.4168264 0.34725276 1.3522252 10175279
1.4794333 0.359227 1.3988537 9913392
1.4931841 0.359227 1.3988537 9518121
1.680812 0.40067628 1.5602599 9584430
1.7639954 0.41670331 1.6226703 8471086
1.7799463 0.41670331 1.6226703 7489075
1.7958972 0.41670331 1.6226703 8080953
1.8118482 0.41670331 1.6226703 8015673
1.7574992 0.40067628 1.5602599 6240555
1.84375 0.41670331 1.6226703 5649450
2.021414 0.45293838 1.763772 6831149
2.1314225 0.47352648 1.8439435 8732973
2.7817688 0.61279899 2.3862798 9520177
2.2708972 0.49607536 1.9317503 9717297
2.0036507 0.43406594 1.6902815 9716783
1.9394555 0.41670331 1.6226703 9913649
2.1254418 0.45293838 1.763772 9913136
0 0 0 9913391
0 0 0 9847599
0 0 0 9716786
0 0 0 9913906
0 0 0 9913650
0 0 0 9913396
0 0 0 9912884
0 0 0 9519662
0 0 0 9256752
0 0 0 5715494
0 0 0 2428681
-4.4014053 0.9833051 3.687887 1180678
-4.8016691 1.0816356 4.0566759 983817
-4.7617917 1.0816356 4.0566759 721675
-4.7219143 1.0816356 4.0566759 655882
-4.2563972 0.9833051 3.687887 655882
-4.2201452 0.9833051 3.687887 655882
-4.1838932 0.9833051 3.687887 918281
-4.5624051 1.0816356 4.0566759 1181195
-5.0250311 1.2018174 4.5074177 1640975
-4.9807229 1.2018174 4.5074177 2232596
-4.9364147 1.2018174 4.5074177 2561561
-4.4028959 1.0816356 4.0566759 2758683
-4.3630185 1.0816356 4.0566759 2955549
-4.3231416 1.0816356 4.0566759 3217948
-4.2832642 1.0816356 4.0566759 3020567
-4.2433867 1.0816356 4.0566759 2955030
-3.5029244 0.90136296 3.380563 2955284
-3.4696932 0.90136296 3.380563 3350298
-3.4364622 0.90136296 3.380563 3943462
-3.4032311 0.90136296 3.380563 4666669
-3.6763637 0.9833051 3.687887 6111028
-3.6401114 0.9833051 3.687887 6701362
-3.9642456 1.0816356 4.0566759 7226160
-3.5676074 0.9833051 3.687887 7554095
-3.2370756 0.90136296 3.380563 7160110
-3.2038445 0.90136296 3.380563 6831147
-3.4588511 0.9833051 3.687887 6568745
-3.4225991 0.9833051 3.687887 6371623
-3.3863468 0.9833051 3.687887 6634281
-2.8346958 0.83202744 3.1205199 6699563
-2.8040209 0.83202744 3.1205199 6436907
-2.5752497 0.77259684 2.8976254 6042919
-2.546766 0.77259684 2.8976254 5648163
-2.0738795 0.63625622 2.3862798 5187614
-1.8345883 0.56928188 2.1350925 4071963
-1.8136003 0.56928188 2.1350925 2955287
-1.7926122 0.56928188 2.1350925 2364952
-2.4043469 0.77259684 2.8976254 2561563
-2.2174723 0.72109038 2.7044504 4141102
-2.1908875 0.72109038 2.7044504 5519924
-1.5459304 0.51506454 1.9317503 2429206
-1.7814316 0.6009087 2.2537088 2167576
-1.9791871 0.67602223 2.5354223 3878188
-2.605685 0.90136296 3.380563 6107942
-3.4299388 1.2018174 4.5074177 6831147
0 0 0 6635309
-2.5059917 0.90136296 3.380563 6372907
-2.1195092 0.77259684 2.8976254 6832175
-2.0910254 0.77259684 2.8976254 6964271
-3.2083981 1.2018174 4.5074177 7490099
-3.1640902 1.2018174 4.5074177 7819064
-3.119782 1.2018174 4.5074177 8146743
-2.1291742 0.83202744 3.1205199 8080951
-2.4800446 0.9833051 3.687887 8213048
-2.6881719 1.0816356 4.0566759 8213048
-2.9425495 1.2018174 4.5074177 8410428
-2.8982413 1.2018174 4.5074177 8804156
-2.8539333 1.2018174 4.5074177 8738619
-2.8096251 1.2018174 4.5074177 9132607
-2.765317 1.2018174 4.5074177 9198655
-2.721009 1.2018174 4.5074177 9592896
-2.6767008 1.2018174 4.5074177 9920834
-2.6323926 1.2018174 4.5074177 10446404
-2.5880845 1.2018174 4.5074177 10446405
-2.5437765 1.2018174 4.5074177 10643525
-2.4994683 1.2018174 4.5074177 10314819
-2.4551601 1.2018174 4.5074177 10184515
-2.4108522 1.2018174 4.5074177 10316102
-2.366544 1.2018174 4.5074177 10314819
-2.3222358 1.2018174 4.5074177 10709060
-2.2779276 1.2018174 4.5074177 10643780
-2.2336197 1.2018174 4.5074177 10774339
-1.6419835 0.90136296 3.380563 10644034
-1.4850023 0.83202744 3.1205199 10642755
-1.1121327 0.63625622 2.3862798 10577988
-0.63818908 0.37297779 1.3988537 10775110
-0.62443829 0.37297779 1.3988537 11103047
-0.61068749 0.37297779 1.3988537 9983800
-0.50915188 0.31812811 1.1931399 8468261
-0.45709166 0.29233393 1.0963988 10305323
-0.41284049 0.2704089 1.014169 11419433
-0.30405366 0.20408218 0.76541048 11549732
-0.29103836 0.2003029 0.75123626 11418658
-0.28365368 0.2003029 0.75123626 11418146
-0.27626902 0.2003029 0.75123626 11418148
-0.27922603 0.20800686 0.78012997 11681061
-0.26643357 0.20408218 0.76541048 11549990
-0.2638886 0.20800686 0.78012997 11286818
-0.24673025 0.2003029 0.75123626 11155233
-0.22283897 0.1864889 0.69942683 11024160
-0.21596357 0.1864889 0.69942683 11024162
-0.20908818 0.1864889 0.69942683 11286562
-0.19547234 0.18027259 0.67611259 11089953
-0.18882613 0.18027259 0.67611259 11220769
-0.18217991 0.18027259 0.67611259 11286562
-0.18158659 0.1864889 0.69942683 11221282
-0.1747112 0.1864889 0.69942683 11220771
-0.17078029 0.18976064 0.71169752 11351583
-0.16096039 0.1864889 0.69942683 11351585
-0.154085 0.1864889 0.69942683 11155489
-0.1472096 0.1864889 0.69942683 11089955
-0.14279622 0.18976064 0.71169752 10892319
-0.14334466 0.2003029 0.75123626 11089699
-0.13595997 0.2003029 0.75123626 11089953
-0.1239833 0.19314921 0.72440636 11351583
-0.11481214 0.18976064 0.71169752 11548189
-0.10242531 0.18027259 0.67611259 11549216
-0.099081822 0.1864889 0.69942683 11548451
-0.092206426 0.1864889 0.69942683 11417122
-0.093381122 0.20408218 0.76541048 11483169
0 0 0 11285791
0 0 0 11482144
0 0 0 11547935
-0.078002505 0.25154316 0.94341296 11483171
-0.067166694 0.24582627 0.92197174 11286305
-0.058103669 0.24582627 0.92197174 11548451
-0.050181128 0.25154316 0.94341296 11482658
-0.042902816 0.26381356 0.98943311 11745568
-0.031633545 0.25154316 0.94341296 11548962
-0.022359751 0.25154316 0.94341296 11745314
-0.01308596 0.25154316 0.94341296 11680035
-0.0042031598 0.27734247 1.0401733 11221539
0.0067099947 0.30903876 1.1590502 11155746
0 0 0 11089953
0 0 0 11024673
0 0 0 11024675
0.055452786 0.32776836 1.2292956 11156259
0.092863128 0.45068148 1.6902815 11483169
0.11943127 0.49165255 1.8439435 11222052
0.13755733 0.49165255 1.8439435 11156259
0.16309686 0.51506454 1.9317503 11549216
0.19119038 0.5408178 2.028338 11811873
0.21112902 0.5408178 2.028338 12139043
0.22006443 0.51506454 1.9317503 11811875
0.23905364 0.51506454 1.9317503 11680802
0.25804281 0.51506454 1.9317503 11877154
0.26443964 0.49165255 1.8439435 11746341
0.29602119 0.51506454 1.9317503 11811621
0.3150104 0.51506454 1.9317503 11812134
0.3339996 0.51506454 1.9317503 11812129
0.37063825 0.5408178 2.028338 11877668
0.45950222 0.63625622 2.3862798 11877154
0 0 0 11877925
0.66223723 0.83202744 3.1205199 11877668
1.000873 1.2018174 4.5074177 12140583
0.78388578 0.90136296 3.380563 12075046
0.81711692 0.90136296 3.380563 11812133
0.850348 0.90136296 3.380563 12074533
0.55804998 0.56928188 2.1350925 12074792
0.50007826 0.49165255 1.8439435 12074533
0.34546953 0.32776836 1.2292956 11877414
0.35755357 0.32776836 1.2292956 11878179
0.36963758 0.32776836 1.2292956 11878181
0.38172162 0.32776836 1.2292956 12008486
0.44812369 0.37297779 1.3988537 11616037
0.46187449 0.37297779 1.3988537 11877670
0.49261189 0.38629842 1.4488127 11746597
0.50685376 0.38629842 1.4488127 11943461
0.54039556 0.4006058 1.5024725 11878181
0.5765174 0.41601372 1.5602599 12140326
0.59185487 0.41601372 1.5602599 11877668
0.58470368 0.4006058 1.5024725 11943206
0.57806325 0.38629842 1.4488127 11943206
0.59230512 0.38629842 1.4488127 11943720
0.62901175 0.4006058 1.5024725 11615010
0.64378113 0.4006058 1.5024725 11681061
0.6585505 0.4006058 1.5024725 11615012
0.64927274 0.38629842 1.4488127 11483941
0.66351461 0.38629842 1.4488127 11353125
0.67775649 0.38629842 1.4488127 11418661
0.69199842 0.38629842 1.4488127 11090727
0.68188721 0.37297779 1.3988537 11222054
0.72048217 0.38629842 1.4488127 11353125
0.7347241 0.38629842 1.4488127 11418662
0.80657881 0.41601372 1.5602599 11221797
0.85479283 0.43265423 1.6226703 11155490
1.0365998 0.51506454 1.9317503 11156259
1.0555888 0.51506454 1.9317503 11155748
1.074578 0.51506454 1.9317503 11090212
1.0935673 0.51506454 1.9317503 11418150
1.1125565 0.51506454 1.9317503 11024418
1.1315457 0.51506454 1.9317503 10696483
1.0982379 0.49165255 1.8439435 10630947
1.1163639 0.49165255 1.8439435 10368290
1.1344899 0.49165255 1.8439435 10959652
1.0565646 0.45068148 1.6902815 10893605
1.170742 0.49165255 1.8439435 10827812
1.2454808 0.51506454 1.9317503 10696482
1.2069941 0.49165255 1.8439435 10434338
1.2251202 0.49165255 1.8439435 10499874
1.2432462 0.49165255 1.8439435 10696995
1.2613722 0.49165255 1.8439435 10630949
1.2794983 0.49165255 1.8439435 10631464
1.2976243 0.49165255 1.8439435 10696742
1.2585438 0.47027633 1.763772 10435109
1.2758818 0.47027633 1.763772 10499618
1.3520025 0.49165255 1.8439435 10303009
1.4353727 0.51506454 1.9317503 10434085
1.4543619 0.51506454 1.9317503 10303012
1.5470188 0.5408178 2.028338 10369573
1.5669575 0.5408178 2.028338 10303267
1.6704168 0.56928188 2.1350925 10567723
1.6914049 0.56928188 2.1350925 10436910
1.9138509 0.63625622 2.3862798 10437165
1.8296801 0.6009087 2.2537088 10568493
1.8518342 0.6009087 2.2537088 10371628
1.6062754 0.51506454 1.9317503 9911850
1.8961422 0.6009087 2.2537088 10043436
1.6442538 0.51506454 1.9317503 9911849
1.6632431 0.51506454 1.9317503 9714474
1.6822323 0.51506454 1.9317503 9911082
1.7862827 0.5408178 2.028338 9780266
1.8062212 0.5408178 2.028338 9780266
2.0290666 0.6009087 2.2537088 9518120
2.8401515 0.83202744 3.1205199 9977898
2.8708265 0.83202744 3.1205199 9714984
2.9015014 0.83202744 3.1205199 10043180
2.9321761 0.83202744 3.1205199 9911852
3.2097552 0.90136296 3.380563 9649196
3.2429862 0.90136296 3.380563 9780266
3.5740552 0.9833051 3.687887 9714731
6.618897 1.8027259 6.761126 9452074
6.685359 1.8027259 6.761126 9452073
6.751821 1.8027259 6.761126 9451817
1.6363881 0.43265423 1.6226703 9582887
1.5299435 0.4006058 1.5024725 9388075
1.4381809 0.37297779 1.3988537 9584684
1.4519317 0.37297779 1.3988537 9782060
1.4168264 0.36054519 1.3522252 9978924
1.4794333 0.37297779 1.3988537 9716013
1.4931841 0.37297779 1.3988537 9781806
1.5607539 0.38629842 1.4488127 9650477
1.6961495 0.41601372 1.5602599 9388075
1.7799463 0.43265423 1.6226703 8536880
1.7958972 0.43265423 1.6226703 7356977
1.8118482 0.43265423 1.6226703 7949110
1.8277991 0.43265423 1.6226703 7424054
1.84375 0.43265423 1.6226703 6043182
2.021414 0.47027633 1.763772 6371116
2.7583115 0.63625622 2.3862798 6304808
2.7817688 0.63625622 2.3862798 7814445
2.8052261 0.63625622 2.3862798 9323826
2.2898865 0.51506454 1.9317503 9847343
2.1081038 0.47027633 1.763772 9978415
0 0 0 10044208
0 0 0 9978413
0 0 0 9847597
0 0 0 9716526
0 0 0 9716014
0 0 0 9847599
0 0 0 9912622
0 0 0 9584173
0 0 0 9453616
0 0 0 9518637
0 0 0 4991772
0 0 0 2100751
-4.4014053 1.0195571 3.687887 1772559
-4.3651533 1.0195571 3.687887 1707024
-4.7617917 1.121513 4.0566759 1904660
-4.7219143 1.121513 4.0566759 2430232
-3.9016974 0.93459404 3.380563 2692888
-3.8684664 0.93459404 3.380563 2758937
-3.8352351 0.93459404 3.380563 2824470
-4.1476407 1.0195571 3.687887 2956056
-4.1113887 1.0195571 3.687887 3350042
-4.0751367 1.0195571 3.687887 3415837
-4.0388846 1.0195571 3.687887 3809565
-4.0026326 1.0195571 3.687887 4204576
-3.9663804 1.0195571 3.687887 5123620
-3.9301283 1.0195571 3.687887 5911593
-3.8938763 1.0195571 3.687887 6437165
-3.5361555 0.93459404 3.380563 6831921
-3.5029244 0.93459404 3.380563 7029298
-3.4696932 0.93459404 3.380563 7225903
-3.1721191 0.86270225 3.1205199 6962987
-3.1414442 0.86270225 3.1205199 6963246
-3.1107693 0.86270225 3.1205199 7225132
-3.0800946 0.86270225 3.1205199 7225387
-3.0494196 0.86270225 3.1205199 6962474
-2.3084519 0.65971345 2.3862798 6437416
-2.98807 0.86270225 3.1205199 5583910
-2.9573951 0.86270225 3.1205199 4270884
-3.1706135 0.93459404 3.380563 3219226
-2.8960454 0.86270225 3.1205199 2890261
-2.8653705 0.86270225 3.1205199 2430993
-2.8346958 0.86270225 3.1205199 2562323
-1.7358223 0.53405374 1.9317503 2561296
-1.7168331 0.53405374 1.9317503 2430227
-1.4261889 0.44860515 1.6226703 2167572
-1.305776 0.41537514 1.5024725 2036246
-1.1619059 0.37383762 1.3522252 2101780
-1.1115614 0.36177835 1.3086051 2101782
-1.0986978 0.36177835 1.3086051 3811371
-1.0858341 0.36177835 1.3086051 4992558
-0.7919544 0.26702687 0.96587515 6636601
-0.7824598 0.26702687 0.96587515 3019532
-0.77296519 0.26702687 0.96587515 2035987
-0.78209186 0.27353972 0.98943311 2759712
-0.8558647 0.30311158 1.0963988 3811619
-2.605685 0.93459404 3.380563 6830378
0 0 0 6962733
0 0 0 6897708
0 0 0 6898478
-1.4130061 0.53405374 1.9317503 7688248
0 0 0 8147769
0 0 0 8278072
0 0 0 8409656
0 0 0 8212791
-2.1291742 0.86270225 3.1205199 8607549
-2.2733741 0.93459404 3.380563 8804415
-2.2401431 0.93459404 3.380563 8869692
-2.206912 0.93459404 3.380563 8935484
-2.1736808 0.93459404 3.380563 9066813
-2.5685399 1.121513 4.0566759 9001276
-2.8096251 1.2461255 4.5074177 9527362
-2.765317 1.2461255 4.5074177 9462081
-2.721009 1.2461255 4.5074177 9724481
-2.6767008 1.2461255 4.5074177 10052930
-2.6323926 1.2461255 4.5074177 10315844
-2.5880845 1.2461255 4.5074177 10512196
-2.5437765 1.2461255 4.5074177 10775368
-2.4994683 1.2461255 4.5074177 10841413
-2.4551601 1.2461255 4.5074177 10709316
-2.4108522 1.2461255 4.5074177 10643525
-2.366544 1.2461255 4.5074177 10906949
-2.3222358 1.2461255 4.5074177 10775367
-2.0501349 1.121513 4.0566759 10644551
-1.6752145 0.93459404 3.380563 10906181
-1.6419835 0.93459404 3.380563 11300423
-1.2065643 0.70094556 2.5354223 10577987
-0.63020849 0.37383762 1.3522252 10772029
-0.61691606 0.37383762 1.3522252 10702126
-0.60362363 0.37383762 1.3522252 11224619
