# .PCD v0.7 - Point Cloud Data file format
VERSION 0.7
FIELDS x y z rgb
SIZE 4 4 4 4
TYPE F F F U
COUNT 1 1 1 1
WIDTH 1298
HEIGHT 1
VIEWPOINT 0 0 0 1 0 0 0
POINTS 1298
DATA ascii
-0.053733353 0.33441898 0.73757738 10957854
-0.046482936 0.33441898 0.73757738 10826781
-0.039232515 0.33441898 0.73757738 11285792
-0.033827219 0.35371238 0.78012997 11155748
-0.027760049 0.37536824 0.82789302 11154204
0 0 0 10826783
0 0 0 11089183
-0.0039981278 0.44861084 0.98943311 10826783
0.0057280441 0.44861084 0.98943311 11154978
0.015454216 0.44861084 0.98943311 11023392
0.026471691 0.47161654 1.0401733 10892576
0.036696639 0.47161654 1.0401733 11023390
0.050831724 0.5109179 1.1268544 11220771
0.063677572 0.52551556 1.1590502 11024417
0.087582931 0.61310142 1.3522252 11023905
0 0 0 10761503
0 0 0 10499103
0.18208605 0.8758592 1.9317503 10696223
0.20107524 0.8758592 1.9317503 10630687
0.23106767 0.91965222 2.028338 10762530
0.50201267 1.8393044 4.0566759 11023392
0 0 0 11352357
0 0 0 10827296
0 0 0 10892576
0.33076096 0.91965222 2.028338 10958882
0.29224965 0.76637679 1.6902815 10826783
0.29651058 0.73572177 1.6226703 11024161
0.32548073 0.76637679 1.6902815 11221028
0.32841244 0.73572177 1.6226703 11155234
0.27771237 0.59332401 1.3086051 11024161
0.28149551 0.57478261 1.2677112 11024675
0.29395717 0.57478261 1.2677112 11090466
0.30641884 0.57478261 1.2677112 11089951
0.26853094 0.48402748 1.0675462 11024675
0.26507375 0.45982611 1.014169 11024675
0.28951901 0.48402748 1.0675462 11221284
0.30812147 0.49710929 1.0963988 10958369
0.31889912 0.49710929 1.0963988 10892832
0.32967678 0.49710929 1.0963988 10630687
0.34045443 0.49710929 1.0963988 11089955
0.38222316 0.54097188 1.1931399 11155746
0.40588969 0.55736494 1.2292956 11156002
0.4597711 0.61310142 1.3522252 11155746
0.48937607 0.63424289 1.3988537 11221538
0.50312686 0.63424289 1.3988537 11286561
0.53533757 0.65689439 1.4488127 10827296
0.73277265 0.8758592 1.9317503 10892834
0.78934997 0.91965222 2.028338 10696480
0.80928862 0.91965222 2.028338 10958628
0.82922727 0.91965222 2.028338 10958882
0.84916592 0.91965222 2.028338 10761760
0.86910456 0.91965222 2.028338 10433054
1.3677588 1.4148495 3.1205199 10170911
0.67331988 0.68122387 1.5024725 10302497
0.66351461 0.65689439 1.4488127 10499361
0.67775649 0.65689439 1.4488127 9843229
0.717628 0.68122387 1.5024725 9777950
0.73239738 0.68122387 1.5024725 10171681
0.72048217 0.65689439 1.4488127 10564897
0.7347241 0.65689439 1.4488127 10499361
0.74896598 0.65689439 1.4488127 10367776
0.89040917 0.76637679 1.6902815 10367775
0.90702474 0.76637679 1.6902815 10564640
0.92364031 0.76637679 1.6902815 10433568
1.1876916 0.96805495 2.1350925 10499361
1.0935673 0.8758592 1.9317503 10694943
1.1681844 0.91965222 2.028338 10565156
1.1315457 0.8758592 1.9317503 10367777
1.1505349 0.8758592 1.9317503 10237474
0.98240024 0.73572177 1.6226703 10302241
0.99835116 0.73572177 1.6226703 10039841
0.90562683 0.65689439 1.4488127 10236704
0.88814908 0.63424289 1.3988537 10367777
0.93411064 0.65689439 1.4488127 10040610
0.94835252 0.65689439 1.4488127 9909024
0.96259439 0.65689439 1.4488127 9974817
1.0130155 0.68122387 1.5024725 9974817
1.1100076 0.73572177 1.6226703 10171169
1.1259586 0.73572177 1.6226703 10105889
1.0979899 0.70742476 1.5602599 10040097
1.0338038 0.65689439 1.4488127 10105888
1.0480458 0.65689439 1.4488127 10170911
1.0622877 0.65689439 1.4488127 10171170
1.0765295 0.65689439 1.4488127 9777184
1.0907714 0.65689439 1.4488127 9843231
1.0669094 0.63424289 1.3988537 9844001
1.0806602 0.63424289 1.3988537 9909281
1.094411 0.63424289 1.3988537 9646879
1.1081618 0.63424289 1.3988537 9581089
1.0845155 0.61310142 1.3522252 9515811
1.1356634 0.63424289 1.3988537 9515811
1.1111003 0.61310142 1.3522252 9450017
1.163165 0.63424289 1.3988537 9318432
1.1769158 0.63424289 1.3988537 9252898
1.1906666 0.63424289 1.3988537 9384224
1.2474322 0.65689439 1.4488127 9384995
1.2181681 0.63424289 1.3988537 9515811
1.2319189 0.63424289 1.3988537 9450788
1.2456697 0.63424289 1.3988537 9384741
1.2594205 0.63424289 1.3988537 9318691
1.2731713 0.63424289 1.3988537 9253667
1.2869221 0.63424289 1.3988537 9253922
1.2573172 0.61310142 1.3522252 9451047
1.2706096 0.61310142 1.3522252 9450276
1.3281745 0.63424289 1.3988537 9450788
1.3419253 0.63424289 1.3988537 9254692
1.3556761 0.63424289 1.3988537 9516581
1.3694268 0.63424289 1.3988537 9451044
1.5427752 0.70742476 1.5602599 9516325
1.6204371 0.73572177 1.6226703 9319461
1.7045708 0.76637679 1.6902815 9319460
1.7211864 0.76637679 1.6902815 9384738
1.7378019 0.76637679 1.6902815 9318945
1.7544174 0.76637679 1.6902815 9187617
1.7001917 0.73572177 1.6226703 9188130
1.6501372 0.70742476 1.5602599 9384481
1.6037904 0.68122387 1.5024725 9187361
1.6185597 0.68122387 1.5024725 9253668
1.3363601 0.55736494 1.2292956 9319974
1.5344365 0.63424289 1.3988537 9385766
1.3605281 0.55736494 1.2292956 9450788
1.561938 0.63424289 1.3988537 9384738
1.3055708 0.52551556 1.1590502 9452073
1.3169643 0.52551556 1.1590502 9321001
1.2914591 0.5109179 1.1268544 9714473
1.302536 0.5109179 1.1268544 9648937
1.3136131 0.5109179 1.1268544 9583403
1.6444428 0.63424289 1.3988537 9451817
0 0 0 9518377
0 0 0 9452844
0 0 0 9648426
0 0 0 9386281
0 0 0 9189416
0 0 0 8992551
0 0 0 8730662
0 0 0 6960423
0 0 0 5449762
0 0 0 5318691
0 0 0 5515555
0 0 0 5384226
0 0 0 8729123
0 0 0 8860452
-0.91349924 0.35456258 0.76541048 8663330
-0.90597522 0.35456258 0.76541048 8663071
-0.88181329 0.34799662 0.75123626 8663070
-0.87442857 0.34799662 0.75123626 9056030
-0.86704391 0.34799662 0.75123626 8727837
-0.87587917 0.35456258 0.76541048 8859681
-0.8683551 0.35456258 0.76541048 8728095
-0.86083108 0.35456258 0.76541048 8662815
-0.88677013 0.368467 0.79542661 8794400
-0.91482663 0.38350648 0.82789302 8924703
-0.9255777 0.39149618 0.84514076 8727581
-0.89855021 0.38350648 0.82789302 8925215
-0.87260371 0.37583634 0.81133515 9056543
-0.88227373 0.38350648 0.82789302 9121569
-0.87413549 0.38350648 0.82789302 9121569
-0.86599725 0.38350648 0.82789302 9253153
-0.85785908 0.38350648 0.82789302 9449505
-0.81639844 0.368467 0.79542661 9318432
-0.79302979 0.36138111 0.78012997 9187616
-0.80076027 0.368467 0.79542661 9515296
-0.79294121 0.368467 0.79542661 9515296
-0.80082458 0.37583634 0.81133515 9712418
-0.8090297 0.38350648 0.82789302 9909539
-0.80089146 0.38350648 0.82789302 9975587
-0.77689815 0.37583634 0.81133515 9712673
-0.80096114 0.39149618 0.84514076 9975074
-0.79265338 0.39149618 0.84514076 10170911
-0.75297177 0.37583634 0.81133515 10106145
-0.73038858 0.368467 0.79542661 9909022
-0.72256947 0.368467 0.79542661 9909024
-0.71475041 0.368467 0.79542661 9646368
-0.69333649 0.36138111 0.78012997 9777695
-0.68566781 0.36138111 0.78012997 9777951
-0.67799908 0.36138111 0.78012997 10040352
-0.67033035 0.36138111 0.78012997 9778208
-0.66266167 0.36138111 0.78012997 9974817
-0.7568807 0.41759592 0.90148348 9909281
-0.82099658 0.45833701 0.98943311 10106146
-0.81127042 0.45833701 0.98943311 10106402
0 0 0 9909794
0 0 0 10303268
0 0 0 10171681
0 0 0 10236961
0 0 0 10302497
0 0 0 10236960
0 0 0 10303010
0 0 0 10303012
-4.2390184 2.6845453 5.7952509 10172194
-3.2527063 2.0879798 4.5074177 10368804
-3.2083981 2.0879798 4.5074177 10499876
-3.1640902 2.0879798 4.5074177 10368288
-3.119782 2.0879798 4.5074177 10499874
-3.9541805 2.6845453 5.7952509 10565411
-3.8972127 2.6845453 5.7952509 10434339
-3.8402452 2.6845453 5.7952509 10565924
-3.7832778 2.6845453 5.7952509 10434851
-2.8982413 2.0879798 4.5074177 10499618
-2.8539333 2.0879798 4.5074177 10631205
-2.8096251 2.0879798 4.5074177 10565154
-2.765317 2.0879798 4.5074177 10565154
-3.0611348 2.3489771 5.0708447 10499361
-3.0112882 2.3489771 5.0708447 10696226
-2.9614415 2.3489771 5.0708447 10433823
-2.9115949 2.3489771 5.0708447 10762018
-2.5437765 2.0879798 4.5074177 10499361
-2.4994683 2.0879798 4.5074177 10565667
-2.4551601 2.0879798 4.5074177 10696226
-2.7122085 2.3489771 5.0708447 10761760
-2.6623619 2.3489771 5.0708447 10565154
-2.6125152 2.3489771 5.0708447 10433570
-2.2779276 2.0879798 4.5074177 10695968
-2.2336197 2.0879798 4.5074177 10761762
-1.9703803 1.8791817 4.0566759 10828068
-2.1450033 2.0879798 4.5074177 10958628
-1.5755213 1.5659847 3.380563 10892835
-1.4236526 1.4455245 3.1205199 10827554
-1.2934793 1.3422726 2.8976254 10761761
-0.93210196 0.989043 2.1350925 10499361
-0.42222351 0.45833701 0.98943311 10958626
-0.35234147 0.39149618 0.84514076 10630687
-0.33701262 0.38350648 0.82789302 10761503
-0.30990088 0.36138111 0.78012997 10761759
-0.29652965 0.35456258 0.76541048 10892833
-0.28900564 0.35456258 0.76541048 10761503
-0.27626902 0.34799662 0.75123626 10892576
-0.26888433 0.34799662 0.75123626 10629917
-0.25674507 0.34166938 0.73757738 10499361
-0.24949466 0.34166938 0.73757738 10695200
-0.23791845 0.33556816 0.72440636 10564384
-0.22674844 0.32968101 0.71169752 10367777
-0.21596357 0.32399684 0.69942683 10498593
-0.20908818 0.32399684 0.69942683 10367777
-0.19878545 0.31850538 0.68757218 10433568
-0.18882613 0.31319693 0.67611259 10236189
-0.17919336 0.30806258 0.66502881 10302497
-0.18477233 0.32968101 0.71169752 10368031
-0.17777631 0.32968101 0.71169752 10629917
-0.17078029 0.32968101 0.71169752 10433310
-0.14818577 0.2982828 0.64391679 10433312
-0.14185603 0.2982828 0.64391679 10433054
-0.1355263 0.2982828 0.64391679 10498847
-0.12717788 0.29362214 0.63385558 10564382
-0.12286685 0.2982828 0.64391679 10630175
-0.11841674 0.30309382 0.65430254 10630433
-0.11970802 0.32399684 0.69942683 10498847
-0.11283262 0.32399684 0.69942683 10760988
-0.10595722 0.32399684 0.69942683 10761247
-0.10262046 0.33556816 0.72440636 10629663
-0.095499516 0.33556816 0.72440636 10629917
-0.086828068 0.32968101 0.71169752 10498590
-0.079832047 0.32968101 0.71169752 10367777
-0.072836034 0.32968101 0.71169752 10630434
-0.065840013 0.32968101 0.71169752 10564640
-0.058843996 0.32968101 0.71169752 10498846
-0.05277383 0.33556816 0.72440636 10499361
-0.046482936 0.34166938 0.73757738 10892065
-0.043155771 0.37583634 0.81133515 11089183
-0.035898276 0.38350648 0.82789302 10958369
0 0 0 11219999
0 0 0 10892576
0 0 0 11154978
-0.0039981278 0.45833701 0.98943311 10893089
0.0058712456 0.46979544 1.014169 10958367
0.015840571 0.46979544 1.014169 10892574
0.027168313 0.4945215 1.0675462 11023392
0.037662342 0.4945215 1.0675462 11351585
0.052284058 0.53690904 1.1590502 10958369
0.074290499 0.62639385 1.3522252 11024418
0.1313744 0.93959087 2.028338 10761503
0.15131307 0.93959087 2.028338 10892318
0.19027969 1.0439899 2.2537088 10760992
0.18208605 0.89484841 1.9317503 10565665
0.21112902 0.93959087 2.028338 10696740
0.23106767 0.93959087 2.028338 10630687
0.41834384 1.5659847 3.380563 10565151
0 0 0 10762274
0 0 0 10695968
0.4440318 1.3422726 2.8976254 10958624
0.44101456 1.2527877 2.7044504 11090213
0.3506996 0.93959087 2.028338 10827296
0.37063825 0.93959087 2.028338 11024162
0.32548073 0.78299236 1.6902815 11089698
0.34209627 0.78299236 1.6902815 11024419
0.34436336 0.75167269 1.6226703 11024417
0.29057604 0.60618764 1.3086051 10762019
0.30343968 0.60618764 1.3086051 10762273
0.30641884 0.58724427 1.2677112 11090211
0.28344935 0.52199495 1.1268544 11024162
0.27902499 0.4945215 1.0675462 10892834
0.28951901 0.4945215 1.0675462 10958882
0.30812147 0.50788695 1.0963988 10892576
0.31889912 0.50788695 1.0963988 11155748
0.32967678 0.50788695 1.0963988 11024162
0.34045443 0.50788695 1.0963988 10761503
0.38222316 0.55270052 1.1931399 10959138
0.40588969 0.56944895 1.2292956 11221283
0.47562528 0.64799368 1.3988537 11220771
0.56767625 0.75167269 1.6226703 11286562
0.58362716 0.75167269 1.6226703 11024418
0.68133873 0.85417348 1.8439435 10892576
0.73277265 0.89484841 1.9317503 10958882
0.78934997 0.93959087 2.028338 10893089
0.8518827 0.989043 2.1350925 10958882
0.82922727 0.93959087 2.028338 10630433
0.84916592 0.93959087 2.028338 11023392
0.86910456 0.93959087 2.028338 9843999
1.4817386 1.5659847 3.380563 9252380
1.5149697 1.5659847 3.380563 9908767
0.68808925 0.69599324 1.5024725 10695457
0.67775649 0.67113632 1.4488127 10499105
0.69199842 0.67113632 1.4488127 10367777
0.68188721 0.64799368 1.3988537 10302497
0.695638 0.64799368 1.3988537 10564641
0.70938879 0.64799368 1.3988537 10236959
0.74896598 0.67113632 1.4488127 10040352
0.85479283 0.75167269 1.6226703 10433570
0 0 0 10367777
0 0 0 10433568
1.1283071 0.93959087 2.028338 10499358
1.1482457 0.93959087 2.028338 10630177
1.1681844 0.93959087 2.028338 10563870
1.188123 0.93959087 2.028338 10302240
1.2080617 0.93959087 2.028338 10302240
1.2280003 0.93959087 2.028338 10236704
1.31362 0.989043 2.1350925 10236704
1.334608 0.989043 2.1350925 10499106
0.91986871 0.67113632 1.4488127 10433570
0.93411064 0.67113632 1.4488127 10302241
0.94835252 0.67113632 1.4488127 10302499
0.99824607 0.69599324 1.5024725 10367779
1.0940567 0.75167269 1.6226703 10433570
1.1100076 0.75167269 1.6226703 10040353
1.1259586 0.75167269 1.6226703 9909025
1.1419095 0.75167269 1.6226703 10040097
1.072093 0.69599324 1.5024725 10104607
1.0868623 0.69599324 1.5024725 9974816
1.1016316 0.69599324 1.5024725 9908511
1.0765295 0.67113632 1.4488127 10040097
1.0907714 0.67113632 1.4488127 9712158
1.1050134 0.67113632 1.4488127 9711903
1.0806602 0.64799368 1.3988537 9515036
1.094411 0.64799368 1.3988537 9319454
1.1081618 0.64799368 1.3988537 9581343
1.1219126 0.64799368 1.3988537 9450017
1.1356634 0.64799368 1.3988537 9449503
1.1494142 0.64799368 1.3988537 9449761
1.163165 0.64799368 1.3988537 9319202
1.2189485 0.67113632 1.4488127 9515298
1.2331904 0.67113632 1.4488127 9449251
1.3971242 0.75167269 1.6226703 9384225
1.2616742 0.67113632 1.4488127 9384740
1.2319189 0.64799368 1.3988537 9383970
1.2456697 0.64799368 1.3988537 9186849
1.2174399 0.62639385 1.3522252 9318432
1.2731713 0.64799368 1.3988537 9450018
1.2869221 0.64799368 1.3988537 9253412
1.3006729 0.64799368 1.3988537 9122853
1.3144237 0.64799368 1.3988537 9319205
1.3281745 0.64799368 1.3988537 9384741
1.3419253 0.64799368 1.3988537 9319714
1.4040931 0.67113632 1.4488127 9253409
1.470866 0.69599324 1.5024725 9253155
1.6044862 0.75167269 1.6226703 9253155
1.6204371 0.75167269 1.6226703 9056291
1.7045708 0.78299236 1.6902815 9253412
1.7211864 0.78299236 1.6902815 9384995
1.8957839 0.85417348 1.8439435 9451301
1.7544174 0.78299236 1.6902815 9253666
1.7710329 0.78299236 1.6902815 9188643
1.7161427 0.75167269 1.6226703 9451301
1.6654747 0.72276223 1.5602599 9384481
1.680812 0.72276223 1.5602599 9122852
1.5749959 0.67113632 1.4488127 9319972
1.5892377 0.67113632 1.4488127 9385508
1.5481873 0.64799368 1.3988537 9778468
1.6177216 0.67113632 1.4488127 9713447
1.6319634 0.67113632 1.4488127 9647654
1.7728366 0.72276223 1.5602599 9582633
1.4088643 0.56944895 1.2292956 9386278
1.4209483 0.56944895 1.2292956 9648426
1.5763355 0.62639385 1.3522252 9714217
1.8341863 0.72276223 1.5602599 9321001
0 0 0 9518121
0 0 0 9846829
0 0 0 9781036
0 0 0 9518121
0 0 0 9517864
0 0 0 9321001
0 0 0 9255208
0 0 0 8533545
0 0 0 6500647
0 0 0 5317920
0 0 0 4989728
0 0 0 5581348
0 0 0 8531485
0 0 0 8794657
-0.96830922 0.3838118 0.81133515 8597535
-0.9233979 0.36904982 0.78012997 8596765
-0.89845121 0.36208659 0.76541048 8924703
-0.87442857 0.35538131 0.75123626 9055776
-0.86704391 0.35538131 0.75123626 8924703
-0.87587917 0.36208659 0.76541048 8597022
-0.8683551 0.36208659 0.76541048 8728864
-0.87738562 0.36904982 0.78012997 8464922
-0.90450555 0.3838118 0.81133515 8858910
-0.91482663 0.39164469 0.82789302 8728093
-0.90668839 0.39164469 0.82789302 8859679
-0.89855021 0.39164469 0.82789302 9122337
-0.90896219 0.39980394 0.84514076 9187616
-0.90065438 0.39980394 0.84514076 9187361
-0.89234662 0.39980394 0.84514076 9318690
-0.86599725 0.39164469 0.82789302 9449763
-0.85785908 0.39164469 0.82789302 9515299
-0.84972084 0.39164469 0.82789302 9318432
-0.80857933 0.37628609 0.79542661 9318688
-0.80076027 0.37628609 0.79542661 9647139
-0.82530618 0.39164469 0.82789302 9843747
-0.81716794 0.39164469 0.82789302 9844002
-0.79284912 0.3838118 0.81133515 9909796
-0.78487366 0.3838118 0.81133515 9712675
-0.77689815 0.3838118 0.81133515 9712929
-0.80096114 0.39980394 0.84514076 9909794
-0.79265338 0.39980394 0.84514076 9908769
-0.76833856 0.39164469 0.82789302 9778468
-0.74499631 0.3838118 0.81133515 9908509
-0.72256947 0.37628609 0.79542661 9843487
-0.71475041 0.37628609 0.79542661 9777952
-0.70693129 0.37628609 0.79542661 9712158
-0.69911224 0.37628609 0.79542661 10040608
-0.69129318 0.37628609 0.79542661 10040608
-0.68347406 0.37628609 0.79542661 9909023
-0.70323277 0.39164469 0.82789302 10040608
-0.77408254 0.43614978 0.92197174 9843745
0 0 0 10106403
0 0 0 10040609
0 0 0 9909794
0 0 0 10237217
0 0 0 10237217
0 0 0 10237989
0 0 0 10172196
0 0 0 10171425
0 0 0 10105632
0 0 0 10237219
-3.709141 2.3988237 5.0708447 10369060
-3.2527063 2.132288 4.5074177 10434081
-3.2083981 2.132288 4.5074177 10368290
-3.5596011 2.3988237 5.0708447 10499361
-3.5097547 2.3988237 5.0708447 10500390
-3.9541805 2.7415128 5.7952509 10368288
-3.8972127 2.7415128 5.7952509 10499616
-3.8402452 2.7415128 5.7952509 10368803
-3.7832778 2.7415128 5.7952509 10368546
-3.2605214 2.3988237 5.0708447 10434082
-2.8539333 2.132288 4.5074177 10499874
-2.8096251 2.132288 4.5074177 10630689
-2.765317 2.132288 4.5074177 10564896
-2.721009 2.132288 4.5074177 10564897
-3.0112882 2.3988237 5.0708447 10368290
-2.9614415 2.3988237 5.0708447 10499361
-2.9115949 2.3988237 5.0708447 10368288
-2.8617485 2.3988237 5.0708447 10499361
-2.4994683 2.132288 4.5074177 10433570
-2.4551601 2.132288 4.5074177 10433568
-2.7122085 2.3988237 5.0708447 10695713
-2.6623619 2.3988237 5.0708447 10565410
-2.6125152 2.3988237 5.0708447 10631201
-2.5626686 2.3988237 5.0708447 10565154
-2.2336197 2.132288 4.5074177 10433568
-2.1893115 2.132288 4.5074177 10630947
-2.1450033 2.132288 4.5074177 10762017
-1.8906257 1.919059 4.0566759 10631201
-1.5422902 1.5992157 3.380563 10630690
-1.3929777 1.4761993 3.1205199 10893346
-1.041761 1.1288582 2.3862798 10630433
-0.46786931 0.5186646 1.0963988 10761248
-0.41249734 0.46806318 0.98943311 10433568
-0.33701262 0.39164469 0.82789302 10367775
-0.30990088 0.36904982 0.78012997 10302495
-0.29652965 0.36208659 0.76541048 10695713
-0.28900564 0.36208659 0.76541048 10695453
-0.28148162 0.36208659 0.76541048 10563866
-0.27395758 0.36208659 0.76541048 10367004
-0.26643357 0.36208659 0.76541048 10564642
-0.25411496 0.35538131 0.75123626 10695458
-0.24224424 0.34891981 0.73757738 10761503
-0.22674844 0.33667701 0.71169752 10368035
-0.21975242 0.33667701 0.71169752 10367777
-0.20211858 0.31984314 0.67611259 10433313
-0.19547234 0.31984314 0.67611259 10170398
-0.18573064 0.31459984 0.66502881 10301984
-0.1735047 0.30461255 0.64391679 10236191
-0.1726561 0.31459984 0.66502881 10564128
-0.17777631 0.33667701 0.71169752 10302239
-0.17078029 0.33667701 0.71169752 10367777
-0.14818577 0.30461255 0.64391679 10301983
-0.13963954 0.29985297 0.63385558 10367776
-0.13340871 0.29985297 0.63385558 10629663
-0.12717788 0.29985297 0.63385558 10695454
-0.12286685 0.30461255 0.64391679 10498589
-0.11653712 0.30461255 0.64391679 10695455
-0.11970802 0.33087224 0.69942683 10761246
-0.11283262 0.33087224 0.69942683 10760220
-0.1097414 0.3426891 0.72440636 10563870
-0.10262046 0.3426891 0.72440636 10957599
-0.095499516 0.3426891 0.72440636 10629917
-0.086828068 0.33667701 0.71169752 10695969
-0.079832047 0.33667701 0.71169752 10367774
-0.072836034 0.33667701 0.71169752 10695201
-0.065840013 0.33667701 0.71169752 10498334
-0.058843996 0.33667701 0.71169752 10630175
-0.051847976 0.33667701 0.71169752 10695967
-0.047343731 0.35538131 0.75123626 10695969
-0.044953924 0.39980394 0.84514076 10564383
0 0 0 10630430
0 0 0 10892062
0 0 0 10892576
-0.0137243 0.46806318 0.98943311 10958369
-0.0039981278 0.46806318 0.98943311 11023392
0.0057280441 0.46806318 0.98943311 10695710
0.016674286 0.50501555 1.0675462 10696480
0 0 0 11154978
0 0 0 11351585
0 0 0 10892319
0 0 0 11155235
0 0 0 10892832
0.15131307 0.95952952 2.028338 10957856
0.17125171 0.95952952 2.028338 10826783
0.19119038 0.95952952 2.028338 10498845
0.20107524 0.91383761 1.9317503 10695969
0.24322912 1.0100311 2.1350925 10893089
0.27889591 1.066144 2.2537088 10499618
0.30104998 1.066144 2.2537088 10564640
0.30619329 1.0100311 2.1350925 10827812
0.41442969 1.2793726 2.7044504 10958882
0.44101456 1.2793726 2.7044504 10499615
0.38966623 1.066144 2.2537088 10695969
0.41182026 1.066144 2.2537088 10630176
0.43397433 1.066144 2.2537088 10564896
0.51314443 1.1994119 2.5354223 10958882
0.35871181 0.79960787 1.6902815 11089953
0.34645605 0.73809963 1.5602599 10893859
0.31355432 0.63968629 1.3522252 10696738
0.31630331 0.61905128 1.3086051 11024420
0.30012283 0.5644291 1.1931399 11155746
0.29452637 0.53307199 1.1268544 11024417
0.29734382 0.5186646 1.0963988 11090211
0.30812147 0.5186646 1.0963988 11090468
0.31889912 0.5186646 1.0963988 10893859
0.32967678 0.5186646 1.0963988 10958882
0.34991151 0.53307199 1.1268544 11090725
0.39380565 0.58153301 1.2292956 11090980
0.44647866 0.63968629 1.3522252 10762787
0 0 0 10958628
0.70959538 0.95952952 2.028338 10893089
0.72953403 0.95952952 2.028338 10696225
0.71378344 0.91383761 1.9317503 10893090
0.73277265 0.91383761 1.9317503 10761760
0.78934997 0.95952952 2.028338 10827042
0.8518827 1.0100311 2.1350925 10761248
0.82922727 0.95952952 2.028338 10893605
0.84916592 0.95952952 2.028338 10630433
0.96567178 1.066144 2.2537088 10630690
1.4817386 1.5992157 3.380563 9842719
1.5149697 1.5992157 3.380563 10040095
0.88468617 0.91383761 1.9317503 10433568
0.67775649 0.68537819 1.4488127 10762019
0.69199842 0.68537819 1.4488127 10696226
0.68188721 0.66174448 1.3988537 10564640
0.695638 0.66174448 1.3988537 10695458
0.70938879 0.66174448 1.3988537 10236189
0.74896598 0.68537819 1.4488127 10237221
1.0176105 0.91383761 1.9317503 10106147
0 0 0 10368034
1.1083684 0.95952952 2.028338 10236191
1.1283071 0.95952952 2.028338 10236704
1.1482457 0.95952952 2.028338 10630433
1.2296677 1.0100311 2.1350925 10105376
1.188123 0.95952952 2.028338 10170398
1.2080617 0.95952952 2.028338 10629663
1.1695241 0.91383761 1.9317503 10433054
1.247939 0.95952952 2.028338 10368289
1.2678777 0.95952952 2.028338 10433569
1.2878163 0.95952952 2.028338 10367777
0.96870732 0.71076262 1.5024725 10630435
1.0621549 0.7676236 1.6226703 10433055
1.0781058 0.7676236 1.6226703 10170911
1.0940567 0.7676236 1.6226703 10171168
1.1100076 0.7676236 1.6226703 10040608
1.1259586 0.7676236 1.6226703 10106146
1.1419095 0.7676236 1.6226703 10236446
1.1578604 0.7676236 1.6226703 10301984
1.1738113 0.7676236 1.6226703 10171170
1.1897622 0.7676236 1.6226703 9776923
1.1593395 0.73809963 1.5602599 9777438
1.1311704 0.71076262 1.5024725 10039840
1.1459398 0.71076262 1.5024725 9777438
1.1607091 0.71076262 1.5024725 9777438
1.2206893 0.73809963 1.5602599 9515553
1.1477391 0.68537819 1.4488127 9384223
1.1619809 0.68537819 1.4488127 9253409
1.1356634 0.66174448 1.3988537 9319202
1.1494142 0.66174448 1.3988537 9318947
1.2493254 0.71076262 1.5024725 9712677
1.8961422 1.066144 2.2537088 9450018
1.5695151 0.87229955 1.8439435 9450018
1.9404503 1.066144 2.2537088 9450019
1.8593093 1.0100311 2.1350925 9318433
1.7012215 0.91383761 1.9317503 9252899
1.2041475 0.63968629 1.3522252 8924192
1.2174399 0.63968629 1.3522252 9121826
1.2307323 0.63968629 1.3522252 9056289
1.2869221 0.66174448 1.3988537 9122082
1.3006729 0.66174448 1.3988537 9319202
1.4117885 0.71076262 1.5024725 9253667
1.4265579 0.71076262 1.5024725 9318691
1.4413272 0.71076262 1.5024725 9056032
1.5121003 0.73809963 1.5602599 9187103
1.5274378 0.73809963 1.5602599 9252899
1.6044862 0.7676236 1.6226703 8794659
1.6204371 0.7676236 1.6226703 8859682
1.8595318 0.87229955 1.8439435 9187877
1.7211864 0.79960787 1.6902815 9187875
1.8957839 0.87229955 1.8439435 9253668
2.0050485 0.91383761 1.9317503 9385508
1.7710329 0.79960787 1.6902815 9581604
1.7161427 0.7676236 1.6226703 9385508
1.6654747 0.73809963 1.5602599 9451301
1.7480445 0.7676236 1.6226703 9385254
1.6961495 0.73809963 1.5602599 9451817
1.6480985 0.71076262 1.5024725 9582888
1.6628679 0.71076262 1.5024725 9713447
1.8118482 0.7676236 1.6226703 9582120
1.8277991 0.7676236 1.6226703 9451817
1.84375 0.7676236 1.6226703 9516327
1.788174 0.73809963 1.5602599 9582633
1.7367147 0.71076262 1.5024725 9451301
1.751484 0.71076262 1.5024725 9779238
1.8341863 0.73809963 1.5602599 9779752
0 0 0 9517353
0 0 0 9648938
0 0 0 9780266
0 0 0 9780264
0 0 0 9714986
0 0 0 9386278
0 0 0 9452071
0 0 0 9517350
0 0 0 8729893
0 0 0 6957856
0 0 0 5252385
0 0 0 4989983
0 0 0 8334622
0 0 0 8465953
-0.91349924 0.36961061 0.76541048 8399902
-0.90597522 0.36961061 0.76541048 8728095
-0.89845121 0.36961061 0.76541048 8793118
-0.87442857 0.362766 0.75123626 8793888
-0.86704391 0.362766 0.75123626 8728094
-0.87587917 0.36961061 0.76541048 8728094
-0.8683551 0.36961061 0.76541048 8728864
-0.87738562 0.37671852 0.78012997 8794401
-0.90450555 0.39178726 0.81133515 8859935
-0.91482663 0.39978293 0.82789302 8728094
-0.9255777 0.40811172 0.84514076 9056289
-0.91726995 0.40811172 0.84514076 9056546
-0.92830175 0.41679496 0.86312246 8991007
-0.93981326 0.4258557 0.88188601 9121823
-0.9311443 0.4258557 0.88188601 9318432
-0.94297481 0.43531916 0.90148348 9646884
-0.87573111 0.40811172 0.84514076 9515296
-0.84972084 0.39978293 0.82789302 9449505
-0.79302979 0.37671852 0.78012997 9712675
-0.78536105 0.37671852 0.78012997 9515809
-0.82530618 0.39978293 0.82789302 9712417
-0.80082458 0.39178726 0.81133515 9778722
-0.79284912 0.39178726 0.81133515 9646882
-0.78487366 0.39178726 0.81133515 9778468
-0.82648736 0.41679496 0.86312246 10040608
-0.85435855 0.43531916 0.90148348 9777184
-0.84549695 0.43531916 0.90148348 9842977
-0.76833856 0.39978293 0.82789302 9778209
-0.74499631 0.39178726 0.81133515 9711647
-0.72256947 0.38410515 0.79542661 9909537
-0.71475041 0.38410515 0.79542661 9974816
-0.70693129 0.38410515 0.79542661 9844001
-0.71309447 0.39178726 0.81133515 9843487
-0.69129318 0.38410515 0.79542661 10040610
-0.69714355 0.39178726 0.81133515 9844001
-0.70323277 0.39978293 0.82789302 9909539
-0.77408254 0.44521278 0.92197174 9844002
0 0 0 10237476
0 0 0 10040610
0 0 0 9909537
0 0 0 10172195
0 0 0 10368290
0 0 0 10105886
0 0 0 10172194
0 0 0 10171681
0 0 0 10106403
0 0 0 10237476
-4.2390184 2.7984803 5.7952509 10368546
-4.1820507 2.7984803 5.7952509 10171426
-4.125083 2.7984803 5.7952509 10237476
-4.7461348 3.2648938 6.761126 10368034
-3.5097547 2.4486704 5.0708447 10302495
-3.459908 2.4486704 5.0708447 10237731
-3.4100614 2.4486704 5.0708447 10106146
-3.8402452 2.7984803 5.7952509 10565154
-3.7832778 2.7984803 5.7952509 10368288
-3.2605214 2.4486704 5.0708447 10565154
-3.2106748 2.4486704 5.0708447 10697253
-2.8096251 2.1765959 4.5074177 10434594
-3.1109815 2.4486704 5.0708447 10434081
-3.0611348 2.4486704 5.0708447 10236958
-3.0112882 2.4486704 5.0708447 10236704
-2.9614415 2.4486704 5.0708447 10499362
-2.9115949 2.4486704 5.0708447 10433570
-2.8617485 2.4486704 5.0708447 10237216
-2.8119018 2.4486704 5.0708447 10171423
-2.7620552 2.4486704 5.0708447 10499360
-2.7122085 2.4486704 5.0708447 10499615
-2.6623619 2.4486704 5.0708447 10434335
-2.6125152 2.4486704 5.0708447 10696737
-2.5626686 2.4486704 5.0708447 10499361
-2.8717964 2.7984803 5.7952509 10499363
-2.8148289 2.7984803 5.7952509 10630433
-2.1450033 2.1765959 4.5074177 10696480
-2.1006951 2.1765959 4.5074177 10499362
-2.0563872 2.1765959 4.5074177 10630945
-1.5090592 1.6324469 3.380563 10630945
-0.93210196 1.0310191 2.1350925 10696226
-0.45555696 0.51550955 1.0675462 10827296
-0.41249734 0.47778934 0.98943311 10302238
-0.35135356 0.41679496 0.86312246 10367776
-0.32887441 0.39978293 0.82789302 10564640
-0.31432143 0.39178726 0.81133515 10498847
-0.30634597 0.39178726 0.81133515 10564639
-0.28689474 0.37671852 0.78012997 10760990
-0.27922603 0.37671852 0.78012997 10695456
-0.26643357 0.36961061 0.76541048 10629918
-0.24949466 0.35617024 0.73757738 10695713
-0.24224424 0.35617024 0.73757738 10629663
-0.22674844 0.34367305 0.71169752 10499363
-0.21975242 0.34367305 0.71169752 10498847
-0.20211858 0.32648936 0.67611259 10498849
-0.19547234 0.32648936 0.67611259 10367519
-0.17983443 0.31094226 0.64391679 10301984
-0.1735047 0.31094226 0.64391679 10367518
-0.18477233 0.34367305 0.71169752 9973530
-0.17777631 0.34367305 0.71169752 9974302
-0.17078029 0.34367305 0.71169752 10301982
-0.14818577 0.31094226 0.64391679 10301982
-0.14185603 0.31094226 0.64391679 10827042
-0.1355263 0.31094226 0.64391679 10695200
-0.12919657 0.31094226 0.64391679 10630176
-0.1358002 0.34367305 0.71169752 10564640
-0.12880418 0.34367305 0.71169752 10629917
-0.1239833 0.34981003 0.72440636 10629918
-0.11481214 0.34367305 0.71169752 10498077
-0.1097414 0.34981003 0.72440636 10564642
-0.10082011 0.34367305 0.71169752 10760736
-0.093824089 0.34367305 0.71169752 10760736
-0.08533103 0.33774763 0.69942683 10891804
-0.078455634 0.33774763 0.69942683 10630687
-0.068059899 0.3211371 0.66502881 10761249
-0.065840013 0.34367305 0.71169752 10499104
-0.058843996 0.34367305 0.71169752 10695453
-0.051847976 0.34367305 0.71169752 10827039
-0.052174725 0.39978293 0.82789302 10760990
0 0 0 10564897
0 0 0 10695710
0 0 0 10498847
0 0 0 10760989
-0.0137243 0.47778934 0.98943311 10892322
-0.0039981278 0.47778934 0.98943311 10761249
0.0058712456 0.48973408 1.014169 10760990
0 0 0 10695454
0 0 0 10893091
0 0 0 11089441
0 0 0 11023647
0 0 0 10827039
0.1313744 0.97946817 2.028338 10826526
0.15131307 0.97946817 2.028338 11024161
0.17125171 0.97946817 2.028338 10826783
0.18208605 0.93282676 1.9317503 10826783
0.22224107 1.0310191 2.1350925 10826783
0.24322912 1.0310191 2.1350925 10630433
0.27889591 1.088298 2.2537088 10892576
0.30104998 1.088298 2.2537088 10499361
0.30619329 1.0310191 2.1350925 10499615
0.32718134 1.0310191 2.1350925 10763046
0.36751217 1.088298 2.2537088 10893859
0.38966623 1.088298 2.2537088 10695966
0.41182026 1.088298 2.2537088 10893089
0.43397433 1.088298 2.2537088 10959394
0.68419254 1.6324469 3.380563 10893346
0.71742362 1.6324469 3.380563 10892577
0.7506547 1.6324469 3.380563 11090214
0.3762652 0.78357452 1.6226703 11155748
0.31630331 0.63191491 1.3086051 11089955
0.30921742 0.59361702 1.2292956 11090212
0.30294141 0.55969608 1.1590502 11221027
0.30560341 0.54414898 1.1268544 11024162
0 0 0 11089696
0 0 0 11220770
0 0 0 10827296
0.4198938 0.65297872 1.3522252 11024162
0.64977938 0.97946817 2.028338 10762019
0 0 0 10958882
0.68965667 0.97946817 2.028338 10960166
0.70959538 0.97946817 2.028338 10565156
0.72953403 0.97946817 2.028338 10564897
0.74947268 0.97946817 2.028338 10696226
0.76941133 0.97946817 2.028338 10630687
0.78934997 0.97946817 2.028338 10695967
0.8518827 1.0310191 2.1350925 11024675
0.8728708 1.0310191 2.1350925 10629919
0.89385885 1.0310191 2.1350925 10695456
0.96567178 1.088298 2.2537088 10827296
1.0459331 1.1523155 2.3862798 10826783
0 0 0 10629663
0.88468617 0.93282676 1.9317503 10499103
0.72989166 0.75343704 1.5602599 10762019
0.717628 0.725532 1.5024725 10629917
0.7062403 0.69962007 1.4488127 10826785
0.72048217 0.69962007 1.4488127 10695710
0.7347241 0.69962007 1.4488127 10564127
0.83884192 0.78357452 1.6226703 10302755
1.0176105 0.93282676 1.9317503 10498847
1.1457155 1.0310191 2.1350925 10367520
1.1083684 0.97946817 2.028338 10368292
1.1283071 0.97946817 2.028338 10105377
1.1482457 0.97946817 2.028338 10433570
1.1681844 0.97946817 2.028338 10040353
1.188123 0.97946817 2.028338 10040097
1.1505349 0.93282676 1.9317503 10236704
1.1163639 0.89042556 1.8439435 10302240
1.1344899 0.89042556 1.8439435 10105118
1.2075025 0.93282676 1.9317503 10368288
1.2264916 0.93282676 1.9317503 10433314
1.2454808 0.93282676 1.9317503 10236449
1.3276936 0.97946817 2.028338 10433569
1.2834592 0.93282676 1.9317503 10433056
1.3024484 0.93282676 1.9317503 10302241
1.3214376 0.93282676 1.9317503 10105888
1.2794983 0.89042556 1.8439435 10040097
1.189489 0.81622344 1.6902815 10302241
1.2061045 0.81622344 1.6902815 9842718
1.4672642 0.97946817 2.028338 10106145
1.4872029 0.97946817 2.028338 10105633
1.2057132 0.78357452 1.6226703 9777438
1.2216641 0.78357452 1.6226703 9777954
1.237615 0.78357452 1.6226703 9777698
1.2535659 0.78357452 1.6226703 9711391
1.2695168 0.78357452 1.6226703 9319202
1.2854677 0.78357452 1.6226703 9384738
1.2513641 0.75343704 1.5602599 9384481
1.2667016 0.75343704 1.5602599 9253412
1.5872862 0.93282676 1.9317503 9515296
1.6865894 0.97946817 2.028338 9778725
2.437897 1.3992401 2.8976254 9451043
2.0311372 1.1523155 2.3862798 9384995
1.9404503 1.088298 2.2537088 9515298
1.6822323 0.93282676 1.9317503 9647397
1.7012215 0.93282676 1.9317503 9383713
1.2901579 0.69962007 1.4488127 9383971
1.2174399 0.65297872 1.3522252 9187363
1.2731713 0.67549527 1.3988537 9187875
1.3822497 0.725532 1.5024725 9122081
3.4290469 1.7808511 3.687887 9122336
4.2353659 2.1765959 4.5074177 9253409
3.5015512 1.7808511 3.687887 9187875
1.853135 0.93282676 1.9317503 9122082
2.184145 1.088298 2.2537088 8924961
2.2062991 1.088298 2.2537088 8793889
2.2284532 1.088298 2.2537088 8990755
1.9290917 0.93282676 1.9317503 9122340
2.045485 0.97946817 2.028338 9055778
1.8776579 0.89042556 1.8439435 8793889
1.8957839 0.89042556 1.8439435 8925475
1.7544174 0.81622344 1.6902815 8925474
1.7710329 0.81622344 1.6902815 9253409
1.7161427 0.78357452 1.6226703 9386024
1.7320936 0.78357452 1.6226703 9253668
1.7480445 0.78357452 1.6226703 9516582
1.6961495 0.75343704 1.5602599 9516579
1.6480985 0.725532 1.5024725 9451301
1.7268243 0.75343704 1.5602599 9713960
1.8873417 0.81622344 1.6902815 9451817
1.9039574 0.81622344 1.6902815 9648680
1.9205729 0.81622344 1.6902815 9517609
1.8597009 0.78357452 1.6226703 9648683
1.8035115 0.75343704 1.5602599 9517353
1.8188488 0.75343704 1.5602599 9583144
1.8341863 0.75343704 1.5602599 9582631
1.8495237 0.75343704 1.5602599 9517612
0 0 0 9321002
0 0 0 9451559
0 0 0 9451817
0 0 0 9386794
0 0 0 9321255
0 0 0 9320485
0 0 0 9517093
0 0 0 9255719
0 0 0 8467236
0 0 0 6368547
0 0 0 5121308
0 0 0 8269089
0 0 0 8334367
-0.91349924 0.37713462 0.76541048 8465694
-0.90597522 0.37713462 0.76541048 8531486
-0.89845121 0.37713462 0.76541048 8728609
-0.87442857 0.37015069 0.75123626 8597280
-0.86704391 0.37015069 0.75123626 8597280
-0.87587917 0.37713462 0.76541048 8794401
-0.8683551 0.37713462 0.76541048 8924961
-0.87738562 0.38438725 0.78012997 8990496
-0.86971688 0.38438725 0.78012997 9121569
-0.89653009 0.39976272 0.81133515 9187362
-0.90668839 0.40792114 0.82789302 9056288
-0.93678629 0.42527947 0.86312246 9122082
-0.94848228 0.43452469 0.88188601 9187616
-0.93981326 0.43452469 0.88188601 9318432
-0.9311443 0.43452469 0.88188601 9449761
-1.0349723 0.48751551 0.98943311 9646368
-1.0252461 0.48751551 0.98943311 9515296
-0.84972084 0.40792114 0.82789302 9515298
-0.79302979 0.38438725 0.78012997 9843491
-0.78536105 0.38438725 0.78012997 9581089
-0.80880004 0.39976272 0.81133515 9778208
-0.80082458 0.39976272 0.81133515 9778208
-0.79284912 0.39976272 0.81133515 9777953
-0.78487366 0.39976272 0.81133515 9712929
-0.88283885 0.45427582 0.92197174 9777952
-0.93771064 0.48751551 0.98943311 9777697
-0.92798448 0.48751551 0.98943311 9974818
-0.80103379 0.42527947 0.86312246 9711904
-0.76020032 0.40792114 0.82789302 9777954
-0.73702085 0.39976272 0.81133515 10040610
-0.72904539 0.39976272 0.81133515 9974560
-0.73578566 0.40792114 0.82789302 9844001
-0.71309447 0.39976272 0.81133515 9843231
-0.70511901 0.39976272 0.81133515 9974815
-0.69714355 0.39976272 0.81133515 9974817
-0.6891681 0.39976272 0.81133515 9974817
-0.69509453 0.40792114 0.82789302 9974817
0 0 0 9778468
0 0 0 9844003
0 0 0 10171939
0 0 0 10302497
0 0 0 10236702
0 0 0 10368034
0 0 0 10171682
0 0 0 10236706
0 0 0 10302497
0 0 0 10171424
0 0 0 10040608
-5.8548713 3.9976275 8.1133518 10236706
-4.8125968 3.3313558 6.761126 10106403
-4.7461348 3.3313558 6.761126 10171938
-3.5097547 2.498517 5.0708447 10171683
-3.459908 2.498517 5.0708447 10106147
-3.4100614 2.498517 5.0708447 10040608
-3.3602147 2.498517 5.0708447 10303268
-3.3103681 2.498517 5.0708447 10500390
-3.2605214 2.498517 5.0708447 10434083
-3.2106748 2.498517 5.0708447 10499617
-3.1608281 2.498517 5.0708447 10368545
-3.1109815 2.498517 5.0708447 10696997
-3.0611348 2.498517 5.0708447 10565667
-3.0112882 2.498517 5.0708447 10237474
-2.9614415 2.498517 5.0708447 10499363
-2.5880845 2.2209041 4.5074177 10434083
-2.8617485 2.498517 5.0708447 10434081
-2.8119018 2.498517 5.0708447 10499361
-2.7620552 2.498517 5.0708447 10696994
-2.7122085 2.498517 5.0708447 10499616
-2.6623619 2.498517 5.0708447 10630687
-2.6125152 2.498517 5.0708447 10433823
-2.5626686 2.498517 5.0708447 10433568
-2.8717964 2.855448 5.7952509 10368290
-2.8148289 2.855448 5.7952509 10367777
-2.4131286 2.498517 5.0708447 10696226
-2.363282 2.498517 5.0708447 10827556
-2.0563872 2.2209041 4.5074177 10433568
-1.6462463 1.8171033 3.687887 10499361
-0.93210196 1.0520072 2.1350925 10631201
-0.46786931 0.5402199 1.0963988 10368288
-0.42280981 0.49970344 1.014169 10302495
-0.40277117 0.48751551 0.98943311 10499361
-0.35032272 0.43452469 0.88188601 10302497
-0.34165373 0.43452469 0.88188601 10301982
-0.31259793 0.40792114 0.82789302 10564126
-0.30445972 0.40792114 0.82789302 10433054
-0.3089309 0.42527947 0.86312246 10433054
-0.28818327 0.40792114 0.82789302 10367775
-0.24949466 0.36342064 0.73757738 10695969
-0.23791845 0.356931 0.72440636 10499104
-0.22674844 0.35066906 0.71169752 10629920
-0.21975242 0.35066906 0.71169752 10827296
-0.21275641 0.35066906 0.71169752 10301724
-0.19547234 0.33313558 0.67611259 10433054
-0.18882613 0.33313558 0.67611259 10301982
-0.18846199 0.34462303 0.69942683 10433054
-0.18477233 0.35066906 0.71169752 10236448
-0.17777631 0.35066906 0.71169752 10236704
-0.17078029 0.35066906 0.71169752 10367518
-0.15057586 0.3223893 0.65430254 10434081
-0.14414404 0.3223893 0.65430254 10433570
-0.14979224 0.35066906 0.71169752 10236191
-0.14279622 0.35066906 0.71169752 10629663
-0.1382252 0.356931 0.72440636 10563870
-0.12880418 0.35066906 0.71169752 10498846
-0.1239833 0.356931 0.72440636 10367518
-0.11481214 0.35066906 0.71169752 10367006
-0.10781612 0.35066906 0.71169752 10498334
-0.10082011 0.35066906 0.71169752 10564381
-0.093824089 0.35066906 0.71169752 10498849
-0.08533103 0.34462303 0.69942683 10695710
-0.078455634 0.34462303 0.69942683 10760990
-0.065899268 0.31727201 0.64391679 10761503
-0.064704835 0.34462303 0.69942683 10630176
-0.05782944 0.34462303 0.69942683 10827038
-0.05277383 0.356931 0.72440636 10564637
0 0 0 10564637
0 0 0 10827040
0 0 0 10761247
0 0 0 10630433
0 0 0 10761249
-0.014067408 0.49970344 1.014169 10760990
-0.0039981278 0.48751551 0.98943311 10761503
0 0 0 10760990
0 0 0 11023390
0 0 0 10826783
0 0 0 10760990
0 0 0 10892063
0 0 0 10761249
0.1313744 0.99940687 2.028338 10826529
0.15131307 0.99940687 2.028338 10892576
0.17125171 0.99940687 2.028338 10827296
0.18208605 0.95181596 1.9317503 10761503
0.20107524 0.95181596 1.9317503 10761503
0.23106767 0.99940687 2.028338 10761249
0.26421717 1.0520072 2.1350925 10695456
0.30104998 1.1104521 2.2537088 10630433
0.30619329 1.0520072 2.1350925 10695713
0.31082228 0.99940687 2.028338 10695711
0.34816939 1.0520072 2.1350925 10893346
0.38966623 1.1104521 2.2537088 10826782
0.41182026 1.1104521 2.2537088 10827553
0.48822111 1.2492585 2.5354223 10892574
0 0 0 10695710
0 0 0 10827296
0 0 0 11024675
0.55333114 1.1757727 2.3862798 10630687
0.42632186 0.86904937 1.763772 10827039
0.30012283 0.58788633 1.1931399 10892833
0.30294141 0.57108963 1.1590502 11023905
0.32358006 0.58788633 1.1931399 11024674
0 0 0 11089953
0 0 0 11024158
0 0 0 10827809
0 0 0 11024934
0 0 0 11090468
0 0 0 10827811
0.68965667 0.99940687 2.028338 10630433
0.70959538 0.99940687 2.028338 10499361
0.72953403 0.99940687 2.028338 10564640
0.74947268 0.99940687 2.028338 10892576
0.76941133 0.99940687 2.028338 10499876
0.78934997 0.99940687 2.028338 10761761
0.8518827 1.0520072 2.1350925 10828067
0.8728708 1.0520072 2.1350925 10630433
0.89385885 1.0520072 2.1350925 10564642
0.9148469 1.0520072 2.1350925 10761249
0.98782581 1.1104521 2.2537088 10564896
0.86569697 0.95181596 1.9317503 11024163
0.66351461 0.713862 1.4488127 10564642
0.72989166 0.76877451 1.5602599 10893089
0.74522913 0.76877451 1.5602599 10892576
0.76056653 0.76877451 1.5602599 10827042
0.74716675 0.74030137 1.5024725 10433311
0.76193613 0.74030137 1.5024725 10433055
0.83884192 0.79952544 1.6226703 10630433
1.0176105 0.95181596 1.9317503 10171681
1.0884298 0.99940687 2.028338 10302495
1.1083684 0.99940687 2.028338 10368033
1.1283071 0.99940687 2.028338 10171427
1.1482457 0.99940687 2.028338 10498847
1.1681844 0.99940687 2.028338 10237216
1.188123 0.99940687 2.028338 10499106
1.1505349 0.95181596 1.9317503 10368034
1.1695241 0.95181596 1.9317503 10301982
1.1885133 0.95181596 1.9317503 10236961
1.2075025 0.95181596 1.9317503 10237219
1.2264916 0.95181596 1.9317503 10236192
1.2454808 0.95181596 1.9317503 10039325
1.3276936 0.99940687 2.028338 10040610
1.2834592 0.95181596 1.9317503 10301986
1.3024484 0.95181596 1.9317503 10301729
1.2613722 0.90855163 1.8439435 10236449
1.2794983 0.90855163 1.8439435 10302497
1.2976243 0.90855163 1.8439435 10236703
1.2061045 0.83283895 1.6902815 9974558
1.3973943 0.95181596 1.9317503 10170911
1.4872029 0.99940687 2.028338 9909794
1.5071415 0.99940687 2.028338 9842974
1.5270802 0.99940687 2.028338 10104861
1.237615 0.79952544 1.6226703 10236704
1.4923403 0.95181596 1.9317503 9776928
1.3799095 0.86904937 1.763772 9515809
1.3972476 0.86904937 1.763772 9318430
1.4145855 0.86904937 1.763772 9449505
1.3173696 0.79952544 1.6226703 9647395
1.5872862 0.95181596 1.9317503 9384481
1.6865894 0.99940687 2.028338 9515809
2.0076799 1.1757727 2.3862798 9318945
2.0311372 1.1757727 2.3862798 9449760
1.7464054 0.99940687 2.028338 9450016
1.766344 0.99940687 2.028338 9319202
1.7862827 0.99940687 2.028338 9319715
1.9012855 1.0520072 2.1350925 9384995
1.7391998 0.95181596 1.9317503 9516068
1.758189 0.95181596 1.9317503 9450018
4.6650929 2.498517 5.0708447 9253409
4.7149396 2.498517 5.0708447 9056543
4.7647862 2.498517 5.0708447 9122338
3.5015512 1.8171033 3.687887 8925473
1.496763 0.76877451 1.5602599 9122336
1.8721242 0.95181596 1.9317503 9122336
2.2062991 1.1104521 2.2537088 8990496
2.2284532 1.1104521 2.2537088 8991011
2.0255466 0.99940687 2.028338 9122082
2.045485 0.99940687 2.028338 8991010
1.9670701 0.95181596 1.9317503 8728608
1.7378019 0.83283895 1.6902815 8794146
1.7544174 0.83283895 1.6902815 8991269
1.7710329 0.83283895 1.6902815 9122341
1.7161427 0.79952544 1.6226703 9122853
1.7320936 0.79952544 1.6226703 9253925
1.680812 0.76877451 1.5602599 9384741
1.6961495 0.76877451 1.5602599 9517095
1.7799463 0.79952544 1.6226703 9516836
1.7958972 0.79952544 1.6226703 9582631
1.8873417 0.83283895 1.6902815 9648681
1.9039574 0.83283895 1.6902815 9517351
2.0951705 0.90855163 1.8439435 9648936
1.9371884 0.83283895 1.6902815 9648935
1.953804 0.83283895 1.6902815 9583657
1.9704195 0.83283895 1.6902815 9452841
1.7031729 0.713862 1.4488127 9452074
1.7174147 0.713862 1.4488127 9582887
1.9394555 0.79952544 1.6226703 9321001
0 0 0 9582887
0 0 0 9451816
0 0 0 9255206
0 0 0 9386278
0 0 0 9582631
0 0 0 9189158
0 0 0 8992293
0 0 0 8926502
0 0 0 8141355
0 0 0 6499618
0 0 0 8269342
0 0 0 8334367
-0.91349924 0.38465863 0.76541048 8465951
-0.90597522 0.38465863 0.76541048 8596512
-0.89845121 0.38465863 0.76541048 8925475
-0.87442857 0.37753537 0.75123626 8728096
-0.86704391 0.37753537 0.75123626 9056800
-0.85965919 0.37753537 0.75123626 9187618
-0.8683551 0.38465863 0.76541048 9056033
-0.86083108 0.38465863 0.76541048 9056546
-0.86971688 0.39205596 0.78012997 8859423
-0.86204821 0.39205596 0.78012997 9121822
-0.90668839 0.41605937 0.82789302 9253409
-0.93678629 0.43376401 0.86312246 9056543
-0.94848228 0.44319367 0.88188601 9384739
-0.93981326 0.44319367 0.88188601 9319202
-0.9311443 0.44319367 0.88188601 9515296
-1.0349723 0.49724168 0.98943311 9646368
-1.0508773 0.50967276 1.014169 9515296
-1.0409081 0.50967276 1.014169 9450018
-0.80857933 0.39974332 0.79542661 9909540
-0.80076027 0.39974332 0.79542661 9383710
-0.79294121 0.39974332 0.79542661 9449504
-0.80082458 0.40773818 0.81133515 9778210
-0.79284912 0.40773818 0.81133515 9581344
-0.89190185 0.46333882 0.92197174 9580831
-0.94743681 0.49724168 0.98943311 9777953
-0.93771064 0.49724168 0.98943311 9843231
-0.92798448 0.49724168 0.98943311 9712675
-0.91825831 0.49724168 0.98943311 9646622
-0.82777369 0.45304242 0.90148348 9777953
-0.75206214 0.41605937 0.82789302 9974817
-0.7439239 0.41605937 0.82789302 10040097
-0.73578566 0.41605937 0.82789302 9909538
-0.72764742 0.41605937 0.82789302 9909026
-0.70511901 0.40773818 0.81133515 10171681
-0.69714355 0.40773818 0.81133515 9974815
-0.6891681 0.40773818 0.81133515 10040608
-0.69509453 0.41605937 0.82789302 9843232
0 0 0 9777696
0 0 0 9909535
0 0 0 10171682
0 0 0 10040865
0 0 0 10106146
0 0 0 9974303
0 0 0 10237476
0 0 0 10237219
0 0 0 10302497
0 0 0 10106146
0 0 0 9975076
0 0 0 9843231
-4.8125968 3.3978181 6.761126 10105888
-4.7461348 3.3978181 6.761126 10236704
-3.5097547 2.5483637 5.0708447 10171168
-3.459908 2.5483637 5.0708447 10040097
-3.4100614 2.5483637 5.0708447 10237474
-2.9868577 2.2652123 4.5074177 10368033
-2.9425495 2.2652123 4.5074177 10302497
-3.2605214 2.5483637 5.0708447 10236959
-3.2106748 2.5483637 5.0708447 10040095
-3.1608281 2.5483637 5.0708447 10499363
-3.1109815 2.5483637 5.0708447 10762019
-3.4984398 2.9124155 5.7952509 10433825
-3.0112882 2.5483637 5.0708447 10237218
-2.9614415 2.5483637 5.0708447 10433570
-2.5880845 2.2652123 4.5074177 10433827
-2.5437765 2.2652123 4.5074177 10696483
-2.8119018 2.5483637 5.0708447 10499616
-2.7620552 2.5483637 5.0708447 10368290
-2.7122085 2.5483637 5.0708447 10433825
-2.6623619 2.5483637 5.0708447 10499360
-2.6125152 2.5483637 5.0708447 10499361
-2.5626686 2.5483637 5.0708447 10434083
-2.2336197 2.2652123 4.5074177 10565156
-2.1893115 2.2652123 4.5074177 10696226
-2.4131286 2.5483637 5.0708447 10695970
-2.363282 2.5483637 5.0708447 10761761
-2.3134353 2.5483637 5.0708447 10565408
-1.6462463 1.8533553 3.687887 10434081
-0.47864693 0.55099756 1.0963988 10564895
-0.46786931 0.55099756 1.0963988 10762273
-0.44506294 0.53649759 1.0675462 10368290
-0.41284049 0.50967276 1.014169 10171168
-0.39304501 0.49724168 0.98943311 10236447
-0.35718346 0.46333882 0.92197174 10236704
-0.33298475 0.44319367 0.88188601 10564640
-0.33152279 0.45304242 0.90148348 10498847
-0.45374227 0.63709092 1.2677112 10301468
-0.44128063 0.63709092 1.2677112 10367775
-0.24949466 0.37067106 0.73757738 10630173
-0.23791845 0.36405194 0.72440636 10695456
-0.2307975 0.36405194 0.72440636 10563870
-0.21975242 0.35766509 0.71169752 10629662
-0.21275641 0.35766509 0.71169752 10433053
-0.20576039 0.35766509 0.71169752 10367778
-0.19876437 0.35766509 0.71169752 10301986
-0.18846199 0.35149843 0.69942683 10170911
-0.18807182 0.36405194 0.72440636 10236191
-0.17777631 0.35766509 0.71169752 10039325
-0.17078029 0.35766509 0.71169752 10301982
-0.15304431 0.33421162 0.66502881 10039838
-0.15678826 0.35766509 0.71169752 9974560
-0.15246709 0.36405194 0.72440636 10301982
-0.14279622 0.35766509 0.71169752 9974302
-0.13345881 0.35149843 0.69942683 9974304
-0.12658341 0.35149843 0.69942683 10038812
-0.12180816 0.35766509 0.71169752 10104606
-0.11481214 0.35766509 0.71169752 10104862
-0.10781612 0.35766509 0.71169752 10564124
-0.10082011 0.35766509 0.71169752 10695710
-0.093824089 0.35766509 0.71169752 10563871
-0.082486659 0.33978179 0.67611259 10498078
-0.075840443 0.33978179 0.67611259 10695457
-0.065899268 0.32360172 0.64391679 10367518
-0.064704835 0.35149843 0.69942683 10564380
-0.05782944 0.35149843 0.69942683 10695710
-0.055761028 0.38465863 0.76541048 10629919
-0.053261697 0.42472726 0.84514076 10563869
0 0 0 10760992
0 0 0 10694943
0 0 0 10629663
0 0 0 10301984
-0.014067408 0.50967276 1.014169 10498849
-0.004098081 0.50967276 1.014169 10563870
0 0 0 10433054
0 0 0 10368288
0 0 0 10498847
0 0 0 10564640
0 0 0 10629663
0 0 0 10630176
0.1313744 1.0193455 2.028338 10695712
0.14410767 0.97080517 1.9317503 10695969
0.16309686 0.97080517 1.9317503 10761247
0.18208605 0.97080517 1.9317503 10761505
