# .PCD v0.7 - Point Cloud Data file format
VERSION 0.7
FIELDS x y z rgb
SIZE 4 4 4 4
TYPE F F F U
COUNT 1 1 1 1
WIDTH 1285
HEIGHT 1
VIEWPOINT 0 0 0 1 0 0 0
POINTS 1285
DATA ascii
1.4872029 0.26167667 2.028338 2954259
1.5071415 0.26167667 2.028338 2954516
1.5270802 0.26167667 2.028338 2954259
1.5470188 0.26167667 2.028338 2888723
1.4923403 0.24921587 1.9317503 2888467
1.5113295 0.24921587 1.9317503 3217431
1.4607588 0.23788787 1.8439435 3874588
1.4788848 0.23788787 1.8439435 4071708
1.4319234 0.22754492 1.763772 3940382
1.4492614 0.22754492 1.763772 4071968
1.4665993 0.22754492 1.763772 4137245
1.551389 0.23788787 1.8439435 4071709
1.5695151 0.23788787 1.8439435 3217433
1.5876411 0.23788787 1.8439435 3020307
1.6057671 0.23788787 1.8439435 3151890
1.6238931 0.23788787 1.8439435 3348761
1.6420193 0.23788787 1.8439435 3217432
1.6601453 0.23788787 1.8439435 3217687
1.605303 0.22754492 1.763772 3151638
1.622641 0.22754492 1.763772 3021078
1.6399789 0.22754492 1.763772 2955288
1.7326494 0.23788787 1.8439435 2955288
1.7507756 0.23788787 1.8439435 3086617
1.7689016 0.23788787 1.8439435 3086359
1.7870276 0.23788787 1.8439435 3020567
1.8051536 0.23788787 1.8439435 2954776
1.8232797 0.23788787 1.8439435 2889495
1.8414057 0.23788787 1.8439435 2955288
1.8595318 0.23788787 1.8439435 2889753
1.8776579 0.23788787 1.8439435 2758424
1.8957839 0.23788787 1.8439435 2890010
1.9139099 0.23788787 1.8439435 2693145
1.8480344 0.22754492 1.763772 2627864
1.8653724 0.22754492 1.763772 3744288
1.8827103 0.22754492 1.763772 4072995
1.9000483 0.22754492 1.763772 3283224
1.9173863 0.22754492 1.763772 3151636
1.9347242 0.22754492 1.763772 3545879
1.9520621 0.22754492 1.763772 4071962
1.9694002 0.22754492 1.763772 5255975
1.9867381 0.22754492 1.763772 5847343
2.004076 0.22754492 1.763772 6043950
2.021414 0.22754492 1.763772 6241327
2.2329187 0.24921587 1.9317503 6372914
2.2519081 0.24921587 1.9317503 6307122
2.1676745 0.23788787 1.8439435 5846315
2.1858006 0.23788787 1.8439435 5977899
2.3088756 0.24921587 1.9317503 6372654
2.4442582 0.26167667 2.028338 6635568
2.899055 0.30785489 2.3862798 6898995
3.8217468 0.40257949 3.1205199 7030581
0 0 0 7490617
0 0 0 7819582
0 0 0 8016961
0 0 0 8082752
0 0 0 8279361
0 0 0 8409663
0 0 0 8344384
0 0 0 3676943
0 0 0 1115394
-4.0346217 0.46935886 3.380563 1180938
-4.0013905 0.46935886 3.380563 1181708
-4.3289013 0.51202786 3.687887 2822933
-3.9349284 0.46935886 3.380563 2889235
-4.2563972 0.51202786 3.687887 3217428
-4.2201452 0.51202786 3.687887 3282965
-4.6022825 0.56323069 4.0566759 3282966
-4.5624051 0.56323069 4.0566759 3414295
-4.5225282 0.56323069 4.0566759 3217431
-4.0751367 0.51202786 3.687887 3217686
-4.0388846 0.51202786 3.687887 3545365
-4.0026326 0.51202786 3.687887 3479831
-3.9663804 0.51202786 3.687887 3479831
-3.9301283 0.51202786 3.687887 3217429
-3.8938763 0.51202786 3.687887 3217429
-4.2433867 0.56323069 4.0566759 3151890
-4.2035093 0.56323069 4.0566759 3086098
-4.6262579 0.62581187 4.5074177 2888721
-5.1546931 0.70403832 5.0708447 2231824
-5.104847 0.70403832 5.0708447 919309
-5.0550003 0.70403832 5.0708447 918282
-4.4490256 0.62581187 4.5074177 852489
-3.9642456 0.56323069 4.0566759 852489
-3.9243684 0.56323069 4.0566759 655880
-3.5313554 0.51202786 3.687887 852743
-3.4951031 0.51202786 3.687887 786950
-3.4588511 0.51202786 3.687887 786696
-3.1373823 0.46935886 3.380563 853259
-2.8653705 0.43325436 3.1205199 984075
-3.0709202 0.46935886 3.380563 983818
-3.3138428 0.51202786 3.687887 1049610
-3.2775905 0.51202786 3.687887 984329
-3.2413385 0.51202786 3.687887 984073
-3.2050865 0.51202786 3.687887 1246730
-3.485718 0.56323069 4.0566759 1180938
-3.4458406 0.56323069 4.0566759 1312524
-3.7844038 0.62581187 4.5074177 1180938
-3.366086 0.56323069 4.0566759 1246731
-3.6957874 0.62581187 4.5074177 1180938
-3.6514795 0.62581187 4.5074177 786950
-3.6071713 0.62581187 4.5074177 853002
-3.5628631 0.62581187 4.5074177 1378318
-3.5185549 0.62581187 4.5074177 1772817
-3.474247 0.62581187 4.5074177 1838352
-3.4299388 0.62581187 4.5074177 1706766
-3.3856306 0.62581187 4.5074177 851974
-3.3413227 0.62581187 4.5074177 590087
-3.709141 0.70403832 5.0708447 590087
-3.6592944 0.70403832 5.0708447 590087
-3.6094477 0.70403832 5.0708447 720903
-3.1640902 0.62581187 4.5074177 655625
-3.119782 0.62581187 4.5074177 1180938
-3.0754738 0.62581187 4.5074177 918536
-3.4100614 0.70403832 5.0708447 590087
-3.3602147 0.70403832 5.0708447 655880
-3.3103681 0.70403832 5.0708447 720903
-3.2605214 0.70403832 5.0708447 786696
-3.2106748 0.70403832 5.0708447 655623
-3.1608281 0.70403832 5.0708447 590345
-3.5554073 0.8046152 5.7952509 524807
-3.0611348 0.70403832 5.0708447 786696
-3.0112882 0.70403832 5.0708447 1246474
-2.9614415 0.70403832 5.0708447 1443852
-2.9115949 0.70403832 5.0708447 1968654
-2.8617485 0.70403832 5.0708447 2822932
-2.8119018 0.70403832 5.0708447 3150865
-2.7620552 0.70403832 5.0708447 2954259
-2.7122085 0.70403832 5.0708447 2822673
-2.6623619 0.70403832 5.0708447 2822674
-2.6125152 0.70403832 5.0708447 2954259
-2.5626686 0.70403832 5.0708447 3084818
-2.5128219 0.70403832 5.0708447 3479574
-2.8148289 0.8046152 5.7952509 5387562
-2.7578614 0.8046152 5.7952509 7291178
-2.7008936 0.8046152 5.7952509 6175529
-2.6439261 0.8046152 5.7952509 3149583
-2.2635887 0.70403832 5.0708447 6766905
-2.2137423 0.70403832 5.0708447 2230794
-2.4730234 0.8046152 5.7952509 2294276
-2.4160559 0.8046152 5.7952509 2562588
-2.3590882 0.8046152 5.7952509 3548193
-2.3021207 0.8046152 5.7952509 6765613
-0.49112725 0.17600958 1.2677112 7288614
-0.39275128 0.14441812 1.0401733 6828839
-0.37296316 0.14080767 1.014169 5909537
-0.36299384 0.14080767 1.014169 5712417
-0.35302451 0.14080767 1.014169 5252381
-0.35185146 0.14441812 1.0401733 4398618
-0.34162652 0.14441812 1.0401733 3545109
-0.33140156 0.14441812 1.0401733 2231566
-0.32117662 0.14441812 1.0401733 851976
-0.31913459 0.14821859 1.0675462 458759
-0.31698221 0.1522245 1.0963988 590087
-0.30620456 0.1522245 1.0963988 590089
-0.29542691 0.1522245 1.0963988 4204067
-0.2771585 0.14821859 1.0675462 7555895
-0.26666445 0.14821859 1.0675462 8344126
-0.24960196 0.14441812 1.0401733 7950135
-0.22770008 0.13737333 0.98943311 8015416
-0.19428109 0.12244144 0.88188601 1048837
-0.16741484 0.11043738 0.79542661 786696
-0.15652663 0.10831359 0.78012997 786696
-0.14334466 0.10430197 0.75123626 1443853
-0.13595997 0.10430197 0.75123626 1312524
-0.13100122 0.10626993 0.76541048 655880
-0.12347721 0.10626993 0.76541048 852489
-0.11595318 0.10626993 0.76541048 655368
-0.10842916 0.10626993 0.76541048 720903
-0.10090514 0.10626993 0.76541048 655366
-0.091651849 0.10430197 0.75123626 590089
-0.081257619 0.1005769 0.72440636 590089
-0.074136674 0.1005769 0.72440636 786696
-0.067015722 0.1005769 0.72440636 1049098
-0.059894778 0.1005769 0.72440636 720903
-0.05277383 0.1005769 0.72440636 786696
-0.045652881 0.1005769 0.72440636 721160
-0.038531937 0.1005769 0.72440636 655366
-0.031410988 0.1005769 0.72440636 721160
-0.023863902 0.098812394 0.71169752 1114889
-0.016867884 0.098812394 0.71169752 1049097
-0.0098718647 0.098812394 0.71169752 983305
-0.0029272006 0.1005769 0.72440636 917766
0.0043490706 0.10430197 0.75123626 851973
0.011955148 0.10626993 0.76541048 720903
0 0 0 590087
0 0 0 786698
0 0 0 851975
0 0 0 655368
0 0 0 720905
0 0 0 786696
0 0 0 524809
0 0 0 918284
0 0 0 1312272
0 0 0 3154470
0 0 0 7158581
0 0 0 10043956
0 0 0 11222824
0.24865782 0.22529225 1.6226703 11551787
0.26460874 0.22529225 1.6226703 11944744
0 0 0 12207146
0.35298878 0.26820505 1.9317503 12207916
0.37197798 0.26820505 1.9317503 12338731
0.39096716 0.26820505 1.9317503 12339759
0.47828245 0.31290594 2.2537088 12470316
0.52987391 0.33131215 2.3862798 12733742
0.55333114 0.33131215 2.3862798 12667949
0.57678843 0.33131215 2.3862798 12601643
0.60024565 0.33131215 2.3862798 12274477
0.62370288 0.33131215 2.3862798 12208685
0.64716011 0.33131215 2.3862798 12339756
0.67061734 0.33131215 2.3862798 12339756
0.62101412 0.29643717 2.1350925 12143663
0.58085907 0.26820505 1.9317503 11881006
0.57258248 0.25601393 1.8439435 11487273
0.46412811 0.2011538 1.4488127 11421741
0.46187449 0.19421746 1.3988537 11355948
0.47562528 0.19421746 1.3988537 11290156
0.56767625 0.22529225 1.6226703 11354922
0.58362716 0.22529225 1.6226703 11289129
0.62456053 0.23467943 1.6902815 11420713
0.66905326 0.24488288 1.763772 11355437
0.68639123 0.24488288 1.763772 11093290
0.73571688 0.25601393 1.8439435 11028271
0.7897402 0.26820505 1.9317503 11028785
0.94351768 0.31290594 2.2537088 11224880
0.86910456 0.28161535 2.028338 10896685
0.71123457 0.22529225 1.6226703 10503217
0.72718549 0.22529225 1.6226703 9584948
0.68808925 0.20860395 1.5024725 8010032
0.72989166 0.21662718 1.5602599 6302246
0.74522913 0.21662718 1.5602599 5055520
0.76056653 0.21662718 1.5602599 6304036
0.80694008 0.22529225 1.6226703 5778722
0.822891 0.22529225 1.6226703 5318944
0.80657881 0.21662718 1.5602599 4925215
0.82191622 0.21662718 1.5602599 4728351
0.90702474 0.23467943 1.6902815 4793372
1.0555888 0.26820505 1.9317503 4400156
1.074578 0.26820505 1.9317503 4071706
1.1482457 0.28161535 2.028338 3940121
1.2296677 0.29643717 2.1350925 3940121
1.2506558 0.29643717 2.1350925 4070937
1.2716439 0.29643717 2.1350925 4334364
1.2926319 0.29643717 2.1350925 4793627
1.1885133 0.26820505 1.9317503 5056541
1.1025022 0.24488288 1.763772 4924957
1.1198401 0.24488288 1.763772 4859165
1.188868 0.25601393 1.8439435 4859166
1.26447 0.26820505 1.9317503 4728351
1.2834592 0.26820505 1.9317503 4794145
1.3675709 0.28161535 2.028338 4202523
1.3875096 0.28161535 2.028338 3743258
1.4074482 0.28161535 2.028338 3677212
1.4273869 0.28161535 2.028338 3874076
1.4473255 0.28161535 2.028338 4072220
1.4672642 0.28161535 2.028338 3874842
1.4872029 0.28161535 2.028338 4137242
1.5071415 0.28161535 2.028338 4071450
1.5270802 0.28161535 2.028338 4005915
1.4733511 0.26820505 1.9317503 4006172
1.4923403 0.26820505 1.9317503 3940636
1.5113295 0.26820505 1.9317503 4071707
1.4607588 0.25601393 1.8439435 4664098
1.4788848 0.25601393 1.8439435 4598307
1.4970108 0.25601393 1.8439435 4400672
1.4492614 0.24488288 1.763772 4334881
1.4665993 0.24488288 1.763772 4530718
1.4839373 0.24488288 1.763772 4530974
1.5695151 0.25601393 1.8439435 3873815
1.5876411 0.25601393 1.8439435 3282966
1.6057671 0.25601393 1.8439435 3151894
1.6238931 0.25601393 1.8439435 3086102
1.6420193 0.25601393 1.8439435 3020309
1.587965 0.24488288 1.763772 3151638
1.5384154 0.23467943 1.6902815 3151636
1.5550309 0.23467943 1.6902815 3085845
1.6399789 0.24488288 1.763772 3085845
1.6573169 0.24488288 1.763772 3020052
1.6746548 0.24488288 1.763772 3086102
1.7689016 0.25601393 1.8439435 3151640
1.7870276 0.25601393 1.8439435 3282967
1.8051536 0.25601393 1.8439435 3348503
1.7440066 0.24488288 1.763772 3414039
1.7613447 0.24488288 1.763772 3349016
1.7786826 0.24488288 1.763772 3349017
1.7211864 0.23467943 1.6902815 3283223
1.7378019 0.23467943 1.6902815 3349015
1.8306965 0.24488288 1.763772 3480856
1.8480344 0.24488288 1.763772 3546647
1.8653724 0.24488288 1.763772 4861219
1.8827103 0.24488288 1.763772 5451814
1.9000483 0.24488288 1.763772 5189155
1.9173863 0.24488288 1.763772 4598305
1.9347242 0.24488288 1.763772 4664101
1.9520621 0.24488288 1.763772 5058602
1.9694002 0.24488288 1.763772 5518637
1.9867381 0.24488288 1.763772 5977641
2.004076 0.24488288 1.763772 5977641
2.021414 0.24488288 1.763772 6043694
2.0387518 0.24488288 1.763772 5977901
2.2519081 0.26820505 1.9317503 6043948
2.2708972 0.26820505 1.9317503 6306866
2.1858006 0.25601393 1.8439435 6175282
2.3088756 0.26820505 1.9317503 5846570
2.4442582 0.28161535 2.028338 5912362
2.899055 0.33131215 2.3862798 6241326
4.1402254 0.46935886 3.380563 6636341
0 0 0 7096119
0 0 0 7556154
0 0 0 8146749
0 0 0 8081210
0 0 0 8081466
0 0 0 8081212
0 0 0 8146492
0 0 0 3348751
0 0 0 1049601
-4.4014053 0.54827994 3.687887 1115915
-4.3651533 0.54827994 3.687887 1378317
-4.3289013 0.54827994 3.687887 2823448
-3.9349284 0.50258994 3.380563 2954514
-4.2563972 0.54827994 3.687887 3348501
-4.2201452 0.54827994 3.687887 3414038
-4.6022825 0.60310799 4.0566759 3479831
-4.5624051 0.60310799 4.0566759 3414038
-4.5225282 0.60310799 4.0566759 3480085
-4.0751367 0.54827994 3.687887 3348499
-4.0388846 0.54827994 3.687887 3414036
-4.0026326 0.54827994 3.687887 3282452
-3.9663804 0.54827994 3.687887 3151893
-3.9301283 0.54827994 3.687887 3020307
-3.8938763 0.54827994 3.687887 3020052
-3.8576241 0.54827994 3.687887 3085075
-4.2035093 0.60310799 4.0566759 2822930
-4.6262579 0.67011994 4.5074177 2297358
-5.1546931 0.75388491 5.0708447 1115145
-5.104847 0.75388491 5.0708447 852489
-5.0550003 0.75388491 5.0708447 852489
-4.4490256 0.67011994 4.5074177 786696
-4.4047174 0.67011994 4.5074177 918282
-3.5676074 0.54827994 3.687887 852491
-3.5313554 0.54827994 3.687887 853002
-3.2038445 0.50258994 3.380563 852744
-3.4588511 0.54827994 3.687887 787720
-3.1373823 0.50258994 3.380563 1049352
-3.1041512 0.50258994 3.380563 983562
-3.0709202 0.50258994 3.380563 918025
-3.3138428 0.54827994 3.687887 1049353
-3.2775905 0.54827994 3.687887 984329
-3.2413385 0.54827994 3.687887 918536
-3.2050865 0.54827994 3.687887 1115401
-3.485718 0.60310799 4.0566759 1115145
-3.4458406 0.60310799 4.0566759 1115145
-3.7844038 0.67011994 4.5074177 1246731
-3.7400956 0.67011994 4.5074177 1312524
-3.6957874 0.67011994 4.5074177 1115145
-3.2863314 0.60310799 4.0566759 786950
-3.6071713 0.67011994 4.5074177 786953
-3.5628631 0.67011994 4.5074177 1904405
-3.5185549 0.67011994 4.5074177 2035217
-3.474247 0.67011994 4.5074177 2101010
-3.4299388 0.67011994 4.5074177 1969936
-3.3856306 0.67011994 4.5074177 1838608
-3.3413227 0.67011994 4.5074177 1509646
-3.709141 0.75388491 5.0708447 1313038
-3.6592944 0.75388491 5.0708447 786950
-3.6094477 0.75388491 5.0708447 786696
-3.5596011 0.75388491 5.0708447 786696
-3.5097547 0.75388491 5.0708447 721673
-3.0754738 0.67011994 4.5074177 852489
-3.4100614 0.75388491 5.0708447 655882
-3.3602147 0.75388491 5.0708447 1049868
-3.3103681 0.75388491 5.0708447 1049869
-3.2605214 0.75388491 5.0708447 1049868
-3.2106748 0.75388491 5.0708447 918281
-3.1608281 0.75388491 5.0708447 918537
-3.5554073 0.86158276 5.7952509 1180939
-3.0611348 0.75388491 5.0708447 1903373
-3.4414723 0.86158276 5.7952509 1049094
-2.9614415 0.75388491 5.0708447 1312266
-2.9115949 0.75388491 5.0708447 1706252
-2.8617485 0.75388491 5.0708447 2822932
-2.8119018 0.75388491 5.0708447 3414293
-2.7620552 0.75388491 5.0708447 3479572
-2.7122085 0.75388491 5.0708447 3021079
-2.6623619 0.75388491 5.0708447 3416355
-2.6125152 0.75388491 5.0708447 3810081
-2.5626686 0.75388491 5.0708447 4269085
-2.5128219 0.75388491 5.0708447 4794658
-2.8148289 0.86158276 5.7952509 5057571
-2.7578614 0.86158276 5.7952509 4333333
-2.7008936 0.86158276 5.7952509 5122077
-2.6439261 0.86158276 5.7952509 4202777
-2.2635887 0.75388491 5.0708447 6240561
-2.5299909 0.86158276 5.7952509 918536
-2.4730234 0.86158276 5.7952509 1247245
-2.4160559 0.86158276 5.7952509 5582883
-1.1009078 0.40207195 2.7044504 6961706
-0.51983368 0.19455095 1.3086051 6960166
-0.44903064 0.17231655 1.1590502 6172450
-0.39275128 0.15464307 1.0401733 5646369
-0.37296316 0.150777 1.014169 5449244
-0.36299384 0.150777 1.014169 4727579
-0.35302451 0.150777 1.014169 4332824
-0.35185146 0.15464307 1.0401733 3676181
-0.34162652 0.15464307 1.0401733 3216404
-0.33140156 0.15464307 1.0401733 2756882
-0.32117662 0.15464307 1.0401733 2559250
-0.31095168 0.15464307 1.0401733 1574668
-0.30864057 0.15871261 1.0675462 983819
-0.29814655 0.15871261 1.0675462 5716276
-0.28765252 0.15871261 1.0675462 8344893
-0.28464925 0.16300215 1.0963988 8410171
-0.2738716 0.16300215 1.0963988 8607547
-0.25617042 0.15871261 1.0675462 8869949
-0.2333926 0.150777 1.014169 9067329
-0.2179739 0.14709949 0.98943311 2492676
-0.18166292 0.12832083 0.86312246 851975
-0.16278769 0.12062159 0.81133515 655627
-0.15177669 0.11825646 0.79542661 917768
-0.13852525 0.11379395 0.76541048 1707024
-0.13100122 0.11379395 0.76541048 1049352
-0.12585177 0.1159823 0.78012997 852489
-0.11818306 0.1159823 0.78012997 851975
-0.11051435 0.1159823 0.78012997 655366
-0.10090514 0.11379395 0.76541048 524294
-0.093381122 0.11379395 0.76541048 524294
-0.082735032 0.10965598 0.73757738 720903
-0.074136674 0.10769784 0.72440636 786696
-0.067015722 0.10769784 0.72440636 786696
-0.059894778 0.10769784 0.72440636 720903
-0.05277383 0.10769784 0.72440636 851975
-0.046482936 0.10965598 0.73757738 852232
-0.039232515 0.10965598 0.73757738 917769
-0.031982098 0.10965598 0.73757738 1049353
-0.023863902 0.10580841 0.71169752 983305
-0.016577058 0.10398412 0.69942683 983559
-0.0097016599 0.10398412 0.69942683 917512
-0.0029272006 0.10769784 0.72440636 917512
0.0043490706 0.11168666 0.75123626 786696
0.012423977 0.11825646 0.79542661 786696
0 0 0 720903
0 0 0 851975
0 0 0 720903
0 0 0 720905
0 0 0 1049870
0 0 0 3088678
0 0 0 6569015
0 0 0 9781552
0 0 0 11354410
0 0 0 11550502
0 0 0 12141353
0.18685859 0.20796825 1.3988537 11944490
0.18180226 0.18847123 1.2677112 12207144
0.19426392 0.18847123 1.2677112 12141353
0.23625781 0.21539569 1.4488127 12207146
0.26976892 0.2319646 1.5602599 12272937
0.29651058 0.24124318 1.6226703 12536109
0.35506988 0.27413997 1.8439435 12338730
0.39096716 0.28719425 1.9317503 12535850
0.45310968 0.31742522 2.1350925 12273709
0.52987391 0.35476938 2.3862798 12470316
0.55333114 0.35476938 2.3862798 12733488
0.57678843 0.35476938 2.3862798 12536109
0.60024565 0.35476938 2.3862798 12207914
0.62370288 0.35476938 2.3862798 12273707
0.64716011 0.35476938 2.3862798 12208171
0.67061734 0.35476938 2.3862798 12208943
0.69407457 0.35476938 2.3862798 12273966
0.58085907 0.28719425 1.9317503 12273963
0.50387257 0.24124318 1.6226703 12142892
0.49983031 0.2319646 1.5602599 11814958
0.51516771 0.2319646 1.5602599 12142894
0.53050512 0.2319646 1.5602599 12077100
0.56767625 0.24124318 1.6226703 12077613
0.58362716 0.24124318 1.6226703 11749418
0.62456053 0.25129497 1.6902815 11946027
0.66905326 0.26222083 1.763772 11420715
0.68639123 0.26222083 1.763772 11553069
0.770751 0.28719425 1.9317503 11356720
0.8728708 0.31742522 2.1350925 11421228
0.94351768 0.33505997 2.2537088 10962730
0.69528365 0.24124318 1.6226703 11027498
0.71123457 0.24124318 1.6226703 10634024
0.72718549 0.24124318 1.6226703 10437162
0.74313641 0.24124318 1.6226703 10109225
0.72989166 0.2319646 1.5602599 10371368
0.69199842 0.21539569 1.4488127 10371368
0.7062403 0.21539569 1.4488127 10502698
0.74716675 0.22337332 1.5024725 10174761
0.822891 0.24124318 1.6226703 10108713
0.83884192 0.24124318 1.6226703 10436648
0.82191622 0.2319646 1.5602599 10633513
0.87074375 0.24124318 1.6226703 10698536
0.92364031 0.25129497 1.6902815 10174763
1.074578 0.28719425 1.9317503 10043435
1.1482457 0.30155399 2.028338 9911852
1.1681844 0.30155399 2.028338 9584433
1.188123 0.30155399 2.028338 8271656
1.2080617 0.30155399 2.028338 7616553
1.0233335 0.25129497 1.6902815 6960936
1.0851643 0.26222083 1.763772 6238759
1.1025022 0.26222083 1.763772 6173995
1.170742 0.27413997 1.8439435 5780008
1.188868 0.27413997 1.8439435 5516836
1.26447 0.28719425 1.9317503 5451557
1.2834592 0.28719425 1.9317503 5385762
1.3024484 0.28719425 1.9317503 5187875
1.3214376 0.28719425 1.9317503 4727838
1.3404268 0.28719425 1.9317503 4400156
1.359416 0.28719425 1.9317503 4137244
1.3784052 0.28719425 1.9317503 4268058
1.4672642 0.30155399 2.028338 4071449
1.4872029 0.30155399 2.028338 4137242
1.5071415 0.30155399 2.028338 3940120
1.4543619 0.28719425 1.9317503 3940121
1.4733511 0.28719425 1.9317503 4005914
1.4923403 0.28719425 1.9317503 4202777
1.4426327 0.27413997 1.8439435 4925728
1.4607588 0.27413997 1.8439435 5385502
1.4788848 0.27413997 1.8439435 5188639
1.4319234 0.26222083 1.763772 4793884
1.4492614 0.26222083 1.763772 4794398
1.4665993 0.26222083 1.763772 4860193
1.4839373 0.26222083 1.763772 4925728
1.5012753 0.26222083 1.763772 4794144
1.5876411 0.27413997 1.8439435 4333339
1.6057671 0.27413997 1.8439435 4137500
1.6238931 0.27413997 1.8439435 3875613
1.6420193 0.27413997 1.8439435 4006172
1.6601453 0.27413997 1.8439435 4268316
1.5384154 0.25129497 1.6902815 4070937
1.622641 0.26222083 1.763772 4071195
1.6399789 0.26222083 1.763772 4268315
1.6573169 0.26222083 1.763772 4005916
1.6048776 0.25129497 1.6902815 3743002
1.6214931 0.25129497 1.6902815 3677725
1.6381086 0.25129497 1.6902815 3677982
1.6547242 0.25129497 1.6902815 3480602
1.6713398 0.25129497 1.6902815 3349016
1.6879553 0.25129497 1.6902815 3546138
1.7045708 0.25129497 1.6902815 3479831
1.652339 0.24124318 1.6226703 3479575
1.6682899 0.24124318 1.6226703 3413781
1.6842408 0.24124318 1.6226703 3480088
1.7710329 0.25129497 1.6902815 3677207
1.7876486 0.25129497 1.6902815 4729120
1.8042641 0.25129497 1.6902815 5451556
1.8208796 0.25129497 1.6902815 5320226
1.8374952 0.25129497 1.6902815 4859936
1.8541107 0.25129497 1.6902815 5122852
1.8707262 0.25129497 1.6902815 5451301
1.9694002 0.26222083 1.763772 5781035
1.9867381 0.26222083 1.763772 5780776
2.004076 0.26222083 1.763772 6175020
2.021414 0.26222083 1.763772 6109227
2.0387518 0.26222083 1.763772 6174763
2.0560899 0.26222083 1.763772 5978154
2.1676745 0.27413997 1.8439435 6174762
2.2898865 0.28719425 1.9317503 6108714
2.3088756 0.28719425 1.9317503 5780263
2.4442582 0.30155399 2.028338 5649190
3.080246 0.37694246 2.5354223 5714729
4.1402254 0.50258994 3.380563 5978155
0 0 0 6373424
0 0 0 6832948
0 0 0 7555645
0 0 0 7687487
0 0 0 7621950
0 0 0 7490362
0 0 0 7687226
0 0 0 3414546
0 0 0 1443076
-4.0346217 0.53582102 3.380563 918282
-4.3651533 0.58453202 3.687887 1312524
-4.3289013 0.58453202 3.687887 2494483
-3.9349284 0.53582102 3.380563 2888465
-4.2563972 0.58453202 3.687887 2954259
-4.2201452 0.58453202 3.687887 2888465
-4.6022825 0.64298528 4.0566759 3020052
-4.5624051 0.64298528 4.0566759 3085844
-4.5225282 0.64298528 4.0566759 3086100
-4.4826508 0.64298528 4.0566759 3151895
-4.0388846 0.58453202 3.687887 3020050
-4.0026326 0.58453202 3.687887 3282452
-3.9663804 0.58453202 3.687887 2954259
-3.9301283 0.58453202 3.687887 2954259
-3.5693865 0.53582102 3.380563 3019282
-3.5361555 0.53582102 3.380563 2757394
-3.821372 0.58453202 3.687887 2691344
-4.1636324 0.64298528 4.0566759 2100236
-4.5819497 0.71442807 4.5074177 1180937
-4.5376415 0.71442807 4.5074177 1115145
-4.4933338 0.71442807 4.5074177 1115145
-4.4490256 0.71442807 4.5074177 1115145
-4.4047174 0.71442807 4.5074177 984075
-3.9243684 0.64298528 4.0566759 984075
-3.5313554 0.58453202 3.687887 852489
-3.2038445 0.53582102 3.380563 918282
-3.1706135 0.53582102 3.380563 918025
-3.1373823 0.53582102 3.380563 918281
-3.1041512 0.53582102 3.380563 786697
-3.0709202 0.53582102 3.380563 720904
-3.0376892 0.53582102 3.380563 786696
-3.2775905 0.58453202 3.687887 918282
-3.2413385 0.58453202 3.687887 984075
-3.2050865 0.58453202 3.687887 984075
-3.485718 0.64298528 4.0566759 1115401
-3.4458406 0.64298528 4.0566759 1049609
-3.7844038 0.71442807 4.5074177 1180938
-3.366086 0.64298528 4.0566759 1180938
-3.3262088 0.64298528 4.0566759 1246731
-3.6514795 0.71442807 4.5074177 1246988
-3.6071713 0.71442807 4.5074177 1049352
-3.5628631 0.71442807 4.5074177 1576465
-3.5185549 0.71442807 4.5074177 1838867
-3.474247 0.71442807 4.5074177 1969424
-3.858681 0.80373156 5.0708447 1969681
-3.3856306 0.71442807 4.5074177 2101010
-3.7589877 0.80373156 5.0708447 2364180
-3.709141 0.80373156 5.0708447 2364180
-3.6592944 0.80373156 5.0708447 2232593
-3.6094477 0.80373156 5.0708447 2166802
-3.5596011 0.80373156 5.0708447 2100753
-3.5097547 0.80373156 5.0708447 1641229
-3.459908 0.80373156 5.0708447 720902
-3.4100614 0.80373156 5.0708447 2167825
-3.3602147 0.80373156 5.0708447 2034706
-3.3103681 0.80373156 5.0708447 1773072
-3.2605214 0.80373156 5.0708447 1378059
-3.2106748 0.80373156 5.0708447 983562
-3.1608281 0.80373156 5.0708447 1180938
-3.5554073 0.91855031 5.7952509 1378060
-3.0611348 0.80373156 5.0708447 1705740
-3.4414723 0.91855031 5.7952509 1049351
-2.9614415 0.80373156 5.0708447 1114888
-2.9115949 0.80373156 5.0708447 1640460
-2.8617485 0.80373156 5.0708447 2560276
-2.4994683 0.71442807 4.5074177 3085073
-2.7620552 0.80373156 5.0708447 3611157
-2.7122085 0.80373156 5.0708447 3939353
-3.0426991 0.91855031 5.7952509 4333336
-2.6125152 0.80373156 5.0708447 4727836
-2.5626686 0.80373156 5.0708447 5122332
-2.5128219 0.80373156 5.0708447 5647134
-2.8148289 0.91855031 5.7952509 4529172
-2.7578614 0.91855031 5.7952509 2822674
-2.7008936 0.91855031 5.7952509 4793373
-2.6439261 0.91855031 5.7952509 5055772
-2.5869586 0.91855031 5.7952509 2362117
-2.5299909 0.91855031 5.7952509 984329
-2.1638956 0.80373156 5.0708447 1378059
-2.114049 0.80373156 5.0708447 5388082
-0.5504539 0.21432841 1.3522252 6828835
-0.51983368 0.2074146 1.3086051 5974558
-0.44903064 0.18371007 1.1590502 5055514
-0.39275128 0.16486801 1.0401733 4858652
-0.37296316 0.16074632 1.014169 4529691
-0.36299384 0.16074632 1.014169 4070167
-0.35302451 0.16074632 1.014169 3675414
-0.35185146 0.16486801 1.0401733 3019283
-0.34162652 0.16486801 1.0401733 2691346
-0.33140156 0.16486801 1.0401733 2362383
-0.32117662 0.16486801 1.0401733 2361870
-0.31095168 0.16486801 1.0401733 2034191
-0.30072671 0.16486801 1.0401733 5650740
-0.29814655 0.16920665 1.0675462 8476733
-0.28765252 0.16920665 1.0675462 8542269
-0.28464925 0.1737798 1.0963988 8804926
-0.28147915 0.17860702 1.1268544 9461055
-0.26309395 0.1737798 1.0963988 9527619
-0.23937701 0.16486801 1.0401733 9396291
-0.2179739 0.15682568 0.98943311 4990997
-0.18561211 0.1397794 0.88188601 786950
-0.16278769 0.12859705 0.81133515 655367
-0.15481222 0.12859705 0.81133515 720903
-0.14683676 0.12859705 0.81133515 983304
-0.13613853 0.12607554 0.79542661 1641229
-0.12831944 0.12607554 0.79542661 1312267
-0.11818306 0.12365101 0.78012997 852489
-0.11051435 0.12365101 0.78012997 721157
-0.10284563 0.12365101 0.78012997 786696
-0.093381122 0.12131797 0.76541048 786696
-0.085857108 0.12131797 0.76541048 786696
-0.075484611 0.1169064 0.73757738 720903
-0.06823419 0.1169064 0.73757738 851975
-0.060983773 0.1169064 0.73757738 720904
-0.054728419 0.11907134 0.75123626 852489
-0.047343731 0.11907134 0.75123626 852232
-0.039959047 0.11907134 0.75123626 1180681
-0.032574359 0.11907134 0.75123626 983304
-0.024290042 0.11481879 0.72440636 917512
-0.017169096 0.11481879 0.72440636 918281
-0.0098718647 0.11280444 0.71169752 786696
-0.0029272006 0.11481879 0.72440636 720903
0 0 0 786698
0 0 0 918281
0 0 0 1509647
0 0 0 3087390
0 0 0 7224376
0 0 0 9977906
0 0 0 11354153
0 0 0 12075047
0 0 0 12206117
0 0 0 12140324
0 0 0 12009254
0.15935701 0.22171904 1.3988537 12075560
0.1731078 0.22171904 1.3988537 12272164
0.18685859 0.22171904 1.3988537 12403496
0.17110801 0.1891133 1.1931399 12338217
0.19426392 0.20093289 1.2677112 12206631
0.22811098 0.22171904 1.3988537 12403496
0.25977746 0.23814268 1.5024725 12535084
0.28510633 0.24730203 1.5602599 12404524
0.3124615 0.2571941 1.6226703 12338730
0.39096716 0.30618346 1.9317503 12667436
0.45310968 0.3384133 2.1350925 12666409
0.47409773 0.3384133 2.1350925 12666920
0.55333114 0.37822661 2.3862798 12208168
0.57678843 0.37822661 2.3862798 12208168
0.60024565 0.37822661 2.3862798 12338732
0.62370288 0.37822661 2.3862798 12338989
0.64716011 0.37822661 2.3862798 12535853
0.67061734 0.37822661 2.3862798 12208942
0.69407457 0.37822661 2.3862798 12208685
0.48792166 0.2571941 1.6226703 12273964
0.50387257 0.2571941 1.6226703 12208173
0.51982349 0.2571941 1.6226703 12208429
0.53577441 0.2571941 1.6226703 12011564
0.55172533 0.2571941 1.6226703 12077359
0.56767625 0.2571941 1.6226703 11749164
0.58362716 0.2571941 1.6226703 12011305
0.62456053 0.26791051 1.6902815 12272937
0.66905326 0.27955881 1.763772 12076588
0.71759081 0.29226601 1.8439435 11879979
0.770751 0.30618346 1.9317503 11682603
0.82922727 0.32149264 2.028338 11880234
0.65320456 0.24730203 1.5602599 11618094
0.66854197 0.24730203 1.5602599 10961451
0.71123457 0.2571941 1.6226703 10830635
0.72718549 0.2571941 1.6226703 10896429
0.71455425 0.24730203 1.5602599 11092780
0.67775649 0.22963758 1.4488127 11092521
0.69199842 0.22963758 1.4488127 10829349
0.7062403 0.22963758 1.4488127 10697507
0.74716675 0.23814268 1.5024725 10895658
0.76193613 0.23814268 1.5024725 10896171
0.83884192 0.2571941 1.6226703 11092011
0.89040917 0.26791051 1.6902815 11091753
0.90702474 0.26791051 1.6902815 10895656
0.92364031 0.26791051 1.6902815 10829863
1.0257336 0.29226601 1.8439435 10764071
1.0935673 0.30618346 1.9317503 10042919
1.1125565 0.30618346 1.9317503 10173991
1.1315457 0.30618346 1.9317503 10436134
1.006718 0.26791051 1.6902815 10370343
0.98240024 0.2571941 1.6226703 10436135
0.99835116 0.2571941 1.6226703 10304548
1.1025022 0.27955881 1.763772 10238758
1.170742 0.29226601 1.8439435 10041894
1.188868 0.29226601 1.8439435 10173480
1.26447 0.30618346 1.9317503 9976360
1.2251202 0.29226601 1.8439435 9844774
1.3024484 0.30618346 1.9317503 9714731
1.2613722 0.29226601 1.8439435 9124907
1.3404268 0.30618346 1.9317503 8469549
1.359416 0.30618346 1.9317503 7813677
1.3784052 0.30618346 1.9317503 7093038
1.3973943 0.30618346 1.9317503 6240811
1.4163835 0.30618346 1.9317503 5977639
1.4353727 0.30618346 1.9317503 5648422
1.4543619 0.30618346 1.9317503 5516836
1.4063807 0.29226601 1.8439435 4991006
1.3625716 0.27955881 1.763772 5056798
1.3799095 0.27955881 1.763772 6305576
1.3972476 0.27955881 1.763772 6173475
1.4145855 0.27955881 1.763772 6107171
1.4319234 0.27955881 1.763772 5910821
1.4492614 0.27955881 1.763772 6108714
1.4665993 0.27955881 1.763772 6436907
1.4839373 0.27955881 1.763772 6173992
1.5012753 0.27955881 1.763772 6305835
1.4553376 0.26791051 1.6902815 6371116
1.5359511 0.27955881 1.763772 5977128
1.6238931 0.29226601 1.8439435 5911592
1.6420193 0.29226601 1.8439435 5385765
1.6601453 0.29226601 1.8439435 5057057
1.6782713 0.29226601 1.8439435 4662558
1.6963974 0.29226601 1.8439435 4334364
1.6399789 0.27955881 1.763772 4137754
1.588262 0.26791051 1.6902815 4071707
1.5406824 0.2571941 1.6226703 4071707
1.5566334 0.2571941 1.6226703 4005914
1.5725844 0.2571941 1.6226703 4399902
1.5885353 0.2571941 1.6226703 4137500
1.6713398 0.26791051 1.6902815 4268571
1.6879553 0.26791051 1.6902815 4531488
1.7045708 0.26791051 1.6902815 4399904
1.652339 0.2571941 1.6226703 4400417
1.6682899 0.2571941 1.6226703 4335394
1.6842408 0.2571941 1.6226703 4335137
1.7001917 0.2571941 1.6226703 4532256
1.7161427 0.2571941 1.6226703 5255460
1.8042641 0.26791051 1.6902815 5911846
1.7480445 0.2571941 1.6226703 5977127
1.7639954 0.2571941 1.6226703 5516836
1.7799463 0.2571941 1.6226703 5780265
1.8707262 0.26791051 1.6902815 5912106
1.8873417 0.26791051 1.6902815 5846570
1.9867381 0.27955881 1.763772 6108455
2.004076 0.27955881 1.763772 5977639
2.021414 0.27955881 1.763772 5977126
2.0387518 0.27955881 1.763772 6305321
2.0560899 0.27955881 1.763772 5977128
2.0734279 0.27955881 1.763772 6042406
2.1858006 0.29226601 1.8439435 5780007
2.3088756 0.30618346 1.9317503 5648936
2.4442582 0.32149264 2.028338 5648936
3.080246 0.40186578 2.5354223 5780265
0 0 0 5648936
0 0 0 5714984
0 0 0 6307373
0 0 0 6570544
0 0 0 6833203
0 0 0 7358263
0 0 0 7227447
0 0 0 7227706
0 0 0 3546132
0 0 0 1508611
-4.0346217 0.5690521 3.380563 1181708
-4.3651533 0.6207841 3.687887 1246731
-3.9681594 0.5690521 3.380563 2232083
-4.2926493 0.6207841 3.687887 2692114
-4.2563972 0.6207841 3.687887 2888723
-4.2201452 0.6207841 3.687887 2757139
-4.1838932 0.6207841 3.687887 2888723
-4.1476407 0.6207841 3.687887 2822930
-4.1113887 0.6207841 3.687887 2757394
-4.0751367 0.6207841 3.687887 2823187
-4.0388846 0.6207841 3.687887 2888465
-4.0026326 0.6207841 3.687887 2888209
-3.9663804 0.6207841 3.687887 2559758
-3.9301283 0.6207841 3.687887 2494737
-3.5693865 0.5690521 3.380563 2560530
-3.5361555 0.5690521 3.380563 2560530
-3.5029244 0.5690521 3.380563 2559760
-4.1636324 0.68286258 4.0566759 2297358
-4.123755 0.68286258 4.0566759 1312266
-4.5376415 0.75873619 4.5074177 1181195
-4.4933338 0.75873619 4.5074177 1115145
-4.4490256 0.75873619 4.5074177 1050122
-4.4047174 0.75873619 4.5074177 984075
-4.3604093 0.75873619 4.5074177 983305
-3.884491 0.68286258 4.0566759 983305
-3.2038445 0.5690521 3.380563 852746
-3.1706135 0.5690521 3.380563 721675
-3.1373823 0.5690521 3.380563 655882
-3.1041512 0.5690521 3.380563 524296
-3.0709202 0.5690521 3.380563 590089
-3.0376892 0.5690521 3.380563 590087
-3.004458 0.5690521 3.380563 721160
-3.2413385 0.6207841 3.687887 918282
-3.5255952 0.68286258 4.0566759 984075
-3.485718 0.68286258 4.0566759 1049098
-3.8287117 0.75873619 4.5074177 983818
-3.7844038 0.75873619 4.5074177 1246730
-3.366086 0.68286258 4.0566759 1509902
-3.3262088 0.68286258 4.0566759 1838610
-3.6514795 0.75873619 4.5074177 1706767
-3.6071713 0.75873619 4.5074177 1575439
-3.5628631 0.75873619 4.5074177 1312781
-3.5185549 0.75873619 4.5074177 2101012
-3.474247 0.75873619 4.5074177 2035219
-3.858681 0.85357821 5.0708447 2101010
-3.8088343 0.85357821 5.0708447 1838608
-3.7589877 0.85357821 5.0708447 2364180
-3.709141 0.85357821 5.0708447 2429460
-3.6592944 0.85357821 5.0708447 2166801
-4.125083 0.97551793 5.7952509 2101010
-4.0681157 0.97551793 5.7952509 1838609
-4.011148 0.97551793 5.7952509 1838610
-3.9541805 0.97551793 5.7952509 1707281
-3.8972127 0.97551793 5.7952509 2759708
-3.8402452 0.97551793 5.7952509 1639943
-3.3103681 0.85357821 5.0708447 1246731
-3.72631 0.97551793 5.7952509 1049352
-3.2106748 0.85357821 5.0708447 918025
-3.1608281 0.85357821 5.0708447 918536
-3.5554073 0.97551793 5.7952509 1115145
-3.0611348 0.85357821 5.0708447 1837839
-3.4414723 0.97551793 5.7952509 1049352
-2.9614415 0.85357821 5.0708447 1246731
-2.9115949 0.85357821 5.0708447 1705740
-2.8617485 0.85357821 5.0708447 2362897
-2.8119018 0.85357821 5.0708447 3020052
-2.7620552 0.85357821 5.0708447 3348759
-2.7122085 0.85357821 5.0708447 3743257
-2.6623619 0.85357821 5.0708447 4070937
-2.6125152 0.85357821 5.0708447 4596508
-2.5626686 0.85357821 5.0708447 5056285
-2.5128219 0.85357821 5.0708447 5318943
-2.8148289 0.97551793 5.7952509 3872013
-2.4131286 0.85357821 5.0708447 2494224
-2.7008936 0.97551793 5.7952509 4465435
-2.6439261 0.97551793 5.7952509 4924955
-2.2635887 0.85357821 5.0708447 1443591
-2.2137423 0.85357821 5.0708447 5850945
-1.9234627 0.75873619 4.5074177 7685680
-0.56374633 0.22762084 1.3522252 7748136
-0.51605058 0.21339455 1.2677112 5974811
-0.46042415 0.19510359 1.1590502 5120279
-0.43655759 0.18968405 1.1268544 4134935
-0.39275128 0.17509297 1.0401733 3806998
-0.37296316 0.17071564 1.014169 3610134
-0.36299384 0.17071564 1.014169 3281941
-0.35302451 0.17071564 1.014169 2953491
-0.35185146 0.17509297 1.0401733 2559505
-0.34162652 0.17509297 1.0401733 2428176
-0.33140156 0.17509297 1.0401733 2296591
-0.32117662 0.17509297 1.0401733 2165776
-0.30317789 0.17071564 1.014169 5782329
-0.30072671 0.17509297 1.0401733 8804927
-0.29814655 0.17970067 1.0675462 9067584
-0.29542691 0.18455744 1.0963988 9263935
-0.2925562 0.18968405 1.1268544 9527620
-0.28952143 0.19510359 1.1590502 9658947
-0.27812791 0.19510359 1.1590502 9790274
-0.2523163 0.18455744 1.0963988 10052417
-0.2179739 0.16655184 0.98943311 6569255
-0.20328945 0.16258632 0.96587515 786950
-0.16610989 0.13935971 0.82789302 655366
-0.15481222 0.13657251 0.81133515 786695
-0.14683676 0.13657251 0.81133515 720903
-0.1388613 0.13657251 0.81133515 590087
-0.12831944 0.13389462 0.79542661 1180937
-0.12050037 0.13389462 0.79542661 1706252
-0.11268129 0.13389462 0.79542661 1443081
-0.10284563 0.13131973 0.78012997 1246731
-0.09517692 0.13131973 0.78012997 1115145
-0.087508209 0.13131973 0.78012997 1114890
-0.078333087 0.12884198 0.76541048 1049097
-0.069497794 0.12645604 0.75123626 983560
-0.062113106 0.12645604 0.75123626 983305
-0.055761028 0.12884198 0.76541048 1180681
-0.048237007 0.12884198 0.76541048 1246473
-0.04071299 0.12884198 0.76541048 983304
-0.033188969 0.12884198 0.76541048 917768
0 0 0 917769
0 0 0 983561
0 0 0 1837582
0 0 0 4203559
0 0 0 7289393
0 0 0 10042412
0 0 0 11484711
0 0 0 11484711
0 0 0 12009512
0 0 0 11812901
0 0 0 12205861
0 0 0 12469030
0 0 0 12009252
0 0 0 12075045
0 0 0 11943459
0.14441729 0.21339455 1.2677112 12009000
0.1731078 0.23546983 1.3988537 11878951
0.20069999 0.25291207 1.5024725 12207144
0.20060939 0.23546983 1.3988537 12207144
0.19426392 0.21339455 1.2677112 12535336
0.22811098 0.23546983 1.3988537 12338217
0.2504997 0.24387948 1.4488127 12403496
0.28510633 0.26263946 1.5602599 12141351
0.35506988 0.31039205 1.8439435 12535082
0.41051555 0.34143129 2.028338 12535082
0.43045419 0.34143129 2.028338 12207916
0.45039287 0.34143129 2.028338 12338730
0.47033152 0.34143129 2.028338 12601129
0.51607382 0.35940135 2.1350925 12535850
0.5668987 0.3793681 2.2537088 12470055
0.62370288 0.40168384 2.3862798 12535850
0.64716011 0.40168384 2.3862798 12470057
0.67061734 0.40168384 2.3862798 12404521
0.69407457 0.40168384 2.3862798 12535593
0.67766899 0.3793681 2.2537088 12338986
0.50387257 0.27314502 1.6226703 12208171
0.51982349 0.27314502 1.6226703 12076330
0.53577441 0.27314502 1.6226703 12011563
0.55172533 0.27314502 1.6226703 12207146
0.5913294 0.28452605 1.6902815 12207914
0.60794497 0.28452605 1.6902815 12272424
0.68133873 0.31039205 1.8439435 12011053
0.6994648 0.31039205 1.8439435 11814444
0.75176179 0.32517263 1.9317503 12011309
0.770751 0.32517263 1.9317503 11945773
0.63786709 0.26263946 1.5602599 11813676
0.65320456 0.26263946 1.5602599 11618096
0.66854197 0.26263946 1.5602599 11223850
0.74086928 0.28452605 1.6902815 10960678
0.82634711 0.31039205 1.8439435 10765096
0.77410042 0.28452605 1.6902815 10698793
0.67775649 0.24387948 1.4488127 11026728
0.69199842 0.24387948 1.4488127 11157543
0.73239738 0.25291207 1.5024725 11157543
0.74716675 0.25291207 1.5024725 11092009
0.76193613 0.25291207 1.5024725 11289131
0.80657881 0.26263946 1.5602599 11222824
0.85479283 0.27314502 1.6226703 11092264
0.90702474 0.28452605 1.6902815 10894886
0.88669467 0.27314502 1.6226703 10894886
0.90264559 0.27314502 1.6226703 10435878
0.88326591 0.26263946 1.5602599 10501671
1.0158124 0.29689676 1.763772 10501157
1.0331504 0.29689676 1.763772 10632484
1.006718 0.28452605 1.6902815 10763300
0.98240024 0.27314502 1.6226703 10698023
1.0399491 0.28452605 1.6902815 10697253
1.1025022 0.29689676 1.763772 10632230
1.2264916 0.32517263 1.9317503 10566950
1.2454808 0.32517263 1.9317503 10436136
1.26447 0.32517263 1.9317503 9976614
1.1230268 0.28452605 1.6902815 9976357
1.1396424 0.28452605 1.6902815 10239015
1.20653 0.29689676 1.763772 10107428
1.3404268 0.32517263 1.9317503 10041894
1.2976243 0.31039205 1.8439435 9779753
1.3784052 0.32517263 1.9317503 9910567
1.3973943 0.32517263 1.9317503 9713958
1.4163835 0.32517263 1.9317503 9845544
1.4353727 0.32517263 1.9317503 9976613
1.4543619 0.32517263 1.9317503 9714215
1.4063807 0.31039205 1.8439435 9517605
1.3625716 0.29689676 1.763772 9386535
1.3799095 0.29689676 1.763772 9584685
1.3972476 0.29689676 1.763772 9256750
1.4145855 0.29689676 1.763772 8862764
1.4319234 0.29689676 1.763772 8797742
1.4492614 0.29689676 1.763772 8732205
1.533263 0.31039205 1.8439435 8929327
1.551389 0.31039205 1.8439435 9190957
1.5012753 0.29689676 1.763772 8731948
1.4553376 0.28452605 1.6902815 8142124
1.4719532 0.28452605 1.6902815 7552302
1.6238931 0.31039205 1.8439435 7093037
1.6420193 0.31039205 1.8439435 6830635
1.6601453 0.31039205 1.8439435 7027758
1.6782713 0.31039205 1.8439435 6830634
1.6963974 0.31039205 1.8439435 6634029
1.9852377 0.35940135 2.1350925 7029298
1.6573169 0.29689676 1.763772 6634288
1.4814255 0.26263946 1.5602599 6174765
1.5566334 0.27314502 1.6226703 5451814
1.5725844 0.27314502 1.6226703 4925987
1.5885353 0.27314502 1.6226703 4334879
1.6044862 0.27314502 1.6226703 4137756
1.6204371 0.27314502 1.6226703 4137500
1.6363881 0.27314502 1.6226703 4202523
1.652339 0.27314502 1.6226703 4136730
1.6682899 0.27314502 1.6226703 4005916
1.6842408 0.27314502 1.6226703 4071709
1.7001917 0.27314502 1.6226703 4400414
1.7161427 0.27314502 1.6226703 5254434
1.7320936 0.27314502 1.6226703 5452325
1.7480445 0.27314502 1.6226703 5648933
1.7639954 0.27314502 1.6226703 5649190
1.7799463 0.27314502 1.6226703 5780262
1.8707262 0.28452605 1.6902815 5911846
1.9694002 0.29689676 1.763772 5977893
1.9867381 0.29689676 1.763772 6109479
2.004076 0.29689676 1.763772 6043948
2.021414 0.29689676 1.763772 6240811
2.0387518 0.29689676 1.763772 6240813
2.0560899 0.29689676 1.763772 6240300
2.0734279 0.29689676 1.763772 6240556
2.1858006 0.31039205 1.8439435 6109227
2.2039268 0.31039205 1.8439435 6175020
2.4442582 0.34143129 2.028338 5977641
2.899055 0.40168384 2.3862798 5911594
0 0 0 5911848
0 0 0 5977641
0 0 0 5977641
0 0 0 6043434
0 0 0 6241070
0 0 0 6504756
0 0 0 6701877
0 0 0 6898742
0 0 0 3744025
0 0 0 1377797
-4.0346217 0.60228318 3.380563 918537
-4.0013905 0.60228318 3.380563 984075
-3.9681594 0.60228318 3.380563 1904402
-4.2926493 0.65703624 3.687887 2560530
-4.2563972 0.65703624 3.687887 2691603
-4.2201452 0.65703624 3.687887 2822673
-4.1838932 0.65703624 3.687887 2626323
-4.1476407 0.65703624 3.687887 2495251
-4.1113887 0.65703624 3.687887 2429202
-4.0751367 0.65703624 3.687887 2692118
-4.0388846 0.65703624 3.687887 2495507
-4.0026326 0.65703624 3.687887 2363921
-3.9663804 0.65703624 3.687887 2166801
-3.9301283 0.65703624 3.687887 2428690
-3.8938763 0.65703624 3.687887 2494225
-3.8576241 0.65703624 3.687887 2363410
-4.2035093 0.72273988 4.0566759 2494224
-4.1636324 0.72273988 4.0566759 2232335
-4.5819497 0.80304432 4.5074177 1837323
-4.5376415 0.80304432 4.5074177 1115144
-4.4933338 0.80304432 4.5074177 1115145
-4.4490256 0.80304432 4.5074177 1115915
-4.4047174 0.80304432 4.5074177 852489
-4.3604093 0.80304432 4.5074177 918282
-4.3161011 0.80304432 4.5074177 983561
-3.8446138 0.72273988 4.0566759 917769
-3.1706135 0.60228318 3.380563 852489
-3.1373823 0.60228318 3.380563 786696
-3.1041512 0.60228318 3.380563 655366
-3.0709202 0.60228318 3.380563 852489
-3.0376892 0.60228318 3.380563 786696
-3.2775905 0.65703624 3.687887 852489
-3.2413385 0.65703624 3.687887 655880
-3.5255952 0.72273988 4.0566759 1050124
-3.485718 0.72273988 4.0566759 1443852
-3.8287117 0.80304432 4.5074177 1707022
-3.7844038 0.80304432 4.5074177 1904399
-3.366086 0.72273988 4.0566759 1838608
-3.3262088 0.72273988 4.0566759 1772817
-3.6514795 0.80304432 4.5074177 1772815
-3.6071713 0.80304432 4.5074177 1772815
-3.5628631 0.80304432 4.5074177 1313294
-3.5185549 0.80304432 4.5074177 1903633
-3.474247 0.80304432 4.5074177 1641229
-3.858681 0.9034248 5.0708447 1641229
-3.8088343 0.9034248 5.0708447 1641484
-3.7589877 0.9034248 5.0708447 1903631
-3.709141 0.9034248 5.0708447 1772817
-3.6592944 0.9034248 5.0708447 1707024
-3.6094477 0.9034248 5.0708447 1509902
-4.0681157 1.0324855 5.7952509 1509902
-4.011148 1.0324855 5.7952509 1509903
-3.9541805 1.0324855 5.7952509 1903633
-3.8972127 1.0324855 5.7952509 2035988
-3.8402452 1.0324855 5.7952509 1312009
-3.3103681 0.9034248 5.0708447 1312523
-3.2605214 0.9034248 5.0708447 918535
-3.2106748 0.9034248 5.0708447 1050122
-3.1608281 0.9034248 5.0708447 1378063
-3.1109815 0.9034248 5.0708447 1772048
-3.0611348 0.9034248 5.0708447 1772817
-3.4414723 1.0324855 5.7952509 1049352
-2.9614415 0.9034248 5.0708447 1049352
-2.9115949 0.9034248 5.0708447 1640716
-2.8617485 0.9034248 5.0708447 2231826
-2.8119018 0.9034248 5.0708447 2561045
-2.7620552 0.9034248 5.0708447 3282710
-2.7122085 0.9034248 5.0708447 3414810
-2.6623619 0.9034248 5.0708447 4070937
-2.6125152 0.9034248 5.0708447 4595994
-2.9287641 1.0324855 5.7952509 5056026
-2.8717964 1.0324855 5.7952509 4136470
-2.8148289 1.0324855 5.7952509 3281421
-2.4131286 0.9034248 5.0708447 2428690
-2.7008936 1.0324855 5.7952509 3808020
-2.3134353 0.9034248 5.0708447 4793629
-2.2635887 0.9034248 5.0708447 2167828
-1.9677709 0.80304432 4.5074177 7292469
-0.57703876 0.24091327 1.3522252 7879719
-0.56374633 0.24091327 1.3522252 6959649
-0.50041264 0.21901207 1.2292956 5383449
-0.44763461 0.20076108 1.1268544 4135701
-0.4247587 0.19533509 1.0963988 3215890
-0.39275128 0.18531792 1.0401733 2952977
-0.37296316 0.18068497 1.014169 2690065
-0.36299384 0.18068497 1.014169 2559506
-0.35302451 0.18068497 1.014169 2493456
-0.34305519 0.18068497 1.014169 2165772
-0.34162652 0.18531792 1.0401733 2230798
-0.33140156 0.18531792 1.0401733 2296849
-0.31314722 0.18068497 1.014169 7031111
-0.30317789 0.18068497 1.014169 8937536
-0.30864057 0.1901947 1.0675462 9396291
-0.30620456 0.19533509 1.0963988 9462084
-0.29542691 0.19533509 1.0963988 9593924
-0.2925562 0.20076108 1.1268544 9658689
-0.28952143 0.2064971 1.1590502 9855297
-0.27812791 0.2064971 1.1590502 9987140
-0.25932512 0.20076108 1.1268544 10052930
-0.2179739 0.17627801 0.98943311 8869952
-0.18561211 0.15711735 0.88188601 786950
-0.16278769 0.14454797 0.81133515 786695
-0.15481222 0.14454797 0.81133515 590087
-0.14683676 0.14454797 0.81133515 655367
-0.1388613 0.14454797 0.81133515 589831
-0.13088584 0.14454797 0.81133515 589830
-0.12291038 0.14454797 0.81133515 852488
-0.11493492 0.14454797 0.81133515 2626839
-0.10695945 0.14454797 0.81133515 2099983
-0.10100408 0.14749794 0.82789302 1903120
0 0 0 1640462
0 0 0 1378060
0 0 0 1574667
0 0 0 1377546
0 0 0 1049095
0 0 0 1115405
0 0 0 1706512
0 0 0 4138022
0 0 0 7879475
0 0 0 10239277
0 0 0 11681832
0 0 0 11746854
0 0 0 11616038
0 0 0 11812134
0 0 0 11812134
0 0 0 11746341
0 0 0 11484452
0 0 0 11746594
0 0 0 11812388
0 0 0 11878181
0 0 0 12009767
0 0 0 12140840
0 0 0 12206117
0.15935701 0.24922064 1.3988537 12468006
0.17929022 0.25812137 1.4488127 12206117
0.20069999 0.26768142 1.5024725 12271910
0.21546936 0.26768142 1.5024725 12207146
0.2220159 0.25812137 1.4488127 12534569
0.22811098 0.24922064 1.3988537 12338471
0.26976892 0.27797687 1.5602599 12535336
0.29651058 0.28909594 1.6226703 12600616
0.37197798 0.34416184 1.9317503 12469543
0.41051555 0.36136994 2.028338 12404010
0.43045419 0.36136994 2.028338 12600616
0.45039287 0.36136994 2.028338 12535082
0.47033152 0.36136994 2.028338 12600616
0.49027017 0.36136994 2.028338 12798508
0.5668987 0.40152216 2.2537088 12404007
0.62370288 0.4251411 2.3862798 12338216
0.64716011 0.4251411 2.3862798 12535336
0.67061734 0.4251411 2.3862798 12272424
0.65551496 0.40152216 2.2537088 12207401
0.60990208 0.36136994 2.028338 12469545
0.57258248 0.32851812 1.8439435 12338473
0.59070849 0.32851812 1.8439435 12338730
0.53577441 0.28909594 1.6226703 12272937
0.55172533 0.28909594 1.6226703 12207144
0.5913294 0.30114159 1.6902815 12141351
0.66321272 0.32851812 1.8439435 12207146
0.71378344 0.34416184 1.9317503 12142123
0.73277265 0.34416184 1.9317503 12141612
0.63147992 0.28909594 1.6226703 12142123
0.62252969 0.27797687 1.5602599 11748135
0.63786709 0.27797687 1.5602599 11879467
0.65320456 0.27797687 1.5602599 11485992
0.72425377 0.30114159 1.6902815 11420456
0.80822104 0.32851812 1.8439435 11223335
0.75748485 0.30114159 1.6902815 11616809
0.71455425 0.27797687 1.5602599 11485481
0.70285863 0.26768142 1.5024725 11354665
0.717628 0.26768142 1.5024725 11485994
0.76056653 0.27797687 1.5602599 11223084
0.77590394 0.27797687 1.5602599 11420203
0.79124135 0.27797687 1.5602599 11091750
0.80657881 0.27797687 1.5602599 10895656
0.85479283 0.28909594 1.6226703 10698792
0.90702474 0.30114159 1.6902815 10304550
0.92364031 0.30114159 1.6902815 10042405
0.8679285 0.27797687 1.5602599 10304548
0.88326591 0.27797687 1.5602599 10501160
0.93454748 0.28909594 1.6226703 10500646
0.9504984 0.28909594 1.6226703 10698023
1.006718 0.30114159 1.6902815 10501157
1.0233335 0.30114159 1.6902815 10566952
1.0399491 0.30114159 1.6902815 10173991
1.0565646 0.30114159 1.6902815 10436136
1.0731802 0.30114159 1.6902815 10633002
1.188868 0.32851812 1.8439435 10435109
1.2069941 0.32851812 1.8439435 10304292
1.171854 0.3142347 1.763772 10370086
1.1396424 0.30114159 1.6902815 10304550
1.2613722 0.32851812 1.8439435 10369573
1.2794983 0.32851812 1.8439435 10238757
1.2976243 0.32851812 1.8439435 10041378
1.3157504 0.32851812 1.8439435 10303780
1.3973943 0.34416184 1.9317503 10435366
1.4163835 0.34416184 1.9317503 10107428
1.4353727 0.34416184 1.9317503 10041380
1.4543619 0.34416184 1.9317503 9845286
1.4733511 0.34416184 1.9317503 9845543
1.4245067 0.32851812 1.8439435 9910049
