# .PCD v0.7 - Point Cloud Data file format
VERSION 0.7
FIELDS x y z rgb
SIZE 4 4 4 4
TYPE F F F U
COUNT 1 1 1 1
WIDTH 1284
HEIGHT 1
VIEWPOINT 0 0 0 1 0 0 0
POINTS 1284
DATA ascii
-4.3604093 0.22703879 4.5074177 2101524
-3.884491 0.2043349 4.0566759 2363923
-3.8446138 0.2043349 4.0566759 1312009
-3.8047364 0.2043349 4.0566759 853001
-3.7648592 0.2043349 4.0566759 918282
-3.7249818 0.2043349 4.0566759 918282
-3.6851046 0.2043349 4.0566759 786953
-3.6452272 0.2043349 4.0566759 655881
-4.0059443 0.22703879 4.5074177 721675
-3.9616363 0.22703879 4.5074177 984591
-3.9173281 0.22703879 4.5074177 984588
-3.8730199 0.22703879 4.5074177 918538
-4.3073006 0.25541863 5.0708447 918793
-4.8656616 0.29190698 5.7952509 984075
-4.8086939 0.29190698 5.7952509 787209
-4.7517266 0.29190698 5.7952509 853001
-4.107914 0.25541863 5.0708447 590345
-3.6071713 0.22703879 4.5074177 918025
-3.5628631 0.22703879 4.5074177 2300190
-3.9583743 0.25541863 5.0708447 3547935
-3.9085276 0.25541863 5.0708447 4467233
-3.858681 0.25541863 5.0708447 5517863
-3.8088343 0.25541863 5.0708447 6175532
-3.7589877 0.25541863 5.0708447 6307373
-3.709141 0.25541863 5.0708447 6568745
-3.6592944 0.25541863 5.0708447 4134154
-3.6094477 0.25541863 5.0708447 4131600
-3.5596011 0.25541863 5.0708447 3672077
-3.5097547 0.25541863 5.0708447 1180938
-3.0754738 0.22703879 4.5074177 918282
-2.7280493 0.2043349 4.0566759 918536
-2.9868577 0.22703879 4.5074177 1312781
-2.9425495 0.22703879 4.5074177 1312267
-2.8982413 0.22703879 4.5074177 1246731
-2.8539333 0.22703879 4.5074177 1706252
-2.8096251 0.22703879 4.5074177 1574924
-2.765317 0.22703879 4.5074177 1049868
-2.721009 0.22703879 4.5074177 6967110
-2.6767008 0.22703879 4.5074177 9527874
-3.3845046 0.29190698 5.7952509 10643785
-3.3275371 0.29190698 5.7952509 10577991
-3.2705696 0.29190698 5.7952509 10512710
-3.2136018 0.29190698 5.7952509 10513481
-3.1566343 0.29190698 5.7952509 10447173
-3.0996668 0.29190698 5.7952509 10053443
-2.6623619 0.25541863 5.0708447 10512197
-2.6125152 0.25541863 5.0708447 10512713
-2.5626686 0.25541863 5.0708447 10513223
-2.8717964 0.29190698 5.7952509 7948334
-2.8148289 0.29190698 5.7952509 8673341
-2.7578614 0.29190698 5.7952509 8935740
-2.7008936 0.29190698 5.7952509 8804410
-2.3134353 0.25541863 5.0708447 8476219
-2.2635887 0.25541863 5.0708447 6897704
-2.2137423 0.25541863 5.0708447 7753014
-0.86555827 0.10216745 2.028338 9198398
-0.84561962 0.10216745 2.028338 9330496
-0.91742325 0.11351939 2.2537088 9067069
-0.94793206 0.120197 2.3862798 5056014
-1.0477381 0.13622326 2.7044504 984074
-1.7019222 0.22703879 4.5074177 1049354
0 0 0 721417
0 0 0 787211
0 0 0 852489
0 0 0 852490
-0.23791845 0.036488373 0.72440636 655880
-0.2307975 0.036488373 0.72440636 589832
-0.21975242 0.03584823 0.71169752 590602
-0.21275641 0.03584823 0.71169752 852489
-0.20576039 0.03584823 0.71169752 852489
-0.19876437 0.03584823 0.71169752 721416
-0.19176835 0.03584823 0.71169752 721160
-0.18158659 0.035230152 0.69942683 721675
-0.1747112 0.035230152 0.69942683 852491
-0.16783579 0.035230152 0.69942683 721673
-0.16378428 0.03584823 0.71169752 721675
-0.15678826 0.03584823 0.71169752 721673
-0.14979224 0.03584823 0.71169752 655880
-0.14279622 0.03584823 0.71169752 786698
-0.1382252 0.036488373 0.72440636 655882
-0.13348795 0.037151799 0.73757738 786696
-0.12180816 0.03584823 0.71169752 721673
-0.11686236 0.036488373 0.72440636 590089
-0.10781612 0.03584823 0.71169752 655882
-0.10262046 0.036488373 0.72440636 852491
-0.095499516 0.036488373 0.72440636 852489
-0.089985445 0.037151799 0.73757738 786698
-0.077125877 0.034633033 0.68757218 720905
-0.070367016 0.034633033 0.68757218 655882
-0.063608147 0.034633033 0.68757218 1049098
-0.05782944 0.035230152 0.69942683 1510673
-0.050954044 0.035230152 0.69942683 1050125
-0.044078644 0.035230152 0.69942683 655625
-0.036572687 0.034633033 0.68757218 589830
-0.030859921 0.03584823 0.71169752 655368
-0.023452453 0.035230152 0.69942683 655624
-0.016867884 0.03584823 0.71169752 786698
-0.0097016599 0.035230152 0.69942683 852489
-0.0029272006 0.036488373 0.72440636 655882
0.0041937465 0.036488373 0.72440636 918282
0.012185055 0.039295174 0.78012997 852489
0.021508247 0.042569768 0.84514076 1049098
0.02920753 0.041701 0.82789302 1049352
0.03812379 0.042569768 0.84514076 1180938
0.043700293 0.040065665 0.79542661 1443853
0.051519375 0.040065665 0.79542661 1312524
0.060525224 0.040866978 0.81133515 1378060
0.074457265 0.04442063 0.88188601 1312272
0.084973492 0.045407753 0.90148348 1246731
0.095967732 0.046439748 0.92197174 1115145
0 0 0 1049352
0 0 0 918282
0 0 0 852489
0 0 0 655882
0.15162063 0.049837779 0.98943311 720903
0.1575052 0.048651166 0.96587515 655624
0.15586647 0.045407753 0.90148348 721418
0.16114706 0.04442063 0.88188601 721160
0.16274036 0.042569768 0.84514076 786440
0.17848501 0.04442063 0.88188601 786440
0.19566099 0.046439748 0.92197174 786696
0.20948504 0.047519743 0.94341296 655625
0.22396737 0.048651166 0.96587515 786697
0 0 0 852489
0.24888234 0.049837779 0.98943311 1181195
0.25860852 0.049837779 0.98943311 11499855
0.27504307 0.051083725 1.014169 11827027
0.30812147 0.055225648 1.0963988 7945773
0 0 0 984330
0 0 0 984072
0 0 0 984330
0 0 0 1181196
0 0 0 1575439
0.49261189 0.072976746 1.4488127 1510160
0.48937607 0.070460305 1.3988537 1575439
0.56118 0.078590348 1.5602599 1378574
0.59957808 0.081733957 1.6226703 1378575
0.6994648 0.092879497 1.8439435 1246731
0.71759081 0.092879497 1.8439435 1049609
0.770751 0.097302333 1.9317503 1312267
0.7897402 0.097302333 1.9317503 1049609
0.89385885 0.10754468 2.1350925 1115915
0.96567178 0.11351939 2.2537088 984075
0.98782581 0.11351939 2.2537088 1115914
1.0693904 0.120197 2.3862798 1246988
1.0928476 0.120197 2.3862798 1115915
1.1163049 0.120197 2.3862798 1181708
1.1397622 0.120197 2.3862798 1246731
0.94165373 0.097302333 1.9317503 1181451
0.96064293 0.097302333 1.9317503 1049098
0.97963214 0.097302333 1.9317503 590602
0.99862134 0.097302333 1.9317503 656394
1.1872123 0.11351939 2.2537088 721675
1.1457155 0.10754468 2.1350925 786698
1.1667036 0.10754468 2.1350925 852491
1.074578 0.097302333 1.9317503 852491
1.0935673 0.097302333 1.9317503 918282
1.1125565 0.097302333 1.9317503 721673
1.2506558 0.10754468 2.1350925 852489
1.2716439 0.10754468 2.1350925 1247501
1.2926319 0.10754468 2.1350925 1115915
1.31362 0.10754468 2.1350925 1181195
1.2678777 0.10216745 2.028338 853259
1.2878163 0.10216745 2.028338 787467
1.2454808 0.097302333 1.9317503 852489
1.26447 0.097302333 1.9317503 1115145
1.2834592 0.097302333 1.9317503 1312264
1.3024484 0.097302333 1.9317503 1509645
1.3875096 0.10216745 2.028338 918793
1.4074482 0.10216745 2.028338 656136
1.4273869 0.10216745 2.028338 524553
1.4473255 0.10216745 2.028338 721417
1.6302935 0.11351939 2.2537088 655624
1.4872029 0.10216745 2.028338 590087
1.5071415 0.10216745 2.028338 655624
1.5270802 0.10216745 2.028338 721416
1.5470188 0.10216745 2.028338 786696
1.5669575 0.10216745 2.028338 590601
1.5113295 0.097302333 1.9317503 721161
1.5303187 0.097302333 1.9317503 787466
1.5493079 0.097302333 1.9317503 721673
1.4970108 0.092879497 1.8439435 787466
1.515137 0.092879497 1.8439435 721417
1.4665993 0.088841259 1.763772 852489
1.4221066 0.085139535 1.6902815 786698
1.3811733 0.081733957 1.6226703 852491
1.4553376 0.085139535 1.6902815 787466
1.4719532 0.085139535 1.6902815 786953
1.4885688 0.085139535 1.6902815 786696
1.5051843 0.085139535 1.6902815 721673
1.7391998 0.097302333 1.9317503 983305
1.758189 0.097302333 1.9317503 721675
1.7771782 0.097302333 1.9317503 655882
1.7961674 0.097302333 1.9317503 852489
1.8151566 0.097302333 1.9317503 787209
1.9258533 0.10216745 2.028338 852489
1.9457918 0.10216745 2.028338 655880
1.9657305 0.10216745 2.028338 721673
1.8911134 0.097302333 1.9317503 787466
1.9101025 0.097302333 1.9317503 918282
1.8414057 0.092879497 1.8439435 918282
1.8595318 0.092879497 1.8439435 918282
1.8776579 0.092879497 1.8439435 918282
1.8957839 0.092879497 1.8439435 984074
1.6842408 0.081733957 1.6226703 1049610
1.7001917 0.081733957 1.6226703 1247246
1.8653724 0.088841259 1.763772 6373942
2.062016 0.097302333 1.9317503 8870718
2.1850557 0.10216745 2.028338 9527621
2.3210466 0.10754468 2.1350925 8936003
2.4721477 0.11351939 2.2537088 8541248
2.4943018 0.11351939 2.2537088 8344383
2.5164559 0.11351939 2.2537088 8540731
2.53861 0.11351939 2.2537088 8475964
2.3046875 0.10216745 2.028338 9001793
2.1132965 0.092879497 1.8439435 9329986
2.1314225 0.092879497 1.8439435 9396035
2.0560899 0.088841259 1.763772 9462342
2.0734279 0.088841259 1.763772 9921610
2.0907657 0.088841259 1.763772 9396036
2.1081038 0.088841259 1.763772 9002307
2.2220528 0.092879497 1.8439435 8936260
2.899055 0.120197 2.3862798 9198405
0 0 0 9198918
0 0 0 9198918
0 0 0 9198918
0 0 0 9592647
0 0 0 9330758
0 0 0 9526600
0 0 0 9263944
0 0 0 9133129
0 0 0 3020561
0 0 0 1246731
-3.7242663 0.18785554 3.1205199 1444110
-3.6935916 0.18785554 3.1205199 1772304
-3.9681594 0.20351017 3.380563 2889755
-3.9349284 0.20351017 3.380563 3151636
-3.9016974 0.20351017 3.380563 3414038
-4.2201452 0.22201109 3.687887 3414039
-4.1838932 0.22201109 3.687887 3283222
-4.1476407 0.22201109 3.687887 3479831
-4.1113887 0.22201109 3.687887 3544854
-4.0751367 0.22201109 3.687887 3348246
-4.0388846 0.22201109 3.687887 3349016
-4.0026326 0.22201109 3.687887 3349014
-3.9663804 0.22201109 3.687887 3414550
-3.9301283 0.22201109 3.687887 3414550
-3.8938763 0.22201109 3.687887 3414550
-4.2433867 0.24421221 4.0566759 3480341
-3.821372 0.22201109 3.687887 3414805
-3.78512 0.22201109 3.687887 3480084
-3.7488678 0.22201109 3.687887 2493708
-3.7126157 0.22201109 3.687887 1970196
-4.0440001 0.24421221 4.0566759 2429972
-4.0041227 0.24421221 4.0566759 2362895
-3.9642456 0.24421221 4.0566759 2692375
-4.3604093 0.2713469 4.5074177 1377544
-4.3161011 0.2713469 4.5074177 984330
-4.2717929 0.2713469 4.5074177 722186
-4.2274847 0.2713469 4.5074177 787466
-4.183177 0.2713469 4.5074177 721675
-4.1388688 0.2713469 4.5074177 852489
-4.0945606 0.2713469 4.5074177 655882
-4.0502524 0.2713469 4.5074177 852489
-4.0059443 0.2713469 4.5074177 852491
-3.9616363 0.2713469 4.5074177 721675
-3.9173281 0.2713469 4.5074177 787467
-3.8730199 0.2713469 4.5074177 721673
-4.3073006 0.30526525 5.0708447 984075
-4.8656616 0.34887457 5.7952509 918282
-4.2076073 0.30526525 5.0708447 918536
-4.1577606 0.30526525 5.0708447 853000
-4.107914 0.30526525 5.0708447 590089
-3.6071713 0.2713469 4.5074177 918284
-3.5628631 0.2713469 4.5074177 2233111
-3.9583743 0.30526525 5.0708447 2758425
-3.9085276 0.30526525 5.0708447 3151898
-3.858681 0.30526525 5.0708447 4006173
-3.8088343 0.30526525 5.0708447 4400157
-3.7589877 0.30526525 5.0708447 4465689
-3.709141 0.30526525 5.0708447 3940372
-3.6592944 0.30526525 5.0708447 3282965
-3.6094477 0.30526525 5.0708447 3150866
-3.5596011 0.30526525 5.0708447 2625807
-3.119782 0.2713469 4.5074177 1312267
-3.0754738 0.2713469 4.5074177 918282
-2.7280493 0.24421221 4.0566759 1246731
-2.6881719 0.24421221 4.0566759 1115145
-2.9425495 0.2713469 4.5074177 983559
-2.8982413 0.2713469 4.5074177 984075
-2.8539333 0.2713469 4.5074177 1180938
-2.8096251 0.2713469 4.5074177 984074
-2.765317 0.2713469 4.5074177 787468
-2.721009 0.2713469 4.5074177 5190705
-2.6767008 0.2713469 4.5074177 9461057
-2.9614415 0.30526525 5.0708447 9789762
-3.3275371 0.34887457 5.7952509 10380612
-3.2705696 0.34887457 5.7952509 10381383
-3.2136018 0.34887457 5.7952509 10512198
-3.1566343 0.34887457 5.7952509 10250309
-3.0996668 0.34887457 5.7952509 9986883
-2.6623619 0.30526525 5.0708447 10118469
-2.6125152 0.30526525 5.0708447 10315845
-2.5626686 0.30526525 5.0708447 10250309
-2.8717964 0.34887457 5.7952509 9791041
-2.4629753 0.30526525 5.0708447 7751986
-2.7578614 0.34887457 5.7952509 8607035
-2.7008936 0.34887457 5.7952509 8672826
-2.6439261 0.34887457 5.7952509 9198397
-2.2635887 0.30526525 5.0708447 6700838
-2.2137423 0.30526525 5.0708447 8475194
-0.86555827 0.12210611 2.028338 8803641
-0.80535191 0.11629152 1.9317503 8671542
-0.82568097 0.12210611 2.028338 8212276
-0.94793206 0.14365424 2.3862798 2164739
-1.2089287 0.18785554 3.1205199 1049354
0 0 0 852746
0 0 0 852490
0 0 0 852748
-0.26149964 0.045224484 0.75123626 852491
-0.2450394 0.043609321 0.72440636 787210
-0.23791845 0.043609321 0.72440636 655880
-0.2307975 0.043609321 0.72440636 655625
-0.22367656 0.043609321 0.72440636 590089
-0.21655561 0.043609321 0.72440636 918284
-0.20576039 0.042844247 0.71169752 787210
-0.20231372 0.043609321 0.72440636 721415
-0.19519277 0.043609321 0.72440636 787208
-0.18807182 0.043609321 0.72440636 655882
-0.18095088 0.043609321 0.72440636 786696
-0.17078029 0.042844247 0.71169752 590089
-0.17614534 0.046077773 0.76541048 721675
-0.16248964 0.044402216 0.73757738 721675
-0.14979224 0.042844247 0.71169752 852489
-0.1403342 0.042105552 0.69942683 786696
-0.1358002 0.042844247 0.71169752 655882
-0.13110425 0.043609321 0.72440636 852491
-0.1239833 0.043609321 0.72440636 852489
-0.11686236 0.043609321 0.72440636 655880
-0.10781612 0.042844247 0.71169752 655882
-0.10262046 0.043609321 0.72440636 786696
-0.090643607 0.041391902 0.68757218 655628
-0.083884746 0.041391902 0.68757218 852491
-0.075840443 0.040702034 0.67611259 655880
-0.070367016 0.041391902 0.68757218 1707798
-0.063608147 0.041391902 0.68757218 2101782
-0.05782944 0.042105552 0.69942683 2167575
-0.050954044 0.042105552 0.69942683 2233366
-0.044078644 0.042105552 0.69942683 1838867
-0.036572687 0.041391902 0.68757218 984333
-0.029813822 0.041391902 0.68757218 590088
-0.023054956 0.041391902 0.68757218 655367
-0.016577058 0.042105552 0.69942683 720903
-0.0097016599 0.042105552 0.69942683 786696
-0.0029272006 0.043609321 0.72440636 786696
0.0041937465 0.043609321 0.72440636 786696
0.012185055 0.046963885 0.78012997 1246474
0.01843564 0.043609321 0.72440636 1115145
0.024257101 0.041391902 0.68757218 984329
0.031015968 0.041391902 0.68757218 1312266
0.03842612 0.042105552 0.69942683 1378060
0.049575243 0.046077773 0.76541048 1378060
0.060525224 0.048842441 0.81133515 1508875
0.074457265 0.053089608 0.88188601 1312267
0 0 0 1378060
0 0 0 1246731
0 0 0 1049352
0 0 0 983305
0 0 0 852489
0.15723439 0.0660033 1.0963988 852489
0.15162063 0.059563953 0.98943311 786953
0.15034588 0.055502772 0.92197174 721159
0.15586647 0.054269377 0.90148348 720903
0.16114706 0.053089608 0.88188601 655624
0.16981603 0.053089608 0.88188601 786696
0.18245135 0.054269377 0.90148348 721160
0.19566099 0.055502772 0.92197174 721417
0.20948504 0.056793537 0.94341296 786696
0.22396737 0.058145761 0.96587515 786952
0 0 0 852489
0.25510442 0.061053053 1.014169 1115147
0.25860852 0.059563953 0.98943311 7886154
0.26833469 0.059563953 0.98943311 11958867
0.2923204 0.062618516 1.0401733 7880238
0 0 0 984075
0 0 0 1246731
0 0 0 1247501
0 0 0 984074
0 0 0 918537
0.47562528 0.084211104 1.3988537 852745
0.48937607 0.084211104 1.3988537 853002
0.58362716 0.097684883 1.6226703 918025
0.59957808 0.097684883 1.6226703 983561
0.615529 0.097684883 1.6226703 918536
0.71759081 0.11100554 1.8439435 918537
0.770751 0.11629152 1.9317503 983818
0.82922727 0.12210611 2.028338 984073
0.84916592 0.12210611 2.028338 984329
0.96567178 0.13567345 2.2537088 984072
0.98782581 0.13567345 2.2537088 1115145
1.0099798 0.13567345 2.2537088 1115915
1.0928476 0.14365424 2.3862798 1246733
1.1163049 0.14365424 2.3862798 1180938
1.076442 0.13567345 2.2537088 1115147
0.94165373 0.11629152 1.9317503 984075
0.96064293 0.11629152 1.9317503 918536
1.0286138 0.12210611 2.028338 655880
1.0485525 0.12210611 2.028338 721675
1.0684911 0.12210611 2.028338 655880
1.0365998 0.11629152 1.9317503 787468
1.0555888 0.11629152 1.9317503 787212
1.074578 0.11629152 1.9317503 852491
1.0935673 0.11629152 1.9317503 656139
1.1125565 0.11629152 1.9317503 786698
1.188123 0.12210611 2.028338 1838608
1.2080617 0.12210611 2.028338 4203037
1.2280003 0.12210611 2.028338 4136730
1.1885133 0.11629152 1.9317503 3677206
1.2075025 0.11629152 1.9317503 3743259
1.2264916 0.11629152 1.9317503 3677466
1.2454808 0.11629152 1.9317503 3809053
1.26447 0.11629152 1.9317503 4005660
1.2834592 0.11629152 1.9317503 4136991
1.3024484 0.11629152 1.9317503 2822160
1.3875096 0.12210611 2.028338 2035730
1.4074482 0.12210611 2.028338 655366
1.5859854 0.13567345 2.2537088 589831
1.6081395 0.13567345 2.2537088 720903
1.7261931 0.14365424 2.3862798 720903
1.4872029 0.12210611 2.028338 720905
1.5071415 0.12210611 2.028338 590087
1.5270802 0.12210611 2.028338 721160
1.5470188 0.12210611 2.028338 590087
1.5669575 0.12210611 2.028338 655880
1.5868961 0.12210611 2.028338 655624
1.6068348 0.12210611 2.028338 852489
1.6267734 0.12210611 2.028338 852489
1.6467121 0.12210611 2.028338 852489
1.515137 0.11100554 1.8439435 786954
1.3492714 0.097684883 1.6226703 655882
1.3652223 0.097684883 1.6226703 655880
1.3811733 0.097684883 1.6226703 655882
1.3433887 0.093927771 1.5602599 852489
1.3587261 0.093927771 1.5602599 786953
1.4885688 0.10175508 1.6902815 590602
1.6420193 0.11100554 1.8439435 852489
1.7391998 0.11629152 1.9317503 721417
1.758189 0.11629152 1.9317503 787209
1.7771782 0.11629152 1.9317503 852489
1.7961674 0.11629152 1.9317503 786953
1.7326494 0.11100554 1.8439435 787210
1.7507756 0.11100554 1.8439435 852490
1.7689016 0.11100554 1.8439435 786953
1.7870276 0.11100554 1.8439435 853002
1.8051536 0.11100554 1.8439435 918282
1.8232797 0.11100554 1.8439435 852489
1.8414057 0.11100554 1.8439435 918282
1.8595318 0.11100554 1.8439435 787209
1.8776579 0.11100554 1.8439435 918282
1.8133585 0.10617922 1.763772 852489
1.6842408 0.097684883 1.6226703 918282
1.7001917 0.097684883 1.6226703 1049868
1.8653724 0.10617922 1.763772 4268568
1.9682881 0.11100554 1.8439435 5517604
1.9864142 0.11100554 1.8439435 5582883
2.0999944 0.11629152 1.9317503 7490099
2.2249329 0.12210611 2.028338 7950400
2.3630228 0.12853274 2.1350925 8016189
2.5164559 0.13567345 2.2537088 8278591
2.53861 0.13567345 2.2537088 8475711
2.3046875 0.12210611 2.028338 8738883
2.1132965 0.11100554 1.8439435 8870468
2.1314225 0.11100554 1.8439435 9264455
2.0560899 0.10617922 1.763772 9987151
2.0734279 0.10617922 1.763772 9790540
2.0907657 0.10617922 1.763772 9134666
2.2039268 0.11100554 1.8439435 8871496
2.2220528 0.11100554 1.8439435 9067332
2.899055 0.14365424 2.3862798 8870211
0 0 0 9067589
0 0 0 9198918
0 0 0 9462090
0 0 0 9396295
0 0 0 9199431
0 0 0 9133383
0 0 0 9067334
0 0 0 9132870
0 0 0 3151631
0 0 0 984330
-3.7242663 0.2185304 3.1205199 1444110
-3.6935916 0.2185304 3.1205199 1706510
-3.9681594 0.23674124 3.380563 2955546
-3.9349284 0.23674124 3.380563 3545624
-4.2563972 0.25826317 3.687887 3480085
-4.2201452 0.25826317 3.687887 3808535
-4.1838932 0.25826317 3.687887 3742742
-4.1476407 0.25826317 3.687887 3545878
-4.1113887 0.25826317 3.687887 3677464
-4.0751367 0.25826317 3.687887 3742489
-4.0388846 0.25826317 3.687887 3742745
-4.0026326 0.25826317 3.687887 3677464
-3.9663804 0.25826317 3.687887 3611670
-4.3231416 0.28408951 4.0566759 3611412
-4.2832642 0.28408951 4.0566759 3742486
-4.2433867 0.28408951 4.0566759 3808022
-4.2035093 0.28408951 4.0566759 3611156
-3.78512 0.25826317 3.687887 3545876
-3.7488678 0.25826317 3.687887 2690829
-3.7126157 0.25826317 3.687887 1772815
-4.0440001 0.28408951 4.0566759 1772815
-4.0041227 0.28408951 4.0566759 2561303
-3.9642456 0.28408951 4.0566759 2889495
-4.3604093 0.31565502 4.5074177 2757909
-4.3161011 0.31565502 4.5074177 2626838
-4.2717929 0.31565502 4.5074177 2561302
-4.7559204 0.3551119 5.0708447 2429975
-4.7060738 0.3551119 5.0708447 1509903
-4.6562271 0.3551119 5.0708447 786696
-4.0945606 0.31565502 4.5074177 852489
-4.0502524 0.31565502 4.5074177 721673
-4.0059443 0.31565502 4.5074177 918282
-3.9616363 0.31565502 4.5074177 786696
-3.9173281 0.31565502 4.5074177 721416
-3.8730199 0.31565502 4.5074177 918023
-4.3073006 0.3551119 5.0708447 918282
-4.2574539 0.3551119 5.0708447 1049098
-4.2076073 0.3551119 5.0708447 917512
-4.1577606 0.3551119 5.0708447 655880
-3.6514795 0.31565502 4.5074177 721674
-3.6071713 0.31565502 4.5074177 852489
-3.5628631 0.31565502 4.5074177 1180680
-3.9583743 0.3551119 5.0708447 1311494
-3.9085276 0.3551119 5.0708447 1245701
-3.858681 0.3551119 5.0708447 1114885
-3.8088343 0.3551119 5.0708447 1245957
-3.7589877 0.3551119 5.0708447 1114886
-3.709141 0.3551119 5.0708447 918021
-3.6592944 0.3551119 5.0708447 852228
-3.6094477 0.3551119 5.0708447 918281
-3.1640902 0.31565502 4.5074177 918282
-3.119782 0.31565502 4.5074177 852488
-3.0754738 0.31565502 4.5074177 787209
-2.7280493 0.28408951 4.0566759 852488
-2.9868577 0.31565502 4.5074177 852489
-2.9425495 0.31565502 4.5074177 852489
-2.8982413 0.31565502 4.5074177 721416
-2.8539333 0.31565502 4.5074177 721673
-2.8096251 0.31565502 4.5074177 721160
-2.765317 0.31565502 4.5074177 984075
-2.721009 0.31565502 4.5074177 2955289
-3.0112882 0.3551119 5.0708447 8474682
-2.9614415 0.3551119 5.0708447 9067069
-2.9115949 0.3551119 5.0708447 9461311
-2.8617485 0.3551119 5.0708447 9921090
-3.2136018 0.40584216 5.7952509 10184516
-3.1566343 0.40584216 5.7952509 9855297
-3.0996668 0.40584216 5.7952509 9856068
-3.0426991 0.40584216 5.7952509 9724735
-2.9857316 0.40584216 5.7952509 10052419
-2.5626686 0.3551119 5.0708447 9921091
-2.5128219 0.3551119 5.0708447 9659719
-2.4629753 0.3551119 5.0708447 9462339
-2.7578614 0.40584216 5.7952509 7489328
-2.7008936 0.40584216 5.7952509 7949106
-2.6439261 0.40584216 5.7952509 8475192
-2.5869586 0.40584216 5.7952509 6898221
-2.2137423 0.3551119 5.0708447 8409660
-0.96173137 0.15782751 2.2537088 7949875
-0.84561962 0.14204475 2.028338 7818546
-0.91742325 0.15782751 2.2537088 6898477
-1.0743229 0.189393 2.7044504 1312523
-1.2089287 0.2185304 3.1205199 984075
0 0 0 852746
-0.28148162 0.05360179 0.76541048 786697
-0.2639955 0.051652636 0.73757738 786954
-0.25216034 0.050730269 0.72440636 721418
-0.2450394 0.050730269 0.72440636 786953
-0.23791845 0.050730269 0.72440636 590089
-0.2307975 0.050730269 0.72440636 524553
-0.22367656 0.050730269 0.72440636 524552
-0.21655561 0.050730269 0.72440636 721675
-0.20943466 0.050730269 0.72440636 721673
-0.20231372 0.050730269 0.72440636 918282
-0.19519277 0.050730269 0.72440636 786696
-0.18807182 0.050730269 0.72440636 786953
-0.19119337 0.05360179 0.76541048 721673
-0.18366936 0.05360179 0.76541048 590089
-0.17614534 0.05360179 0.76541048 786696
-0.15678826 0.049840268 0.71169752 655882
-0.14979224 0.049840268 0.71169752 721675
-0.1403342 0.048980948 0.69942683 720905
-0.13345881 0.048980948 0.69942683 655882
-0.12658341 0.048980948 0.69942683 852491
-0.1239833 0.050730269 0.72440636 786696
-0.11686236 0.050730269 0.72440636 590089
-0.10074621 0.046572052 0.66502881 590600
-0.092689447 0.045820888 0.65430254 655880
-0.08767169 0.046572052 0.66502881 720903
-0.082486659 0.04734825 0.67611259 721675
-0.075840443 0.04734825 0.67611259 1114634
-0.069194227 0.04734825 0.67611259 2036763
-0.062548012 0.04734825 0.67611259 2167575
-0.056849282 0.048150767 0.68757218 2233368
-0.050954044 0.048980948 0.69942683 2495770
-0.044078644 0.048980948 0.69942683 2102040
-0.036572687 0.048150767 0.68757218 1708309
-0.029813822 0.048150767 0.68757218 787211
-0.022299055 0.046572052 0.66502881 786698
-0.015761793 0.046572052 0.66502881 720904
-0.0097016599 0.048980948 0.69942683 851976
-0.0029272006 0.050730269 0.72440636 655880
0 0 0 983559
0 0 0 1114888
0.01843564 0.050730269 0.72440636 1246731
0.024257101 0.048150767 0.68757218 1378060
0.031015968 0.048150767 0.68757218 1312524
0.03842612 0.048980948 0.69942683 1443853
0.050528619 0.0546326 0.78012997 1443852
0.063047104 0.059185311 0.84514076 1312267
0 0 0 1443852
0 0 0 1378060
0 0 0 1114891
0 0 0 984075
0 0 0 983305
0.14645673 0.076780945 1.0963988 786696
0.15723439 0.076780945 1.0963988 786697
0.15162063 0.069290124 0.98943311 852490
0.15034588 0.064565793 0.92197174 786698
0.15247807 0.061758585 0.88188601 786697
0.16114706 0.061758585 0.88188601 655625
0.17358972 0.063130997 0.90148348 720903
0.18659797 0.064565793 0.92197174 786696
0.19566099 0.064565793 0.92197174 852489
0.20948504 0.066067331 0.94341296 787210
0.21875884 0.066067331 0.94341296 786696
0.24513508 0.071022376 1.014169 786696
0.24888234 0.069290124 0.98943311 852491
0.25245115 0.067640357 0.96587515 1378830
0.26833469 0.069290124 0.98943311 10187090
0.27806085 0.069290124 0.98943311 7880749
0 0 0 1115660
0 0 0 1115145
0 0 0 918539
0 0 0 720903
0.46187449 0.097961895 1.3988537 852744
0.47562528 0.097961895 1.3988537 852489
0.48937607 0.097961895 1.3988537 852489
0.52109569 0.10146054 1.4488127 786954
0.5765174 0.1092652 1.5602599 918282
0.615529 0.1136358 1.6226703 918536
0.65779161 0.11837062 1.6902815 590344
0.770751 0.13528071 1.9317503 852489
0.82922727 0.14204475 2.028338 786696
0.84916592 0.14204475 2.028338 524296
0.9148469 0.1495208 2.1350925 786696
0.93583494 0.1495208 2.1350925 590087
0.95682299 0.1495208 2.1350925 590088
0.97781104 0.1495208 2.1350925 655880
0.94885921 0.14204475 2.028338 655880
0.92266452 0.13528071 1.9317503 655366
0.94165373 0.13528071 1.9317503 655625
0.96064293 0.13528071 1.9317503 918536
1.0286138 0.14204475 2.028338 721673
0.99862134 0.13528071 1.9317503 852490
1.0176105 0.13528071 1.9317503 787468
1.0365998 0.13528071 1.9317503 655880
1.0555888 0.13528071 1.9317503 721674
1.074578 0.13528071 1.9317503 655882
1.0935673 0.13528071 1.9317503 721675
1.2296677 0.1495208 2.1350925 655882
1.188123 0.14204475 2.028338 1969424
1.2080617 0.14204475 2.028338 6635057
1.1695241 0.13528071 1.9317503 7359808
1.1885133 0.13528071 1.9317503 8017223
1.2075025 0.13528071 1.9317503 7951688
1.2264916 0.13528071 1.9317503 7491910
1.2454808 0.13528071 1.9317503 6113345
1.26447 0.13528071 1.9317503 6047551
1.2834592 0.13528071 1.9317503 6636093
1.3024484 0.13528071 1.9317503 3216663
1.3214376 0.13528071 1.9317503 2428692
1.4074482 0.14204475 2.028338 1048581
1.5859854 0.15782751 2.2537088 590088
2.0676076 0.20292108 2.8976254 786696
1.6302935 0.15782751 2.2537088 720903
1.4163835 0.13528071 1.9317503 590600
1.4353727 0.13528071 1.9317503 852489
1.4543619 0.13528071 1.9317503 655880
1.5470188 0.14204475 2.028338 655882
1.5669575 0.14204475 2.028338 786696
1.5868961 0.14204475 2.028338 852489
1.6068348 0.14204475 2.028338 852489
1.7123929 0.1495208 2.1350925 786696
1.568297 0.13528071 1.9317503 852489
1.3333205 0.1136358 1.6226703 787466
1.3492714 0.1136358 1.6226703 655882
1.3652223 0.1136358 1.6226703 721673
1.3811733 0.1136358 1.6226703 786697
1.3433887 0.1092652 1.5602599 787210
1.3587261 0.1092652 1.5602599 786696
1.3740635 0.1092652 1.5602599 786953
1.6420193 0.12913159 1.8439435 721673
1.7391998 0.13528071 1.9317503 787210
1.758189 0.13528071 1.9317503 852489
1.7771782 0.13528071 1.9317503 786698
1.7145234 0.12913159 1.8439435 852745
1.7326494 0.12913159 1.8439435 786953
1.7507756 0.12913159 1.8439435 786698
1.7689016 0.12913159 1.8439435 918282
1.7870276 0.12913159 1.8439435 852489
1.8051536 0.12913159 1.8439435 852489
1.7440066 0.12351717 1.763772 983305
1.8414057 0.12913159 1.8439435 852491
1.8595318 0.12913159 1.8439435 852489
1.8776579 0.12913159 1.8439435 852489
1.8133585 0.12351717 1.763772 852489
1.8306965 0.12351717 1.763772 1049098
1.8480344 0.12351717 1.763772 984075
1.8653724 0.12351717 1.763772 1772561
1.8827103 0.12351717 1.763772 1707024
1.9000483 0.12351717 1.763772 1838095
1.9173863 0.12351717 1.763772 5452326
2.0226662 0.12913159 1.8439435 7293748
2.1379728 0.13528071 1.9317503 7752246
2.3840108 0.1495208 2.1350925 7949627
2.4049988 0.1495208 2.1350925 8409917
2.1949403 0.13528071 1.9317503 8607039
2.1132965 0.12913159 1.8439435 8804161
2.1314225 0.12913159 1.8439435 9198661
2.1495485 0.12913159 1.8439435 9461831
2.1676745 0.12913159 1.8439435 9264965
2.1858006 0.12913159 1.8439435 9264452
2.2039268 0.12913159 1.8439435 9133125
2.2220528 0.12913159 1.8439435 8673603
2.899055 0.16711147 2.3862798 8870469
0 0 0 8804932
0 0 0 8871238
0 0 0 8937545
0 0 0 9068361
0 0 0 9592647
0 0 0 9330504
0 0 0 8870211
0 0 0 9133641
0 0 0 3479053
0 0 0 984328
-3.7242663 0.24920525 3.1205199 1378060
-3.6935916 0.24920525 3.1205199 1574924
-3.6629167 0.24920525 3.1205199 2889753
-3.9349284 0.26997232 3.380563 3283222
-4.6820374 0.32396683 4.0566759 3414292
-4.2201452 0.29451528 3.687887 3480083
-4.1838932 0.29451528 3.687887 3479571
-4.1476407 0.29451528 3.687887 3545363
-4.5225282 0.32396683 4.0566759 3414292
-4.4826508 0.32396683 4.0566759 3348757
-4.0388846 0.29451528 3.687887 3480086
-4.0026326 0.29451528 3.687887 3480085
-3.9663804 0.29451528 3.687887 3480342
-4.3231416 0.32396683 4.0566759 3349014
-4.7591825 0.35996315 4.5074177 3349015
-4.2433867 0.32396683 4.0566759 3348758
-4.2035093 0.32396683 4.0566759 3348501
-4.1636324 0.32396683 4.0566759 3283222
-4.123755 0.32396683 4.0566759 2231563
-4.0838776 0.32396683 4.0566759 1246472
-4.0440001 0.32396683 4.0566759 1574924
-4.0041227 0.32396683 4.0566759 1837837
-4.4047174 0.35996315 4.5074177 852484
-4.3604093 0.35996315 4.5074177 852742
-4.3161011 0.35996315 4.5074177 852229
-4.8057671 0.40495852 5.0708447 786949
-4.7559204 0.40495852 5.0708447 721157
-4.7060738 0.40495852 5.0708447 852489
-4.6562271 0.40495852 5.0708447 721673
-4.0945606 0.35996315 4.5074177 655880
-4.0502524 0.35996315 4.5074177 720903
-4.0059443 0.35996315 4.5074177 786696
-3.9616363 0.35996315 4.5074177 787210
-3.9173281 0.35996315 4.5074177 787466
-3.8730199 0.35996315 4.5074177 852744
-4.3073006 0.40495852 5.0708447 656135
-3.7844038 0.35996315 4.5074177 852489
-3.7400956 0.35996315 4.5074177 786696
-3.6957874 0.35996315 4.5074177 786696
-3.6514795 0.35996315 4.5074177 655366
-3.6071713 0.35996315 4.5074177 786696
-3.5628631 0.35996315 4.5074177 983305
-3.5185549 0.35996315 4.5074177 983816
-3.9085276 0.40495852 5.0708447 852743
-3.858681 0.40495852 5.0708447 852489
-3.8088343 0.40495852 5.0708447 918025
-3.7589877 0.40495852 5.0708447 852489
-3.709141 0.40495852 5.0708447 721673
-3.6592944 0.40495852 5.0708447 852487
-3.2083981 0.35996315 4.5074177 852489
-3.1640902 0.35996315 4.5074177 852489
-2.8078039 0.32396683 4.0566759 852233
-2.7679265 0.32396683 4.0566759 852489
-2.7280493 0.32396683 4.0566759 721417
-2.6881719 0.32396683 4.0566759 852489
-2.6482944 0.32396683 4.0566759 852489
-2.8982413 0.35996315 4.5074177 786696
-2.5685399 0.32396683 4.0566759 786953
-2.8096251 0.35996315 4.5074177 721160
-2.765317 0.35996315 4.5074177 1049098
-2.721009 0.35996315 4.5074177 2823959
-3.0112882 0.40495852 5.0708447 7422271
-2.9614415 0.40495852 5.0708447 8869434
-2.9115949 0.40495852 5.0708447 9198909
-2.8617485 0.40495852 5.0708447 9723713
-2.8119018 0.40495852 5.0708447 9789504
-2.7620552 0.40495852 5.0708447 9526332
-3.0996668 0.46280971 5.7952509 9527103
-3.0426991 0.46280971 5.7952509 9592897
-2.9857316 0.46280971 5.7952509 9986370
-2.9287641 0.46280971 5.7952509 9788993
-2.5128219 0.40495852 5.0708447 9789504
-2.4629753 0.40495852 5.0708447 9264445
-2.7578614 0.46280971 5.7952509 9132604
-2.7008936 0.46280971 5.7952509 8870207
-2.6439261 0.46280971 5.7952509 8476222
-2.5869586 0.46280971 5.7952509 6701102
-2.2137423 0.40495852 5.0708447 8213053
-0.96173137 0.17998157 2.2537088 8345153
-0.89012587 0.17050885 2.1350925 9461822
-0.97138929 0.19056872 2.3862798 3084806
0 0 0 918283
0 0 0 721675
0 0 0 787468
-0.28148162 0.061125811 0.76541048 655882
-0.2639955 0.058903053 0.73757738 786955
-0.25216034 0.057851214 0.72440636 787211
-0.2450394 0.057851214 0.72440636 721418
-0.23374446 0.056836285 0.71169752 721161
-0.22674844 0.056836285 0.71169752 590087
-0.22367656 0.057851214 0.72440636 786696
-0.21655561 0.057851214 0.72440636 787468
-0.21324256 0.058903053 0.73757738 787468
-0.20599215 0.058903053 0.73757738 721162
-0.19874173 0.058903053 0.73757738 852746
-0.19503745 0.059993856 0.75123626 721162
-0.19119337 0.061125811 0.76541048 787468
-0.18366936 0.061125811 0.76541048 655880
-0.17614534 0.061125811 0.76541048 590089
-0.15678826 0.056836285 0.71169752 590089
-0.15246709 0.057851214 0.72440636 655880
-0.1403342 0.055856347 0.69942683 721675
-0.1311968 0.054909632 0.68757218 590087
-0.12443794 0.054909632 0.68757218 786698
-0.11970802 0.055856347 0.69942683 590089
-0.10907153 0.053994466 0.67611259 655882
-0.099121273 0.05225271 0.65430254 720903
-0.092689447 0.05225271 0.65430254 786696
-0.08767169 0.053109314 0.66502881 655882
-0.082486659 0.053994466 0.67611259 1378063
-0.077125877 0.054909632 0.68757218 1970454
-0.070367016 0.054909632 0.68757218 2167322
-0.063608147 0.054909632 0.68757218 1904403
-0.056849282 0.054909632 0.68757218 2102039
-0.049255572 0.053994466 0.67611259 1708052
-0.043331552 0.054909632 0.68757218 2036246
-0.03596314 0.053994466 0.67611259 2036246
-0.029316923 0.053994466 0.67611259 1969940
-0.022299055 0.053109314 0.66502881 721418
-0.015761793 0.053109314 0.66502881 721160
-0.0093782712 0.053994466 0.67611259 786698
-0.0029272006 0.057851214 0.72440636 786696
0 0 0 655880
0 0 0 1049098
0 0 0 1180684
0.025556589 0.057851214 0.72440636 1312524
0.035191193 0.062301312 0.78012997 1443853
0.042859904 0.062301312 0.78012997 1443853
0.050528619 0.062301312 0.78012997 1443852
0.068778664 0.07362882 0.92197174 1509646
0 0 0 1378060
0 0 0 1312524
0 0 0 1115145
0 0 0 1049609
0 0 0 852489
0.15052499 0.089990787 1.1268544 983305
0.16160202 0.089990787 1.1268544 983305
0.16801204 0.087558597 1.0963988 852232
0.13500446 0.066115677 0.82789302 917768
0.14027983 0.064793363 0.81133515 786439
0.16114706 0.070427567 0.88188601 787211
0.17753494 0.07362882 0.92197174 524296
0.18659797 0.07362882 0.92197174 786696
0.19566099 0.07362882 0.92197174 590088
0.20472401 0.07362882 0.92197174 655881
0.21378703 0.07362882 0.92197174 983560
0.22285005 0.07362882 0.92197174 852489
0.24295656 0.077134952 0.96587515 786696
0.25245115 0.077134952 0.96587515 852489
0.26194575 0.077134952 0.96587515 3284769
0.27806085 0.079016298 0.98943311 6368027
0 0 0 1049611
0 0 0 983818
0 0 0 918282
0 0 0 721159
0.44647866 0.10798893 1.3522252 852489
0.4597711 0.10798893 1.3522252 786697
0.48937607 0.11171269 1.3988537 720904
0.52109569 0.11570243 1.4488127 721160
0.55516493 0.11998771 1.5024725 918282
0.56993431 0.11998771 1.5024725 918025
0.63147992 0.12958673 1.6226703 852489
0.73571688 0.14725764 1.8439435 984075
0.7897402 0.1542699 1.9317503 918283
0.84916592 0.16198342 2.028338 984075
0.86910456 0.16198342 2.028338 984075
0.93583494 0.17050885 2.1350925 1115145
0.95682299 0.17050885 2.1350925 1115145
0.92892057 0.16198342 2.028338 1049095
0.94885921 0.16198342 2.028338 590087
0.92266452 0.1542699 1.9317503 721159
0.94165373 0.1542699 1.9317503 655880
0.96064293 0.1542699 1.9317503 655880
0.97963214 0.1542699 1.9317503 721675
0.91178471 0.14085513 1.763772 787209
0.92912263 0.14085513 1.763772 918282
0.98948157 0.14725764 1.8439435 852491
1.0076076 0.14725764 1.8439435 852747
1.074578 0.1542699 1.9317503 721418
1.2086797 0.17050885 2.1350925 853004
1.2296677 0.17050885 2.1350925 656138
1.188123 0.16198342 2.028338 1706509
1.2080617 0.16198342 2.028338 5782831
1.2280003 0.16198342 2.028338 6176816
1.247939 0.16198342 2.028338 7162943
1.2678777 0.16198342 2.028338 7885379
1.2878163 0.16198342 2.028338 7294785
1.307755 0.16198342 2.028338 6308669
1.3276936 0.16198342 2.028338 6308150
1.2834592 0.1542699 1.9317503 7290681
1.3024484 0.1542699 1.9317503 3150870
1.3214376 0.1542699 1.9317503 2494487
1.4074482 0.16198342 2.028338 590089
1.4273869 0.16198342 2.028338 655368
1.4473255 0.16198342 2.028338 786696
1.4672642 0.16198342 2.028338 786696
1.4163835 0.1542699 1.9317503 655880
1.4353727 0.1542699 1.9317503 852489
1.5270802 0.16198342 2.028338 655882
1.6284407 0.17050885 2.1350925 721673
1.6494288 0.17050885 2.1350925 786953
1.5868961 0.16198342 2.028338 852746
1.6068348 0.16198342 2.028338 786696
1.6267734 0.16198342 2.028338 721673
1.568297 0.1542699 1.9317503 786955
1.5872862 0.1542699 1.9317503 655882
1.3492714 0.12958673 1.6226703 786953
1.3652223 0.12958673 1.6226703 852489
1.5012753 0.14085513 1.763772 721675
1.5876411 0.14725764 1.8439435 721421
1.6822323 0.1542699 1.9317503 786953
1.6238931 0.14725764 1.8439435 852746
1.6420193 0.14725764 1.8439435 787468
2.0290666 0.17998157 2.2537088 852489
2.0512207 0.17998157 2.2537088 852489
1.7771782 0.1542699 1.9317503 786696
1.7145234 0.14725764 1.8439435 852746
1.7326494 0.14725764 1.8439435 787210
1.7507756 0.14725764 1.8439435 787210
1.7689016 0.14725764 1.8439435 721673
1.7870276 0.14725764 1.8439435 787468
1.8051536 0.14725764 1.8439435 918284
1.7440066 0.14085513 1.763772 918027
1.7613447 0.14085513 1.763772 721161
1.7786826 0.14085513 1.763772 721671
1.8776579 0.14725764 1.8439435 787209
1.8957839 0.14725764 1.8439435 918282
1.9139099 0.14725764 1.8439435 984075
1.8480344 0.14085513 1.763772 918282
1.8653724 0.14085513 1.763772 1902603
1.8827103 0.14085513 1.763772 1903631
1.8208796 0.13498616 1.6902815 1312270
1.9173863 0.14085513 1.763772 2559753
1.9347242 0.14085513 1.763772 6897962
2.0407922 0.14725764 1.8439435 7554870
2.0589182 0.14725764 1.8439435 7622205
2.1759512 0.1542699 1.9317503 7622204
2.1949403 0.1542699 1.9317503 8213311
2.2139297 0.1542699 1.9317503 8475710
2.1314225 0.14725764 1.8439435 8673088
2.1495485 0.14725764 1.8439435 9133379
2.1676745 0.14725764 1.8439435 9461831
2.1858006 0.14725764 1.8439435 9133636
2.2039268 0.14725764 1.8439435 9001539
2.3278649 0.1542699 1.9317503 9067330
2.899055 0.19056872 2.3862798 8541501
2.9225123 0.19056872 2.3862798 8739138
0 0 0 8804675
0 0 0 9067846
0 0 0 9067589
0 0 0 9198146
0 0 0 9066816
0 0 0 8870466
0 0 0 8805189
0 0 0 3479312
0 0 0 1050122
-3.7242663 0.27988011 3.1205199 1115661
-3.6935916 0.27988011 3.1205199 1312780
-3.9681594 0.30320343 3.380563 2626838
-4.7219143 0.36384413 4.0566759 3348245
-4.6820374 0.36384413 4.0566759 3348245
-4.2201452 0.33076736 3.687887 3414292
-4.1838932 0.33076736 3.687887 3414292
-4.5624051 0.36384413 4.0566759 3217429
-4.5225282 0.36384413 4.0566759 3217429
-4.0751367 0.33076736 3.687887 3414038
-4.0388846 0.33076736 3.687887 3479831
-4.0026326 0.33076736 3.687887 3217429
-4.3630185 0.36384413 4.0566759 3217429
-4.8034906 0.40427125 4.5074177 3348501
-4.7591825 0.40427125 4.5074177 3282965
-4.7148743 0.40427125 4.5074177 3217686
-4.2035093 0.36384413 4.0566759 3020308
-4.1636324 0.36384413 4.0566759 2888723
-4.123755 0.36384413 4.0566759 1903115
-4.0838776 0.36384413 4.0566759 1049608
-4.0440001 0.36384413 4.0566759 1444109
-4.4490256 0.40427125 4.5074177 1903888
-4.955307 0.45480514 5.0708447 852230
-4.3604093 0.40427125 4.5074177 720903
-4.3161011 0.40427125 4.5074177 590087
-4.8057671 0.45480514 5.0708447 524296
-4.7559204 0.45480514 5.0708447 655882
-4.7060738 0.45480514 5.0708447 852489
-4.1388688 0.40427125 4.5074177 918282
-4.0945606 0.40427125 4.5074177 1114891
-4.0502524 0.40427125 4.5074177 852489
-4.0059443 0.40427125 4.5074177 853002
-3.9616363 0.40427125 4.5074177 918282
-3.9173281 0.40427125 4.5074177 984075
-3.8730199 0.40427125 4.5074177 853259
-3.8287117 0.40427125 4.5074177 918280
-3.7844038 0.40427125 4.5074177 917512
-3.7400956 0.40427125 4.5074177 786953
-3.6957874 0.40427125 4.5074177 655625
-4.107914 0.45480514 5.0708447 720905
-4.0580673 0.45480514 5.0708447 720903
-3.5628631 0.40427125 4.5074177 853002
-3.5185549 0.40427125 4.5074177 1180938
-3.474247 0.40427125 4.5074177 1115145
-3.858681 0.45480514 5.0708447 918282
-3.8088343 0.45480514 5.0708447 918282
-3.7589877 0.45480514 5.0708447 852743
-3.709141 0.45480514 5.0708447 852489
-3.2527063 0.40427125 4.5074177 918282
-3.2083981 0.40427125 4.5074177 852489
-3.1640902 0.40427125 4.5074177 787466
-3.119782 0.40427125 4.5074177 918025
-3.0754738 0.40427125 4.5074177 852489
-3.0311658 0.40427125 4.5074177 655880
-2.9868577 0.40427125 4.5074177 655880
-2.6482944 0.36384413 4.0566759 721161
-2.6084173 0.36384413 4.0566759 720904
-2.5685399 0.36384413 4.0566759 786953
-2.5286627 0.36384413 4.0566759 655881
-2.765317 0.40427125 4.5074177 1114891
-2.721009 0.40427125 4.5074177 2757398
-3.0112882 0.45480514 5.0708447 4662827
-2.9614415 0.45480514 5.0708447 8278328
-2.9115949 0.45480514 5.0708447 8870718
-2.8617485 0.45480514 5.0708447 9263678
-2.8119018 0.45480514 5.0708447 9264702
-2.7620552 0.45480514 5.0708447 9328701
-2.7122085 0.45480514 5.0708447 9461054
-2.6623619 0.45480514 5.0708447 9657407
-2.9857316 0.5197773 5.7952509 9263678
-2.9287641 0.5197773 5.7952509 9591872
-2.8717964 0.5197773 5.7952509 9395516
-2.8148289 0.5197773 5.7952509 9001276
-2.7578614 0.5197773 5.7952509 9001019
-2.7008936 0.5197773 5.7952509 8869690
-2.3134353 0.45480514 5.0708447 9197115
-2.2635887 0.45480514 5.0708447 7489583
-2.2137423 0.45480514 5.0708447 9461311
-1.9234627 0.40427125 4.5074177 8409141
0 0 0 8804664
0 0 0 1640200
0 0 0 852747
0 0 0 787466
-0.31259793 0.074253902 0.82789302 852491
-0.28148162 0.068649828 0.76541048 721416
-0.26888433 0.067378543 0.75123626 655882
-0.25674507 0.066153474 0.73757738 852490
-0.2450394 0.064972162 0.72440636 589831
-0.23791845 0.064972162 0.72440636 720904
-0.22674844 0.063832305 0.71169752 852491
-0.22367656 0.064972162 0.72440636 787209
-0.21655561 0.064972162 0.72440636 655882
-0.21324256 0.066153474 0.73757738 721675
-0.20980683 0.067378543 0.75123626 655882
-0.20242214 0.067378543 0.75123626 721416
-0.1987174 0.068649828 0.76541048 655882
-0.19119337 0.068649828 0.76541048 721418
-0.18366936 0.068649828 0.76541048 786696
-0.17614534 0.068649828 0.76541048 590087
-0.15958804 0.064972162 0.72440636 721675
-0.15246709 0.064972162 0.72440636 655880
-0.14279622 0.063832305 0.71169752 655882
-0.1311968 0.061668497 0.68757218 655880
-0.12443794 0.061668497 0.68757218 852489
-0.11767907 0.061668497 0.68757218 590089
-0.10907153 0.060640685 0.67611259 786698
-0.099121273 0.058684535 0.65430254 590348
-0.092689447 0.058684535 0.65430254 786696
-0.08767169 0.059646577 0.66502881 655882
-0.083884746 0.061668497 0.68757218 984077
-0.077125877 0.061668497 0.68757218 1772821
-0.070367016 0.061668497 0.68757218 1772821
-0.063608147 0.061668497 0.68757218 2036247
-0.056849282 0.061668497 0.68757218 1970197
-0.050090417 0.061668497 0.68757218 2101782
-0.043331552 0.061668497 0.68757218 1838867
-0.03596314 0.060640685 0.67611259 1970196
-0.029316923 0.060640685 0.67611259 1641488
-0.022299055 0.059646577 0.66502881 852488
-0.015761793 0.059646577 0.66502881 983561
-0.0097016599 0.062731743 0.69942683 918025
-0.0028758463 0.063832305 0.71169752 786696
0.004120172 0.063832305 0.71169752 786696
0.011733756 0.067378543 0.75123626 918536
0 0 0 984075
0.026503129 0.067378543 0.75123626 1180938
0.035191193 0.069970027 0.78012997 1312524
0.041272502 0.067378543 0.75123626 1378060
0.046096284 0.063832305 0.71169752 1443852
0.053092301 0.063832305 0.71169752 1443852
0.077841684 0.082691841 0.92197174 1443852
0 0 0 1246473
0 0 0 1180681
0 0 0 1115145
0 0 0 983305
0 0 0 918281
0.17629309 0.11025579 1.2292956 852744
0.17267905 0.10106781 1.1268544 918026
0.13500446 0.074253902 0.82789302 786696
0.14027983 0.072768822 0.81133515 720905
0.15128091 0.074253902 0.82789302 786697
0.17753494 0.082691841 0.92197174 786697
0.18659797 0.082691841 0.92197174 786697
0.19566099 0.082691841 0.92197174 655366
0.20017458 0.080854245 0.90148348 589832
0.20903622 0.080854245 0.90148348 721673
0.21789783 0.080854245 0.90148348 852489
0.23191309 0.082691841 0.92197174 1049352
0.24097611 0.082691841 0.92197174 918282
0.26194575 0.086629547 0.96587515 1312783
0.27144036 0.086629547 0.96587515 7093289
0 0 0 918025
0 0 0 721673
0 0 0 852489
0.36098856 0.10106781 1.1268544 852232
0.37206557 0.10106781 1.1268544 787209
0.40568039 0.10701297 1.1931399 1115660
0.48937607 0.12546349 1.3988537 983817
0.50312686 0.12546349 1.3988537 1050122
0.53533757 0.12994432 1.4488127 1114890
0.56993431 0.13475709 1.5024725 852489
0.60719228 0.13994005 1.5602599 721673
0.64743084 0.14553764 1.6226703 917769
0.7897402 0.17325909 1.9317503 918027
0.80872941 0.17325909 1.9317503 983305
0.86910456 0.18192206 2.028338 1575696
0.93583494 0.19149691 2.1350925 2693658
1.0099798 0.20213562 2.2537088 1443851
0.92892057 0.18192206 2.028338 1049352
0.90367538 0.17325909 1.9317503 918282
0.84243286 0.1581931 1.763772 720903
0.82394701 0.15160172 1.6902815 720903
0.84056258 0.15160172 1.6902815 786950
0.85717809 0.15160172 1.6902815 655880
0.87379366 0.15160172 1.6902815 787466
0.92912263 0.1581931 1.763772 852491
0.98948157 0.16538368 1.8439435 721674
1.0555888 0.17325909 1.9317503 786698
1.2536745 0.20213562 2.2537088 852490
1.2086797 0.19149691 2.1350925 721418
1.2979827 0.20213562 2.2537088 655882
1.2506558 0.19149691 2.1350925 1837578
1.2080617 0.18192206 2.028338 7227190
1.2280003 0.18192206 2.028338 6241844
1.247939 0.18192206 2.028338 6373430
1.334608 0.19149691 2.1350925 7293499
1.2878163 0.18192206 2.028338 7226679
1.3765841 0.19149691 2.1350925 6242358
1.3276936 0.18192206 2.028338 7226938
1.3476323 0.18192206 2.028338 7095357
1.3675709 0.18192206 2.028338 3348247
1.3214376 0.17325909 1.9317503 2428691
1.4074482 0.18192206 2.028338 786698
1.4273869 0.18192206 2.028338 720905
1.4473255 0.18192206 2.028338 590089
1.4672642 0.18192206 2.028338 590089
1.4163835 0.17325909 1.9317503 655882
1.4353727 0.17325909 1.9317503 721417
1.6074528 0.19149691 2.1350925 721417
1.6284407 0.19149691 2.1350925 786953
1.6494288 0.19149691 2.1350925 787209
1.5868961 0.18192206 2.028338 2234397
1.6068348 0.18192206 2.028338 3746089
1.5493079 0.17325909 1.9317503 4140846
1.568297 0.17325909 1.9317503 3680812
1.5872862 0.17325909 1.9317503 3681069
1.6062754 0.17325909 1.9317503 3550254
1.551389 0.16538368 1.8439435 1642775
1.5695151 0.16538368 1.8439435 853259
1.6632431 0.17325909 1.9317503 721673
1.766344 0.18192206 2.028338 655882
1.7862827 0.18192206 2.028338 655882
1.8062212 0.18192206 2.028338 852491
1.82616 0.18192206 2.028338 852489
1.9432616 0.19149691 2.1350925 852489
2.0733747 0.20213562 2.2537088 655882
1.7961674 0.17325909 1.9317503 721674
1.7326494 0.16538368 1.8439435 721674
1.7507756 0.16538368 1.8439435 721418
1.9457918 0.18192206 2.028338 721160
1.9657305 0.18192206 2.028338 852489
1.8051536 0.16538368 1.8439435 655882
1.7440066 0.1581931 1.763772 721675
1.6879553 0.15160172 1.6902815 852489
1.7786826 0.1581931 1.763772 984075
1.8776579 0.16538368 1.8439435 918536
1.8957839 0.16538368 1.8439435 852489
1.9139099 0.16538368 1.8439435 918282
1.8480344 0.1581931 1.763772 1049868
1.8653724 0.1581931 1.763772 3874843
1.8827103 0.1581931 1.763772 4007456
1.8208796 0.15160172 1.6902815 3218458
1.9173863 0.1581931 1.763772 1312270
1.8541107 0.15160172 1.6902815 5058079
1.9520621 0.1581931 1.763772 7029549
1.9694002 0.1581931 1.763772 7555636
2.0770445 0.16538368 1.8439435 7753274
2.1949403 0.17325909 1.9317503 7819068
2.2139297 0.17325909 1.9317503 7884603
2.2329187 0.17325909 1.9317503 8212797
2.1495485 0.16538368 1.8439435 8739136
2.1676745 0.16538368 1.8439435 8935489
2.1858006 0.16538368 1.8439435 9001539
2.2039268 0.16538368 1.8439435 8475711
2.4442582 0.18192206 2.028338 8017472
2.899055 0.21402594 2.3862798 8148286
3.3121803 0.24256274 2.7044504 8345151
0 0 0 8673602
0 0 0 8936260
0 0 0 9197635
0 0 0 9001541
0 0 0 8935235
0 0 0 8869699
0 0 0 8673090
0 0 0 3282443
0 0 0 919306
-3.7242663 0.31055495 3.1205199 1247501
-3.6935916 0.31055495 3.1205199 1181708
-3.6629167 0.31055495 3.1205199 2561047
-3.9349284 0.33643451 3.380563 2888724
-4.2563972 0.36701947 3.687887 3151638
-4.2201452 0.36701947 3.687887 3282452
-4.6022825 0.40372145 4.0566759 3348245
-4.5624051 0.40372145 4.0566759 3414039
-4.5225282 0.40372145 4.0566759 3348759
-4.0751367 0.36701947 3.687887 3349274
-4.0388846 0.36701947 3.687887 3547167
-4.0026326 0.36701947 3.687887 3612960
-4.3630185 0.40372145 4.0566759 3480858
-4.8034906 0.44857937 4.5074177 3151894
-4.7591825 0.44857937 4.5074177 3217688
-4.7148743 0.44857937 4.5074177 3349274
-4.2035093 0.40372145 4.0566759 3217173
-4.1636324 0.40372145 4.0566759 3019795
-4.123755 0.40372145 4.0566759 1969164
-4.0838776 0.40372145 4.0566759 983816
-4.4933338 0.44857937 4.5074177 1378060
-4.4490256 0.44857937 4.5074177 1903629
-4.955307 0.50465178 5.0708447 1049351
-4.3604093 0.44857937 4.5074177 852488
-4.3161011 0.44857937 4.5074177 853004
-4.2717929 0.44857937 4.5074177 853004
-4.2274847 0.44857937 4.5074177 787211
