# .PCD v0.7 - Point Cloud Data file format
VERSION 0.7
FIELDS x y z rgb
SIZE 4 4 4 4
TYPE F F F U
COUNT 1 1 1 1
WIDTH 1325
HEIGHT 1
VIEWPOINT 0 0 0 1 0 0 0
POINTS 1325
DATA ascii
1.2155198 0.31568432 1.2292956 10436654
1.2659665 0.32554945 1.2677112 10174766
1.4106793 0.359227 1.3988537 10109229
1.4244301 0.359227 1.3988537 9452841
1.4381809 0.359227 1.3988537 9715243
1.4519317 0.359227 1.3988537 9714473
1.4168264 0.34725276 1.3522252 9583657
1.3407364 0.32554945 1.2677112 9978416
1.312192 0.31568432 1.2292956 9976874
1.3242761 0.31568432 1.2292956 9846317
1.1918888 0.28155628 1.0963988 9780782
1.2026664 0.28155628 1.0963988 9912620
1.2134441 0.28155628 1.0963988 9978667
1.2242217 0.28155628 1.0963988 10175024
1.3439699 0.30639949 1.1931399 9978924
0 0 0 9781036
0 0 0 9779755
0 0 0 9255208
2.3645036 0.52087915 2.028338 9386794
2.5099392 0.54829383 2.1350925 9387049
3.6990473 0.80135256 3.1205199 9518120
3.7297223 0.80135256 3.1205199 9780777
4.0737634 0.86813188 3.380563 9977127
0 0 0 9649192
0 0 0 9584684
0 0 0 9847345
0 0 0 9717040
0 0 0 9717552
0 0 0 9586479
0 0 0 8996144
0 0 0 8866616
0 0 0 9130047
0 0 0 1642777
0 0 0 1511191
-0.8645618 0.19314921 0.72440636 1380119
-0.85744083 0.19314921 0.72440636 1314584
-0.83540207 0.18976064 0.71169752 1379864
-0.82840604 0.18976064 0.71169752 1313812
-0.82141 0.18976064 0.71169752 1182226
-0.81441402 0.18976064 0.71169752 1116433
-0.80741799 0.18976064 0.71169752 1182485
-0.81471515 0.19314921 0.72440636 1314070
-0.75375462 0.18027259 0.67611259 1314325
-0.80047327 0.19314921 0.72440636 1445655
0 0 0 1576471
0 0 0 1642007
0 0 0 1445399
0 0 0 2364958
0 0 0 6244166
0 0 0 6836801
0 0 0 5586985
0 0 0 7231048
0 0 0 9925712
0 0 0 6373148
0 0 0 4203542
0 0 0 3875352
0 0 0 4466975
0 0 0 5452585
-2.5896604 0.72109038 2.7044504 5912108
-1.9223069 0.5408178 2.028338 6569524
-1.7294255 0.49165255 1.8439435 6897713
-1.5059435 0.43265423 1.6226703 6764840
-1.6931734 0.49165255 1.8439435 6568489
-2.0472803 0.6009087 2.2537088 6569774
-2.6037335 0.77259684 2.8976254 7160110
-2.7733459 0.83202744 3.1205199 7159335
-2.7426713 0.83202744 3.1205199 6764836
-1.468998 0.45068148 1.6902815 6239265
-1.4523824 0.45068148 1.6902815 5255712
-1.6408764 0.51506454 1.9317503 3876378
-1.6218872 0.51506454 1.9317503 2496790
-1.602898 0.51506454 1.9317503 2168082
-1.3304834 0.43265423 1.6226703 2233874
-1.3145325 0.43265423 1.6226703 2102030
-1.4115016 0.47027633 1.763772 1969932
-1.5269413 0.51506454 1.9317503 2101521
-2.1111329 0.72109038 2.7044504 2035987
-2.4052479 0.83202744 3.1205199 1970453
-1.3421499 0.47027633 1.763772 2298389
-1.1285435 0.4006058 1.5024725 3416868
-1.0739964 0.38629842 1.4488127 3022112
-1.0232114 0.37297779 1.3988537 2758170
-1.0094606 0.37297779 1.3988537 3414550
-1.5197675 0.56928188 2.1350925 2626581
0 0 0 2232083
-2.5525486 0.9833051 3.687887 3810084
-2.5162966 0.9833051 3.687887 7356978
-2.4800446 0.9833051 3.687887 4862240
-2.4437923 0.9833051 3.687887 2298900
-2.4075403 0.9833051 3.687887 2167573
-2.3712883 0.9833051 3.687887 4141619
-4.2808995 1.8027259 6.761126 7488564
-4.2144375 1.8027259 6.761126 7029291
0 0 0 7094317
0 0 0 7751988
0 0 0 8672828
0 0 0 9067327
0 0 0 9130039
0 0 0 9262399
-1.4996809 0.72109038 2.7044504 9263678
-1.473096 0.72109038 2.7044504 9526591
-1.5498334 0.77259684 2.8976254 9461309
-1.9362631 0.9833051 3.687887 9396287
-2.3222358 1.2018174 4.5074177 9921090
-2.2779276 1.2018174 4.5074177 10053190
-2.2336197 1.2018174 4.5074177 10053189
-2.1893115 1.2018174 4.5074177 10119241
-2.1450033 1.2018174 4.5074177 10447434
-2.1006951 1.2018174 4.5074177 11169352
-2.0563872 1.2018174 4.5074177 11432780
-2.012079 1.2018174 4.5074177 11104331
-1.9677709 1.2018174 4.5074177 11630158
-1.9234627 1.2018174 4.5074177 11366988
-1.8791547 1.2018174 4.5074177 10972742
-0.66054475 0.43265423 1.6226703 11499086
-0.61980176 0.41601372 1.5602599 11694923
-0.5612883 0.38629842 1.4488127 11301449
-0.54704636 0.38629842 1.4488127 11958095
-0.51443189 0.37297779 1.3988537 11367500
-0.46837914 0.34891471 1.3086051 11367500
-0.45551547 0.34891471 1.3086051 11629133
-0.40359432 0.31812811 1.1931399 11629134
-0.35061669 0.28464094 1.0675462 10643779
-0.3005735 0.25154316 0.94341296 8270885
-0.27835307 0.24036346 0.90148348 10566439
-0.25802371 0.23013523 0.86312246 11943720
-0.24953917 0.23013523 0.86312246 12206119
-0.24105464 0.23013523 0.86312246 12206633
-0.22772489 0.22534074 0.84514076 12140840
-0.21941712 0.22534074 0.84514076 12534311
-0.22028802 0.23513816 0.88188601 12469030
-0.21161905 0.23513816 0.88188601 12468776
-0.19052456 0.22074196 0.82789302 12993321
-0.17523393 0.21208541 0.79542661 12730918
-0.17076315 0.21632712 0.81133515 12665382
-0.15357327 0.20408218 0.76541048 12928040
-0.14604926 0.20408218 0.76541048 12665895
-0.13110425 0.19314921 0.72440636 12796198
-0.12180816 0.18976064 0.71169752 12469030
-0.11686236 0.19314921 0.72440636 12205604
-0.1097414 0.19314921 0.72440636 13124391
-0.10262046 0.19314921 0.72440636 12598823
-0.093824089 0.18976064 0.71169752 12992808
-0.088378564 0.19314921 0.72440636 12795943
-0.084267162 0.2003029 0.75123626 12731430
-0.076882474 0.2003029 0.75123626 12862246
-0.070809066 0.20408218 0.76541048 13059369
-0.068451174 0.22074196 0.82789302 12861734
0 0 0 12796199
0 0 0 12599846
0 0 0 13058596
0 0 0 12336420
-0.038864069 0.30903876 1.1590502 12664867
-0.027470553 0.30903876 1.1590502 12140326
-0.016077036 0.30903876 1.1590502 12467236
-0.0045534233 0.30045435 1.1268544 12140324
0.0063472921 0.29233393 1.0963988 12140324
0.017600635 0.30045435 1.1268544 11943461
0.029497026 0.30903876 1.1590502 11878181
0.039754696 0.30045435 1.1268544 11877668
0.050831724 0.30045435 1.1268544 11877666
0.061908755 0.30045435 1.1268544 12008740
0.072985783 0.30045435 1.1268544 12206119
0.084062815 0.30045435 1.1268544 12206371
0.095139846 0.30045435 1.1268544 12796455
0.10621687 0.30045435 1.1268544 12927528
0.12064515 0.30903876 1.1590502 12861733
0.2009284 0.47027633 1.763772 12467236
0.23905364 0.51506454 1.9317503 12731432
0 0 0 12796455
0 0 0 12730149
0 0 0 12730662
0 0 0 12533799
0 0 0 12074529
0.0409545 0.059758872 0.22412573 11549217
0.042454008 0.058784541 0.2204715 11942433
0.044621252 0.058784541 0.2204715 12664612
0 0 0 12796197
0 0 0 12665126
0 0 0 12730404
0 0 0 12796455
0 0 0 12664357
0 0 0 12665641
0 0 0 12403238
0 0 0 12272937
0.65551496 0.6009087 2.2537088 12534821
0.58085907 0.51506454 1.9317503 12534569
0.59984827 0.51506454 1.9317503 12469543
0.64977938 0.5408178 2.028338 12927782
0.66971803 0.5408178 2.028338 12927783
0.81136078 0.63625622 2.3862798 12862248
0.83481801 0.63625622 2.3862798 12928298
0.81059337 0.6009087 2.2537088 12730662
0.78891855 0.56928188 2.1350925 12796971
0.85490143 0.6009087 2.2537088 12863018
0.75176179 0.51506454 1.9317503 12993321
0.57806325 0.38629842 1.4488127 12993320
0.55281812 0.36054519 1.3522252 12863018
0.56611055 0.36054519 1.3522252 12861994
0.52673 0.32776836 1.2292956 12665385
0.52296656 0.31812811 1.1931399 12600102
0.53469521 0.31812811 1.1931399 12337192
0.51606697 0.30045435 1.1268544 12533029
0.52714401 0.30045435 1.1268544 12140583
0.66813642 0.37297779 1.3988537 12271912
0.68188721 0.37297779 1.3988537 12403496
0.77590394 0.41601372 1.5602599 12469034
0.70938879 0.37297779 1.3988537 12271911
0.80657881 0.41601372 1.5602599 12337445
0.76320785 0.38629842 1.4488127 12469033
0.87074375 0.43265423 1.6226703 12403498
0.82101363 0.4006058 1.5024725 12140840
1.0257336 0.49165255 1.8439435 12469291
1.0935673 0.51506454 1.9317503 12009254
0 0 0 11943461
0 0 0 12141354
0 0 0 12140325
0.98240024 0.43265423 1.6226703 12139813
0.99835116 0.43265423 1.6226703 11812134
1.014302 0.43265423 1.6226703 12009767
1.0302529 0.43265423 1.6226703 12009000
1.0897957 0.45068148 1.6902815 11812133
0.94835252 0.38629842 1.4488127 11484712
0.99824607 0.4006058 1.5024725 11419174
1.3024484 0.51506454 1.9317503 11484711
1.3214376 0.51506454 1.9317503 11550502
1.0425543 0.4006058 1.5024725 11616297
1.189489 0.45068148 1.6902815 11812906
1.2061045 0.45068148 1.6902815 11550504
1.22272 0.45068148 1.6902815 11221543
1.1897622 0.43265423 1.6226703 11090727
1.2057132 0.43265423 1.6226703 11485224
1.2216641 0.43265423 1.6226703 11221799
1.237615 0.43265423 1.6226703 11221800
1.1607091 0.4006058 1.5024725 11287336
1.1334971 0.38629842 1.4488127 10959397
1.1477391 0.38629842 1.4488127 10894120
1.1219126 0.37297779 1.3988537 10434081
1.1356634 0.37297779 1.3988537 10631205
1.0100912 0.32776836 1.2292956 10827813
1.0221753 0.32776836 1.2292956 10631462
0.94807112 0.30045435 1.1268544 10763048
1.0155686 0.31812811 1.1931399 10959397
1.0272971 0.31812811 1.1931399 10696738
1.0390258 0.31812811 1.1931399 10630946
1.0825955 0.32776836 1.2292956 10696228
1.0624831 0.31812811 1.1931399 10500648
1.0742117 0.31812811 1.1931399 10762535
0.99789107 0.29233393 1.0963988 10565155
1.0086687 0.29233393 1.0963988 10172193
0.99261886 0.28464094 1.0675462 10171681
1.0588415 0.30045435 1.1268544 10302499
1.1004875 0.30903876 1.1590502 10239275
1.1792676 0.32776836 1.2292956 10305066
1.1913517 0.32776836 1.2292956 10174762
1.1680406 0.31812811 1.1931399 10108712
1.1797693 0.31812811 1.1931399 10174765
1.1914978 0.31812811 1.1931399 10240302
1.2396878 0.32776836 1.2292956 10437681
1.2908897 0.33801112 1.2677112 10437935
1.3453951 0.34891471 1.3086051 10371889
1.3582587 0.34891471 1.3086051 10239790
1.3282747 0.33801112 1.2677112 10239534
1.3407364 0.33801112 1.2677112 10304812
1.2735982 0.31812811 1.1931399 10173741
1.1811111 0.29233393 1.0963988 9911339
1.1918888 0.29233393 1.0963988 9976362
1.2026664 0.29233393 1.0963988 9846317
1.2134441 0.29233393 1.0963988 9649450
1.2242217 0.29233393 1.0963988 9780522
1.269305 0.30045435 1.1268544 9780518
0 0 0 10042407
0 0 0 9583403
0 0 0 9978929
1.8188488 0.41601372 1.5602599 9912879
1.8341863 0.41601372 1.5602599 9715244
2.4043808 0.5408178 2.028338 9847599
3.7297223 0.83202744 3.1205199 9913392
4.0737634 0.90136296 3.380563 10371118
0 0 0 10044208
0 0 0 9978415
0 0 0 9912622
0 0 0 9649706
0 0 0 9649964
0 0 0 9321001
0 0 0 9452587
0 0 0 8601900
0 0 0 8670003
0 0 0 1446424
0 0 0 1445657
-0.8645618 0.20027016 0.72440636 1445657
-0.85744083 0.20027016 0.72440636 1511449
-0.85031992 0.20027016 0.72440636 1511447
-0.82840604 0.19675666 0.71169752 1642005
-0.82141 0.19675666 0.71169752 1511191
-0.84402901 0.20391142 0.73757738 1313810
-0.83677858 0.20391142 0.73757738 984845
-0.81471515 0.20027016 0.72440636 1051923
-0.79342592 0.19675666 0.71169752 1314325
-0.78642994 0.19675666 0.71169752 1379864
-0.85437948 0.21567556 0.78012997 1510935
0 0 0 1379605
0 0 0 1313810
0 0 0 1182224
0 0 0 1049869
0 0 0 1575437
0 0 0 4600362
0 0 0 4595990
0 0 0 6569264
0 0 0 6765869
0 0 0 6765867
0 0 0 6896940
0 0 0 6765868
0 0 0 7159854
-1.0222344 0.29513496 1.0675462 7422509
-1.0117404 0.29513496 1.0675462 7356715
-1.0012463 0.29513496 1.0675462 7685420
-1.0175295 0.30311158 1.0963988 6699048
-1.4899926 0.44860515 1.6226703 5713184
-1.7548115 0.53405374 1.9317503 3085323
-2.1442511 0.65971345 2.3862798 1904139
-1.7168331 0.53405374 1.9317503 1773586
-1.2294732 0.38672858 1.3988537 1510159
-1.3559982 0.43135113 1.5602599 1773074
-1.3942871 0.44860515 1.6226703 1773072
-1.3783362 0.44860515 1.6226703 1838610
-1.3623853 0.44860515 1.6226703 1773073
-1.2946484 0.43135113 1.5602599 1772817
-1.1879317 0.40054032 1.4488127 1969425
-1.1736897 0.40054032 1.4488127 2101010
-0.98377389 0.33985236 1.2292956 2101010
-1.145206 0.40054032 1.4488127 1904401
-1.130964 0.40054032 1.4488127 2495512
-1.1580822 0.41537514 1.5024725 3548707
-1.1433129 0.41537514 1.5024725 2299158
-1.0882384 0.40054032 1.4488127 2101526
-0.93974692 0.35047278 1.2677112 5848118
-0.6743893 0.25488928 0.92197174 12093812
-0.66532624 0.25488928 0.92197174 12879972
-0.70428252 0.27353972 0.98943311 9334610
-0.69455636 0.27353972 0.98943311 8478014
-0.68483019 0.27353972 0.98943311 6175269
-0.67510396 0.27353972 0.98943311 2033666
-0.6653778 0.27353972 0.98943311 1904402
-0.65565163 0.27353972 0.98943311 2232596
-0.64592546 0.27353972 0.98943311 2824478
-0.6361993 0.27353972 0.98943311 4139810
-2.1404498 0.93459404 3.380563 7489075
-2.1072187 0.93459404 3.380563 7817005
0 0 0 7488300
0 0 0 8537906
0 0 0 8470314
0 0 0 8338729
0 0 0 7747368
0 0 0 6499357
-1.3232479 0.65971345 2.3862798 6039839
-1.3810276 0.70094556 2.5354223 6303263
-1.5498334 0.80108064 2.8976254 7488045
-1.5213495 0.80108064 2.8976254 8606518
-1.9000111 1.0195571 3.687887 9527106
-2.2779276 1.2461255 4.5074177 9789764
-2.5128219 1.4018911 5.0708447 9790278
-2.4629753 1.4018911 5.0708447 10184522
-2.1450033 1.2461255 4.5074177 9788743
-2.1006951 1.2461255 4.5074177 10906179
-2.0563872 1.2461255 4.5074177 11432780
-2.012079 1.2461255 4.5074177 11499086
-1.9677709 1.2461255 4.5074177 11367500
-1.9234627 1.2461255 4.5074177 11760974
-1.3009531 0.86270225 3.1205199 11236173
-0.66054475 0.44860515 1.6226703 11892301
-0.57553017 0.40054032 1.4488127 11499086
-0.5612883 0.40054032 1.4488127 11892814
-0.54704636 0.40054032 1.4488127 11826509
-0.51443189 0.38672858 1.3988537 11563337
-0.46837914 0.36177835 1.3086051 10969919
-0.42790845 0.33985236 1.2292956 10637104
-0.38117242 0.31153136 1.1268544 11421484
-0.36009279 0.30311158 1.0963988 12009769
-0.31523561 0.27353972 0.98943311 12271910
-0.28467926 0.25488928 0.92197174 12336678
-0.26949143 0.24922508 0.90148348 12534569
-0.2606298 0.24922508 0.90148348 12468776
-0.24629496 0.24380715 0.88188601 12796710
-0.22772489 0.23364851 0.84514076 12468775
-0.21941712 0.23364851 0.84514076 12403496
-0.21110936 0.23364851 0.84514076 12533795
-0.20280159 0.23364851 0.84514076 12796199
-0.19052456 0.22888018 0.82789302 12534823
-0.17873861 0.22430257 0.81133515 12796455
-0.1610973 0.2116062 0.76541048 12927529
-0.15357327 0.2116062 0.76541048 12730660
-0.14334466 0.20768757 0.75123626 12730662
-0.13348795 0.20391142 0.73757738 12861733
-0.12623754 0.20391142 0.73757738 12993064
-0.12119059 0.20768757 0.75123626 12468006
-0.1138059 0.20768757 0.75123626 12928039
-0.10262046 0.20027016 0.72440636 12337444
-0.095499516 0.20027016 0.72440636 12598824
-0.093381122 0.2116062 0.76541048 12533283
-0.084267162 0.20768757 0.75123626 12140067
-0.078333087 0.2116062 0.76541048 13058600
-0.072170787 0.21567556 0.78012997 12664867
-0.068451174 0.22888018 0.82789302 12861734
0 0 0 13124391
0 0 0 12795942
0 0 0 12337444
0 0 0 12665639
-0.037784513 0.31153136 1.1268544 12402983
-0.026707483 0.31153136 1.1268544 12336422
-0.015630454 0.31153136 1.1268544 12206119
-0.0045534233 0.31153136 1.1268544 12336420
0.0063472921 0.30311158 1.0963988 12139811
0.017600635 0.31153136 1.1268544 12008227
0.028677665 0.31153136 1.1268544 12074533
0.039754696 0.31153136 1.1268544 11877668
0.050831724 0.31153136 1.1268544 12206119
0.061908755 0.31153136 1.1268544 12402215
0.072985783 0.31153136 1.1268544 12337192
0.084062815 0.31153136 1.1268544 12664354
0.092568487 0.30311158 1.0963988 12599076
0.10334614 0.30311158 1.0963988 12795942
0.1172939 0.31153136 1.1268544 12730662
0.13203867 0.32043228 1.1590502 12598309
0.23905364 0.53405374 1.9317503 12926501
0 0 0 12861733
0 0 0 12730662
0 0 0 12468519
0 0 0 12468774
0 0 0 12533539
0 0 0 12140070
0.04339743 0.06230627 0.22537087 12074534
0.63156235 0.86270225 3.1205199 12599589
0.66223723 0.86270225 3.1205199 12533801
0 0 0 12468004
0.58791435 0.70094556 2.5354223 12927272
0.57678843 0.65971345 2.3862798 12336932
0.60024565 0.65971345 2.3862798 12730406
0.62370288 0.65971345 2.3862798 12861735
0.52389151 0.53405374 1.9317503 12796453
0.54288071 0.53405374 1.9317503 12861994
0.51301163 0.4876143 1.763772 12599846
0.53034961 0.4876143 1.763772 12468005
0.54768759 0.4876143 1.763772 12862247
0.61883748 0.53405374 1.9317503 12796453
0.66971803 0.5607565 2.028338 12403238
0.76628524 0.62306273 2.2537088 12666153
0.78843927 0.62306273 2.2537088 12469028
0.81059337 0.62306273 2.2537088 12402983
0.74947268 0.5607565 2.028338 12796453
0.73277265 0.53405374 1.9317503 12600105
0.75176179 0.53405374 1.9317503 12730408
0.53952569 0.37383762 1.3522252 12665385
0.50256193 0.33985236 1.2292956 12534823
0.48523766 0.32043228 1.1590502 12665385
0.49663118 0.32043228 1.1590502 12731176
0.52296656 0.32985672 1.1931399 12468776
0.53469521 0.32985672 1.1931399 12141353
0.51606697 0.31153136 1.1268544 12009765
0.52714401 0.31153136 1.1268544 12403496
0.66813642 0.38672858 1.3988537 12140586
0.68188721 0.38672858 1.3988537 12403497
0.695638 0.38672858 1.3988537 12271399
0.7347241 0.40054032 1.4488127 12403240
0 0 0 12533538
0 0 0 12600104
0 0 0 12599592
0.82101363 0.41537514 1.5024725 12206119
0.90264559 0.44860515 1.6226703 12140326
0.91859657 0.44860515 1.6226703 12075049
0 0 0 12140584
0.9504984 0.44860515 1.6226703 12074278
1.006718 0.46729702 1.6902815 12008998
0.98240024 0.44860515 1.6226703 11747113
0.99835116 0.44860515 1.6226703 12074791
0.97529048 0.43135113 1.5602599 11877414
0.99062788 0.43135113 1.5602599 11550503
0.93411064 0.40054032 1.4488127 11812393
0.94835252 0.40054032 1.4488127 11484198
0.96259439 0.40054032 1.4488127 11550504
0.97683632 0.40054032 1.4488127 11681575
1.0277848 0.41537514 1.5024725 11352355
1.0053201 0.40054032 1.4488127 11419433
0.83963931 0.32985672 1.1931399 11352613
0 0 0 11352613
1.1738113 0.44860515 1.6226703 11353640
1.1016316 0.41537514 1.5024725 11287332
1.1164011 0.41537514 1.5024725 10960166
1.0907714 0.40054032 1.4488127 11090724
1.237615 0.44860515 1.6226703 11090726
1.2535659 0.44860515 1.6226703 11024678
1.2695168 0.44860515 1.6226703 10894119
1.1477391 0.40054032 1.4488127 11156005
1.1619809 0.40054032 1.4488127 10893859
1.1356634 0.38672858 1.3988537 11025191
1.0416566 0.35047278 1.2677112 10959399
1.0221753 0.33985236 1.2292956 10958628
1.0342593 0.33985236 1.2292956 11090468
1.0463433 0.33985236 1.2292956 10762273
1.0272971 0.32985672 1.1931399 10959652
1.0390258 0.32985672 1.1931399 10763046
1.0207329 0.32043228 1.1590502 10631716
1.0034562 0.31153136 1.1268544 10302753
0.98711342 0.30311158 1.0963988 10303780
0.99789107 0.30311158 1.0963988 10434083
1.0086687 0.30311158 1.0963988 10434853
0.99261886 0.29513496 1.0675462 10500645
1.0031129 0.29513496 1.0675462 10696739
1.0136069 0.29513496 1.0675462 10435880
1.0517793 0.30311158 1.0963988 10371372
1.1913517 0.33985236 1.2292956 10568749
1.1680406 0.32985672 1.1931399 10502958
1.1797693 0.32985672 1.1931399 10174763
1.1253036 0.31153136 1.1268544 10108970
1.2032264 0.32985672 1.1931399 10107945
1.2517718 0.33985236 1.2292956 9977386
1.3033514 0.35047278 1.2677112 9910056
1.3158131 0.35047278 1.2677112 9649196
1.3282747 0.35047278 1.2677112 9650220
1.3407364 0.35047278 1.2677112 9716013
1.1703335 0.30311158 1.0963988 9584171
1.1811111 0.30311158 1.0963988 9846829
1.1918888 0.30311158 1.0963988 10109229
1.2360739 0.31153136 1.1268544 10043436
1.2471509 0.31153136 1.1268544 10239786
1.2582279 0.31153136 1.1268544 10240302
1.269305 0.31153136 1.1268544 9517863
1.3967803 0.33985236 1.2292956 9715756
0 0 0 9714731
1.5630431 0.37383762 1.3522252 9714219
1.688931 0.40054032 1.4488127 9714732
1.8341863 0.43135113 1.5602599 9780265
1.8495237 0.43135113 1.5602599 9911850
3.7297223 0.86270225 3.1205199 10042410
4.0737634 0.93459404 3.380563 9911596
0 0 0 9649450
0 0 0 9649450
0 0 0 9781035
0 0 0 10044463
0 0 0 10110771
0 0 0 9847602
0 0 0 9716015
0 0 0 9454382
0 0 0 8931121
0 0 0 1511704
0 0 0 1445657
-0.89658266 0.21507226 0.75123626 1445657
-0.85744083 0.2073911 0.72440636 1511190
-0.85031992 0.2073911 0.72440636 1576470
-0.84319896 0.2073911 0.72440636 1445398
-0.85127944 0.21116185 0.73757738 1313812
-0.84402901 0.21116185 0.73757738 1378833
-0.83677858 0.21116185 0.73757738 984847
-0.81471515 0.2073911 0.72440636 854290
-0.79342592 0.20375268 0.71169752 1445657
-0.78642994 0.20375268 0.71169752 1445396
-0.77943391 0.20375268 0.71169752 1445398
-0.84671074 0.22334428 0.78012997 1444628
0 0 0 1313810
0 0 0 1444623
0 0 0 1050121
0 0 0 1444110
0 0 0 4137506
0 0 0 2757907
0 0 0 4861730
0 0 0 6766378
0 0 0 7028524
0 0 0 6831147
-0.96688914 0.28326592 0.98943311 6634538
-0.95716298 0.28326592 0.98943311 7028265
-0.94743681 0.28326592 0.98943311 7226927
-0.93771064 0.28326592 0.98943311 7620141
-0.97557342 0.29779238 1.0401733 5781285
-0.99075234 0.30562901 1.0675462 2297612
-1.0067518 0.31388924 1.0963988 1838611
-0.99597412 0.31388924 1.0963988 1969426
-0.98519647 0.31388924 1.0963988 1707282
-0.97441882 0.31388924 1.0963988 1707282
-1.0486684 0.34158534 1.1931399 1576208
-1.0683621 0.3519364 1.2292956 1641489
-1.3942871 0.4645561 1.6226703 1773075
-1.3783362 0.4645561 1.6226703 1773072
-1.3623853 0.4645561 1.6226703 1772816
-1.2466985 0.43014452 1.5024725 1838867
-0.97829664 0.34158534 1.1931399 1969681
-0.91286987 0.32260841 1.1268544 2299162
-0.90179282 0.32260841 1.1268544 1443853
-0.91616476 0.33182579 1.1590502 1903888
-0.87963873 0.32260841 1.1268544 3151640
-0.8228479 0.30562901 1.0675462 1582601
-0.68598771 0.25808671 0.90148348 6837335
-0.66240597 0.25247613 0.88188601 8608327
-0.63982767 0.24710429 0.86312246 4991769
-0.64506799 0.25247613 0.88188601 3744284
-0.63639903 0.25247613 0.88188601 3677464
-0.62773001 0.25247613 0.88188601 4530970
-0.63281798 0.25808671 0.90148348 5516832
-0.62395638 0.25808671 0.90148348 5845274
-0.61509472 0.25808671 0.90148348 4334612
-0.60623312 0.25808671 0.90148348 1509387
-0.62515622 0.27009076 0.94341296 1903633
-0.6158824 0.27009076 0.94341296 3680301
-0.60660863 0.27009076 0.94341296 5649449
-0.62647313 0.28326592 0.98943311 7685423
-0.63216567 0.29034758 1.014169 8143917
-0.62219632 0.29034758 1.014169 7222564
-0.61222702 0.29034758 1.014169 6564642
-0.58756846 0.28326592 0.98943311 7749169
-0.59228837 0.29034758 1.014169 7550502
-0.64702111 0.32260841 1.1268544 6038809
-0.69375712 0.3519364 1.2292956 4659988
-1.2497342 0.64521682 2.2537088 4134933
0 0 0 3806740
0 0 0 4332826
-1.5213495 0.82956439 2.8976254 5120797
-1.6077017 0.89337713 3.1205199 5580576
-2.5626686 1.4517378 5.0708447 6172192
0 0 0 6630944
0 0 0 6105630
0 0 0 6236959
0 0 0 5514785
0 0 0 3477007
-2.012079 1.2904336 4.5074177 4662303
-1.9677709 1.2904336 4.5074177 5975325
-0.69244659 0.4645561 1.6226703 6895391
-0.67649567 0.4645561 1.6226703 8144173
-0.63513917 0.44668856 1.5602599 9918779
-0.57553017 0.4147822 1.4488127 11821376
-0.52386904 0.38713005 1.3522252 12077617
-0.52818269 0.40047938 1.3988537 12404525
-0.51443189 0.40047938 1.3988537 12010537
-0.43999249 0.3519364 1.2292956 12075558
-0.39224946 0.32260841 1.1268544 11877927
-0.37087044 0.31388924 1.0963988 12337191
-0.35061669 0.30562901 1.0675462 12271141
-0.31523561 0.28326592 0.98943311 12074532
-0.30550945 0.28326592 0.98943311 12140583
-0.28202593 0.27009076 0.94341296 12271653
-0.2606298 0.25808671 0.90148348 12730662
-0.25176817 0.25808671 0.90148348 12731430
-0.24290656 0.25808671 0.90148348 12927526
-0.22408557 0.24710429 0.86312246 12730922
-0.21110936 0.24195629 0.84514076 12862246
-0.20280159 0.24195629 0.84514076 12730661
-0.19449382 0.24195629 0.84514076 12797225
-0.18238634 0.23701841 0.82789302 12469030
-0.1610973 0.21913022 0.76541048 12797225
-0.15072934 0.21507226 0.75123626 12796197
-0.14334466 0.21507226 0.75123626 12862248
-0.13595997 0.21507226 0.75123626 12861990
-0.12857528 0.21507226 0.75123626 12664358
-0.12347721 0.21913022 0.76541048 12665382
-0.11818306 0.22334428 0.78012997 12993320
-0.11051435 0.22334428 0.78012997 12731432
-0.10284563 0.22334428 0.78012997 12403496
-0.093381122 0.21913022 0.76541048 12862246
-0.085857108 0.21913022 0.76541048 12206117
-0.078333087 0.21913022 0.76541048 12271397
-0.073585898 0.22772357 0.79542661 12533283
-0.068451174 0.23701841 0.82789302 12467490
0 0 0 12599076
0 0 0 12796201
0 0 0 12664615
-0.050257586 0.33182579 1.1590502 12730149
-0.037784513 0.32260841 1.1268544 12074533
-0.026707483 0.32260841 1.1268544 11943461
-0.015630454 0.32260841 1.1268544 11943974
-0.0045534233 0.32260841 1.1268544 11942947
0.0065236059 0.32260841 1.1268544 11680548
0.017600635 0.32260841 1.1268544 11811361
0.028677665 0.32260841 1.1268544 11942693
0.038680241 0.31388924 1.0963988 12139813
0.049457893 0.31388924 1.0963988 12140324
0.061908755 0.32260841 1.1268544 12664356
0.072985783 0.32260841 1.1268544 12533029
0.084062815 0.32260841 1.1268544 12664869
0.092568487 0.31388924 1.0963988 12861219
0.10334614 0.31388924 1.0963988 12796453
0.1172939 0.32260841 1.1268544 12796455
0.12837093 0.32260841 1.1268544 12534823
0.14765078 0.34158534 1.1931399 12731178
0 0 0 12467490
0 0 0 12598822
0 0 0 12533800
0 0 0 12140326
0 0 0 12534052
0 0 0 12467491
0.45950222 0.68317068 2.3862798 12205347
0.48295945 0.68317068 2.3862798 12796198
0.50641668 0.68317068 2.3862798 12467749
0.52987391 0.68317068 2.3862798 12730663
0.55333114 0.68317068 2.3862798 12730918
0.57678843 0.68317068 2.3862798 12533795
0.60024565 0.68317068 2.3862798 12402980
0.5049023 0.55304295 1.9317503 12534056
0.52389151 0.55304295 1.9317503 12336674
0.54288071 0.55304295 1.9317503 12337192
0.51301163 0.50495225 1.763772 12599592
0.53034961 0.50495225 1.763772 12861736
0.54768759 0.50495225 1.763772 12600104
0.61883748 0.55304295 1.9317503 12927784
0.63782668 0.55304295 1.9317503 12730919
0.68965667 0.58069515 2.028338 12534310
0.78843927 0.64521682 2.2537088 12468776
0.81059337 0.64521682 2.2537088 12665639
0.74947268 0.58069515 2.028338 12271910
0.73277265 0.55304295 1.9317503 12271911
0.75176179 0.55304295 1.9317503 12664873
0.55813003 0.40047938 1.3988537 12337961
0.5349853 0.37464201 1.3086051 12403497
0.48523766 0.33182579 1.1590502 12468776
0.49663118 0.33182579 1.1590502 12534055
0.52296656 0.34158534 1.1931399 12927528
0.53469521 0.34158534 1.1931399 12534569
0.54642379 0.34158534 1.1931399 12796197
0.65438563 0.40047938 1.3988537 12928296
0.66813642 0.40047938 1.3988537 12271911
0.68188721 0.40047938 1.3988537 12337448
0.72048217 0.4147822 1.4488127 12402731
0.7347241 0.4147822 1.4488127 12271912
0.83884192 0.4645561 1.6226703 12271910
0 0 0 12141095
0 0 0 12075047
0.88669467 0.4645561 1.6226703 12075048
0.90264559 0.4645561 1.6226703 11943718
0.91859657 0.4645561 1.6226703 11943722
0.93454748 0.4645561 1.6226703 12140072
0.9504984 0.4645561 1.6226703 11616295
1.006718 0.48391259 1.6902815 11550502
0.98240024 0.4645561 1.6226703 11943720
0.99835116 0.4645561 1.6226703 12140330
0.97529048 0.44668856 1.5602599 12008741
0.91986871 0.4147822 1.4488127 11549735
0.93411064 0.4147822 1.4488127 11353638
0.94835252 0.4147822 1.4488127 11287843
0.96259439 0.4147822 1.4488127 11483941
0.97683632 0.4147822 1.4488127 11484711
0.9910782 0.4147822 1.4488127 11353383
0.9382987 0.38713005 1.3522252 11353124
0.83963931 0.34158534 1.1931399 11286819
1.1578604 0.4645561 1.6226703 10893859
1.1738113 0.4645561 1.6226703 11222054
1.0622877 0.4147822 1.4488127 11221799
1.0765295 0.4147822 1.4488127 11155749
1.0907714 0.4147822 1.4488127 10959141
1.1900145 0.44668856 1.5602599 10630691
1.2535659 0.4645561 1.6226703 10696226
1.2695168 0.4645561 1.6226703 11156261
1.2360268 0.44668856 1.5602599 10959140
1.1219126 0.40047938 1.3988537 10762534
1.0623949 0.37464201 1.3086051 10828066
1.0416566 0.36293444 1.2677112 10959912
1.0541183 0.36293444 1.2677112 11155750
1.0665799 0.36293444 1.2677112 10828326
1.0463433 0.3519364 1.2292956 10828326
0.99794585 0.33182579 1.1590502 10631460
1.0093393 0.33182579 1.1590502 10762535
0.99237925 0.32260841 1.1268544 10827809
0.97633576 0.31388924 1.0963988 10499619
0.98711342 0.31388924 1.0963988 10762535
0.99789107 0.31388924 1.0963988 10171681
1.0976689 0.34158534 1.1931399 10368547
1.0777005 0.33182579 1.1590502 10171937
1.089094 0.33182579 1.1590502 10499618
1.0410017 0.31388924 1.0963988 10238758
1.0809954 0.32260841 1.1268544 10240043
1.156312 0.34158534 1.1931399 10371117
1.1680406 0.34158534 1.1931399 10567980
1.0841123 0.31388924 1.0963988 10240043
1.1253036 0.32260841 1.1268544 10175022
1.2032264 0.34158534 1.1931399 10174509
1.2517718 0.3519364 1.2292956 10109999
1.2638559 0.3519364 1.2292956 10239786
1.3158131 0.36293444 1.2677112 9845803
1.3282747 0.36293444 1.2677112 10174254
1.2618695 0.34158534 1.1931399 9386794
1.2735982 0.34158534 1.1931399 9255719
1.3242761 0.3519364 1.2292956 9452841
1.3363601 0.3519364 1.2292956 9649196
1.2713902 0.33182579 1.1590502 9648680
1.2471509 0.32260841 1.1268544 9714986
1.2582279 0.32260841 1.1268544 9648936
1.269305 0.32260841 1.1268544 9320743
1.3169643 0.33182579 1.1590502 9321001
1.3674271 0.34158534 1.1931399 9386536
1.4209483 0.3519364 1.2292956 9714986
1.630692 0.40047938 1.3988537 9714985
1.8341863 0.44668856 1.5602599 9912363
1.8495237 0.44668856 1.5602599 9518634
4.0405321 0.96782517 3.380563 9584432
4.0737634 0.96782517 3.380563 9584173
0 0 0 9518380
0 0 0 9518380
0 0 0 9847086
0 0 0 10109230
0 0 0 9847599
0 0 0 9781809
0 0 0 9913138
0 0 0 9847345
0 0 0 9650736
0 0 0 1446169
0 0 0 1642523
0 0 0 1511704
0 0 0 1642523
-0.86578023 0.21841227 0.73757738 1642008
-0.84319896 0.21451205 0.72440636 1511191
-0.83607799 0.21451205 0.72440636 1445398
-0.84402901 0.21841227 0.73757738 1313811
-0.83677858 0.21841227 0.73757738 985360
-0.81471515 0.21451205 0.72440636 1379351
-0.79342592 0.21074869 0.71169752 1314325
-0.78642994 0.21074869 0.71169752 1511191
-0.77943391 0.21074869 0.71169752 1445399
-0.81535107 0.22245695 0.75123626 1379605
-0.85549384 0.23554265 0.79542661 1445398
0 0 0 1379605
0 0 0 1444880
0 0 0 1312523
0 0 0 1444107
0 0 0 1443852
-0.87739456 0.25558883 0.86312246 2297617
-0.86891007 0.25558883 0.86312246 5780008
-0.89866668 0.26694834 0.90148348 7093804
-0.91002786 0.27301535 0.92197174 6896940
-0.92191756 0.27936453 0.94341296 6962985
-0.91264379 0.27936453 0.94341296 6962732
-0.90336996 0.27936453 0.94341296 7094836
-0.93771064 0.29299209 0.98943311 5452324
-0.92798448 0.29299209 0.98943311 1904653
-0.91825831 0.29299209 0.98943311 1772817
-0.93124545 0.3003169 1.014169 1772559
-0.92127615 0.3003169 1.014169 1903888
-0.9592703 0.31612304 1.0675462 1969424
-0.94877625 0.31612304 1.0675462 1772047
-0.96364117 0.32466689 1.0963988 1707279
-1.0073129 0.34321928 1.1590502 1904401
-1.3406607 0.46202597 1.5602599 1838608
0 0 0 1838610
-1.3099859 0.46202597 1.5602599 1575437
-0.96173882 0.34321928 1.1590502 1641229
-0.92394686 0.33368543 1.1268544 1575438
-0.91286987 0.33368543 1.1268544 1641232
-0.90179282 0.33368543 1.1268544 2167575
-0.91616476 0.34321928 1.1590502 1772305
-0.8558647 0.32466689 1.0963988 1312012
-0.69484931 0.26694834 0.90148348 3615278
-0.65679675 0.25558883 0.86312246 2890780
-0.64831221 0.25558883 0.86312246 2427920
-0.63982767 0.25558883 0.86312246 2167059
-0.63134313 0.25558883 0.86312246 2759197
-0.63639903 0.26114511 0.88188601 3481119
-0.62773001 0.26114511 0.88188601 4598818
-0.61906105 0.26114511 0.88188601 5058342
-0.61039209 0.26114511 0.88188601 5452072
-0.60172307 0.26114511 0.88188601 3939090
-0.59305412 0.26114511 0.88188601 1180936
-0.59737146 0.26694834 0.90148348 1970201
-0.58850986 0.26694834 0.90148348 4600879
-0.57964826 0.26694834 0.90148348 7553582
-0.59733486 0.27936453 0.94341296 7154973
-0.61674696 0.29299209 0.98943311 6367776
-0.6070208 0.29299209 0.98943311 5644827
-0.58307332 0.28601608 0.96587515 7879726
-0.57357872 0.28601608 0.96587515 7352611
-0.56408411 0.28601608 0.96587515 5907485
-0.56811607 0.29299209 0.98943311 4396307
-0.61875641 0.32466689 1.0963988 3411985
-0.62486708 0.33368543 1.1268544 2821134
0 0 0 3018255
0 0 0 3281171
-1.5213495 0.8580482 2.8976254 3545624
-1.4928658 0.8580482 2.8976254 3806995
0 0 0 4793115
0 0 0 4989981
0 0 0 4266773
0 0 0 3938068
0 0 0 4660761
0 0 0 9193528
0 0 0 8074532
-0.42166516 0.28601608 0.96587515 7155749
-0.43277913 0.3003169 1.014169 9125164
-0.45709166 0.32466689 1.0963988 10830896
-0.44631401 0.32466689 1.0963988 11682350
-0.44763461 0.33368543 1.1268544 11878440
-0.47624457 0.36402044 1.2292956 12271911
-0.51057661 0.40042248 1.3522252 12271655
-0.45207652 0.36402044 1.2292956 12337190
-0.42705154 0.35331398 1.1931399 12139811
-0.38164809 0.32466689 1.0963988 11878951
-0.36111072 0.31612304 1.0675462 12469030
-0.32496181 0.29299209 0.98943311 12075046
-0.31523561 0.29299209 0.98943311 12074788
-0.30550945 0.29299209 0.98943311 12337703
-0.28874081 0.28601608 0.96587515 12271396
-0.26655322 0.27301535 0.92197174 12140324
-0.25176817 0.26694834 0.90148348 12205860
-0.24290656 0.26694834 0.90148348 12468258
-0.23404494 0.26694834 0.90148348 12599331
-0.21110936 0.25026405 0.84514076 12861991
-0.20280159 0.25026405 0.84514076 12927528
-0.19449382 0.25026405 0.84514076 12534054
-0.19014744 0.25558883 0.86312246 12468516
-0.17787828 0.25026405 0.84514076 12469030
-0.15357327 0.22665423 0.76541048 12863018
-0.14604926 0.22665423 0.76541048 12534056
-0.13852525 0.22665423 0.76541048 12730405
-0.13352048 0.23101299 0.78012997 12533796
-0.12831944 0.23554265 0.79542661 12599333
-0.12050037 0.23554265 0.79542661 12730665
-0.11268129 0.23554265 0.79542661 12468005
-0.10090514 0.22665423 0.76541048 12469030
-0.09517692 0.23101299 0.78012997 12927526
-0.089224055 0.23554265 0.79542661 11811361
-0.083033077 0.24025351 0.81133515 12599846
-0.075057611 0.24025351 0.81133515 12402465
-0.068451174 0.24515665 0.82789302 12402465
0 0 0 12206119
0 0 0 12664615
0 0 0 12664869
-0.048861541 0.33368543 1.1268544 12008738
-0.037784513 0.33368543 1.1268544 12598822
-0.026707483 0.33368543 1.1268544 12074533
-0.015630454 0.33368543 1.1268544 12598822
-0.0045534233 0.33368543 1.1268544 11942432
0.0065236059 0.33368543 1.1268544 12140324
0.017600635 0.33368543 1.1268544 11943461
0.027902592 0.32466689 1.0963988 11877414
0.038680241 0.32466689 1.0963988 11221541
0.049457893 0.32466689 1.0963988 12205088
0.061908755 0.33368543 1.1268544 12074533
0.072985783 0.33368543 1.1268544 12270627
0.084062815 0.33368543 1.1268544 12271397
0.095139846 0.33368543 1.1268544 12992805
0.10621687 0.33368543 1.1268544 12795940
0.1172939 0.33368543 1.1268544 12729635
0.12837093 0.33368543 1.1268544 12664356
0.14765078 0.35331398 1.1931399 12599077
0 0 0 12533797
0 0 0 12730405
0 0 0 12336933
0 0 0 12336933
0 0 0 12271908
0 0 0 12140324
0 0 0 12140582
0.48295945 0.70662796 2.3862798 12927269
0.45310968 0.63224608 2.1350925 12861478
0.45039287 0.6006338 2.028338 12402468
0.47033152 0.6006338 2.028338 12796200
0.49027017 0.6006338 2.028338 12927012
0.60024565 0.70662796 2.3862798 12992292
0.5049023 0.57203215 1.9317503 12795688
0.52389151 0.57203215 1.9317503 12664869
0.51820433 0.5460307 1.8439435 12861990
0.53633034 0.5460307 1.8439435 12730147
0.53034961 0.52229023 1.763772 12665638
0.54768759 0.52229023 1.763772 12468519
0.61883748 0.57203215 1.9317503 12731178
0.63782668 0.57203215 1.9317503 12534569
0.65681589 0.57203215 1.9317503 12469030
0.70959538 0.6006338 2.028338 12599846
0.69479424 0.57203215 1.9317503 12795942
0.71378344 0.57203215 1.9317503 12928040
0.73277265 0.57203215 1.9317503 12403494
0.75176179 0.57203215 1.9317503 12600360
0.55813003 0.41423017 1.3988537 12665128
0.5349853 0.38750565 1.3086051 12599844
0.49950933 0.35331398 1.1931399 12403242
0.49663118 0.34321928 1.1590502 12337707
0.52296656 0.35331398 1.1931399 12337192
0.53469521 0.35331398 1.1931399 12403496
0.56298208 0.36402044 1.2292956 12403495
0.65438563 0.41423017 1.3988537 12403236
0.66813642 0.41423017 1.3988537 12271654
0.68188721 0.41423017 1.3988537 12600105
0.695638 0.41423017 1.3988537 12271397
0.7347241 0.4290241 1.4488127 12337192
0.74896598 0.4290241 1.4488127 12468778
0.82191622 0.46202597 1.5602599 12271145
0.83725363 0.46202597 1.5602599 12337191
0.8525911 0.46202597 1.5602599 12336678
0.835783 0.44491389 1.5024725 12206117
0.91859657 0.48050702 1.6226703 11812389
0.93454748 0.48050702 1.6226703 12073766
0.9504984 0.48050702 1.6226703 11681061
0.96644932 0.48050702 1.6226703 11681831
0.98240024 0.48050702 1.6226703 11484713
0.99835116 0.48050702 1.6226703 11549990
1.014302 0.48050702 1.6226703 11614496
0.99062788 0.46202597 1.5602599 11877927
0.93411064 0.4290241 1.4488127 11943974
0.94835252 0.4290241 1.4488127 11812134
0.96259439 0.4290241 1.4488127 11680807
1.0130155 0.44491389 1.5024725 11352869
1.0277848 0.44491389 1.5024725 11746343
1.0425543 0.44491389 1.5024725 11483941
0.98440468 0.41423017 1.3988537 11287595
0.82704312 0.34321928 1.1590502 11090984
1.0480458 0.4290241 1.4488127 10762533
1.0622877 0.4290241 1.4488127 10893603
1.1164011 0.44491389 1.5024725 11089955
1.1311704 0.44491389 1.5024725 10828066
1.237615 0.48050702 1.6226703 11221801
1.2535659 0.48050702 1.6226703 11483943
1.2695168 0.48050702 1.6226703 11024675
1.1477391 0.4290241 1.4488127 10893602
1.1219126 0.41423017 1.3988537 10892834
1.0978079 0.40042248 1.3522252 11089955
1.1111003 0.40042248 1.3522252 10762533
1.0541183 0.3753961 1.2677112 10763048
1.0665799 0.3753961 1.2677112 10696996
1.0463433 0.36402044 1.2292956 10696998
0.99794585 0.34321928 1.1590502 10369060
0.9813022 0.33368543 1.1268544 10500644
0.99237925 0.33368543 1.1268544 10632229
0.97633576 0.32466689 1.0963988 10630689
0.98711342 0.32466689 1.0963988 10631205
1.0256103 0.33368543 1.1268544 10630433
1.0663069 0.34321928 1.1590502 10630949
1.0777005 0.34321928 1.1590502 10434085
1.1550996 0.36402044 1.2292956 10499365
1.1004875 0.34321928 1.1590502 10499876
1.111881 0.34321928 1.1590502 10305834
1.0920725 0.33368543 1.1268544 10174762
1.045089 0.31612304 1.0675462 10109228
1.055583 0.31612304 1.0675462 10109225
1.0948899 0.32466689 1.0963988 10108971
1.1688486 0.34321928 1.1590502 10174509
1.2149551 0.35331398 1.1931399 9846571
1.2638559 0.36402044 1.2292956 10108459
1.3158131 0.3753961 1.2677112 9583403
1.2880239 0.36402044 1.2292956 9845807
1.2618695 0.35331398 1.1931399 10043438
1.312192 0.36402044 1.2292956 10174766
1.3242761 0.36402044 1.2292956 9911851
1.3363601 0.36402044 1.2292956 9977901
1.2713902 0.34321928 1.1590502 9780780
1.2471509 0.33368543 1.1268544 9912108
1.2941773 0.34321928 1.1590502 10043437
1.269305 0.33368543 1.1268544 9780778
1.280382 0.33368543 1.1268544 9518119
1.2565546 0.32466689 1.0963988 9584429
1.2673323 0.32466689 1.0963988 9321255
1.4330323 0.36402044 1.2292956 9976360
1.6444428 0.41423017 1.3988537 9387048
4.0073013 1.0010562 3.380563 9321255
0 0 0 9518121
0 0 0 9518638
0 0 0 9387310
0 0 0 9387566
0 0 0 9716016
0 0 0 9979185
0 0 0 10175792
0 0 0 9781549
0 0 0 10110257
0 0 0 9781552
0 0 0 9585202
0 0 0 1708055
0 0 0 1840154
0 0 0 1643290
0 0 0 1642520
-0.86578023 0.22566269 0.73757738 1380120
-0.84319896 0.221633 0.72440636 1642777
-0.83607799 0.221633 0.72440636 1314325
-0.81441402 0.21774471 0.71169752 1445911
-0.82183611 0.221633 0.72440636 1380376
-0.80042195 0.21774471 0.71169752 1249048
-0.79342592 0.21774471 0.71169752 1314071
-0.78642994 0.21774471 0.71169752 1248278
-0.79335231 0.221633 0.72440636 1379864
-0.8005265 0.22566269 0.73757738 1576984
-0.80796641 0.22984163 0.75123626 1577497
0 0 0 1708312
0 0 0 1708052
0 0 0 1247500
0 0 0 1312524
0 0 0 2824733
-0.8415826 0.25329486 0.82789302 4927277
-0.83344436 0.25329486 0.82789302 5978154
-0.84249997 0.25857183 0.84514076 7094061
-0.87046146 0.26981407 0.88188601 7159083
-0.86179245 0.26981407 0.88188601 6831915
-0.85312349 0.26981407 0.88188601 6633770
-0.88283885 0.28207836 0.92197174 3742994
-0.87377578 0.28207836 0.92197174 1903626
-0.88482237 0.28863832 0.94341296 1773074
-0.91825831 0.30271825 0.98943311 1904144
-0.93124545 0.31028622 1.014169 1772045
-0.92127615 0.31028622 1.014169 2035217
-0.9113068 0.31028622 1.014169 1838610
-0.94877625 0.32661706 1.0675462 1838097
-0.93828225 0.32661706 1.0675462 1772816
-0.9277882 0.32661706 1.0675462 1707279
-0.96825498 0.34476247 1.1268544 1838606
-0.95717794 0.34476247 1.1268544 1707023
-1.0017539 0.3650426 1.1931399 1641229
-0.8858121 0.32661706 1.0675462 1904144
-0.89897531 0.33544454 1.0963988 2364439
-0.88819766 0.33544454 1.0963988 1508619
-0.87742001 0.33544454 1.0963988 1114633
-0.91616476 0.3546128 1.1590502 1313040
-0.70371097 0.27580994 0.90148348 1378830
-0.67974389 0.26981407 0.88188601 1510159
-0.65679675 0.26407334 0.86312246 1773075
-0.64831221 0.26407334 0.86312246 2429975
-0.63982767 0.26407334 0.86312246 2890013
-0.63134313 0.26407334 0.86312246 3679526
-0.62285858 0.26407334 0.86312246 4139300
-0.62773001 0.26981407 0.88188601 6440762
-0.61906105 0.26981407 0.88188601 6571827
-0.61039209 0.26981407 0.88188601 4729117
-0.60172307 0.26981407 0.88188601 3348504
-0.56834352 0.25857183 0.84514076 6239798
-0.56003577 0.25857183 0.84514076 6565929
-0.56346691 0.26407334 0.86312246 6236447
-0.55498236 0.26407334 0.86312246 5842716
-0.5707866 0.27580994 0.90148348 4791318
-0.52680469 0.25857183 0.84514076 4528662
-0.436629 0.21774471 0.71169752 6829358
-0.41506916 0.21036354 0.68757218 7089696
-0.42263696 0.21774471 0.71169752 5644825
-0.40847468 0.21399048 0.69942683 3740432
-0.40864491 0.21774471 0.71169752 2755340
-0.41625428 0.22566269 0.73757738 2295307
-0.40900388 0.22566269 0.73757738 1836298
0 0 0 2624272
0 0 0 2821649
0 0 0 2887698
0 0 0 3544081
0 0 0 5318173
0 0 0 5646369
0 0 0 7158833
0 0 0 9324344
0 0 0 10765613
0 0 0 11879466
-0.40241578 0.27580994 0.90148348 12075301
-0.39355415 0.27580994 0.90148348 12271912
-0.40258521 0.28863832 0.94341296 12074793
-0.41249734 0.30271825 0.98943311 11943974
-0.40277117 0.30271825 0.98943311 12207402
-0.39304501 0.30271825 0.98943311 11943972
-0.40297621 0.31824228 1.0401733 11943460
-0.42548054 0.34476247 1.1268544 11877668
-0.43878016 0.3650426 1.1931399 11877666
-0.40332648 0.34476247 1.1268544 12272426
-0.3620764 0.31824228 1.0401733 12140324
-0.34305519 0.31028622 1.014169 11943207
-0.32496181 0.30271825 0.98943311 11681316
-0.31523561 0.30271825 0.98943311 11943459
-0.29823542 0.29551065 0.96587515 12140581
-0.27561623 0.28207836 0.92197174 12206117
-0.26655322 0.28207836 0.92197174 12337187
-0.25176817 0.27580994 0.90148348 12140838
-0.24290656 0.27580994 0.90148348 12140580
-0.23404494 0.27580994 0.90148348 12271397
-0.22518331 0.27580994 0.90148348 12336163
-0.20711651 0.26407334 0.86312246 12599588
-0.19449382 0.25857183 0.84514076 12731175
-0.18618605 0.25857183 0.84514076 12534309
-0.17787828 0.25857183 0.84514076 12337955
-0.16610989 0.25329486 0.82789302 12337192
-0.14604926 0.23417826 0.76541048 12730660
-0.13852525 0.23417826 0.76541048 12730662
-0.13613853 0.24336173 0.79542661 12928041
-0.12831944 0.24336173 0.79542661 12731430
-0.12050037 0.24336173 0.79542661 12599845
-0.10842916 0.23417826 0.76541048 12664869
-0.10090514 0.23417826 0.76541048 12467746
-0.097043134 0.24336173 0.79542661 12795943
-0.092865855 0.25329486 0.82789302 12468261
-0.08472763 0.25329486 0.82789302 12271397
-0.075057611 0.24822897 0.81133515 12730406
-0.068451174 0.25329486 0.82789302 12271651
0 0 0 11877152
0 0 0 12205604
0 0 0 12599074
-0.048861541 0.34476247 1.1268544 12271651
-0.037784513 0.34476247 1.1268544 12139811
-0.026707483 0.34476247 1.1268544 12139041
-0.015630454 0.34476247 1.1268544 12402213
-0.0045534233 0.34476247 1.1268544 12402213
0.0065236059 0.34476247 1.1268544 12271397
0.017600635 0.34476247 1.1268544 12336420
0.027902592 0.33544454 1.0963988 12074533
0.038680241 0.33544454 1.0963988 12336674
0.049457893 0.33544454 1.0963988 12205604
0.060235541 0.33544454 1.0963988 12796455
0.072985783 0.34476247 1.1268544 12271397
0.084062815 0.34476247 1.1268544 12271651
0.095139846 0.34476247 1.1268544 12206117
0.10621687 0.34476247 1.1268544 12468003
0.1172939 0.34476247 1.1268544 12665381
0.12837093 0.34476247 1.1268544 12468004
0.14343219 0.3546128 1.1590502 12729891
0 0 0 12467489
0 0 0 12664356
0 0 0 12467748
0 0 0 12533281
0 0 0 12533283
0 0 0 12401956
0 0 0 12140577
0.48295945 0.73008519 2.3862798 12403239
0.45310968 0.65323412 2.1350925 12205860
0.50043648 0.68952495 2.2537088 12336933
0.52259058 0.68952495 2.2537088 12599333
0.54474461 0.68952495 2.2537088 12533283
0.60024565 0.73008519 2.3862798 12992807
0.5049023 0.5910213 1.9317503 12664871
0.52389151 0.5910213 1.9317503 12796455
0.51820433 0.56415671 1.8439435 12664869
0.53633034 0.56415671 1.8439435 12468771
0.55445641 0.56415671 1.8439435 12730916
0.59984827 0.5910213 1.9317503 12402467
0.61883748 0.5910213 1.9317503 12533540
0.63782668 0.5910213 1.9317503 12599076
0.65681589 0.5910213 1.9317503 12337957
0.67580503 0.5910213 1.9317503 12272164
0.69479424 0.5910213 1.9317503 12599076
0.71378344 0.5910213 1.9317503 12468517
0.73277265 0.5910213 1.9317503 12534565
0.65779161 0.51714367 1.6902815 12599589
0.53952569 0.41371492 1.3522252 12533283
0.5349853 0.40036929 1.3086051 12403237
0.49950933 0.3650426 1.1931399 12797225
0.51123798 0.3650426 1.1931399 12861733
0.52296656 0.3650426 1.1931399 12600362
0.55089808 0.37610447 1.2292956 12403237
0.56298208 0.37610447 1.2292956 12337188
0.55815244 0.3650426 1.1931399 11943718
0.56988108 0.3650426 1.1931399 11682090
0.68188721 0.42798096 1.3988537 11813418
0.695638 0.42798096 1.3988537 11879721
0.6050669 0.3650426 1.1931399 11878181
0.61679554 0.3650426 1.1931399 12205604
0.59360617 0.34476247 1.1268544 12206119
0.80624425 0.45968327 1.5024725 12205862
0.79169166 0.443266 1.4488127 11942947
0.835783 0.45968327 1.5024725 12336420
0.85055238 0.45968327 1.5024725 11877667
0.89860338 0.47736341 1.5602599 12140326
0.9504984 0.49645793 1.6226703 11549734
0.92927819 0.47736341 1.5602599 11419176
0.9446156 0.47736341 1.5602599 11419176
0.99835116 0.49645793 1.6226703 10829093
1.014302 0.49645793 1.6226703 10763043
1.0302529 0.49645793 1.6226703 11222052
1.0059654 0.47736341 1.5602599 11746854
0.9834767 0.45968327 1.5024725 11680547
1.0366402 0.47736341 1.5602599 11483685
1.0940567 0.49645793 1.6226703 11746343
1.067315 0.47736341 1.5602599 11483426
1.0425543 0.45968327 1.5024725 11483941
0.98440468 0.42798096 1.3988537 11615527
0.90457839 0.38785776 1.2677112 11418148
1.0480458 0.443266 1.4488127 11090214
1.0622877 0.443266 1.4488127 11222054
1.1164011 0.45968327 1.5024725 11024932
1.1311704 0.45968327 1.5024725 10434083
1.2891822 0.51714367 1.6902815 10893606
1.3057978 0.51714367 1.6902815 11221541
1.2695168 0.49645793 1.6226703 11286310
1.1902479 0.45968327 1.5024725 10893859
1.2050173 0.45968327 1.5024725 10959396
1.1356634 0.42798096 1.3988537 10564897
1.1494142 0.42798096 1.3988537 11024932
1.0881221 0.40036929 1.3086051 10827553
1.0665799 0.38785776 1.2677112 10827041
1.0463433 0.37610447 1.2292956 11090468
0.99794585 0.3546128 1.1590502 11221800
0.9813022 0.34476247 1.1268544 10696737
0.99237925 0.34476247 1.1268544 10762531
1.0034562 0.34476247 1.1268544 11024933
1.0145333 0.34476247 1.1268544 10499874
1.0256103 0.34476247 1.1268544 10631205
1.0976689 0.3650426 1.1931399 10433568
1.0777005 0.3546128 1.1590502 10368291
1.3144237 0.42798096 1.3988537 10369060
1.2424859 0.40036929 1.3086051 9844515
1.2553495 0.40036929 1.3086051 10108198
1.1232746 0.3546128 1.1590502 10305064
1.0733346 0.33544454 1.0963988 10436909
1.055583 0.32661706 1.0675462 10240301
1.1253036 0.34476247 1.1268544 10306092
1.1688486 0.3546128 1.1590502 10240558
1.1802421 0.3546128 1.1590502 10108974
1.2638559 0.37610447 1.2292956 10174252
1.2759399 0.37610447 1.2292956 9977384
1.2880239 0.37610447 1.2292956 10173994
1.2618695 0.3650426 1.1931399 10108459
1.312192 0.37610447 1.2292956 9845801
1.3242761 0.37610447 1.2292956 9911851
1.2249968 0.34476247 1.1268544 9911338
1.2360739 0.34476247 1.1268544 9779496
1.2471509 0.34476247 1.1268544 9846060
1.2941773 0.3546128 1.1590502 9781035
1.269305 0.34476247 1.1268544 9846827
1.280382 0.34476247 1.1268544 10109231
1.2565546 0.33544454 1.0963988 10108977
1.2673323 0.33544454 1.0963988 9847344
1.4330323 0.37610447 1.2292956 10043433
1.6444428 0.42798096 1.3988537 9780521
1.6581936 0.42798096 1.3988537 9780266
0 0 0 9452584
0 0 0 9387048
0 0 0 9452585
0 0 0 9452072
0 0 0 9452074
0 0 0 9452839
0 0 0 9716011
0 0 0 9978415
0 0 0 10110513
0 0 0 10176562
0 0 0 10044206
0 0 0 1642521
0 0 0 1839385
0 0 0 1773593
0 0 0 1904409
0 0 0 1708570
-0.82840604 0.22474073 0.71169752 1379864
-0.82141 0.22474073 0.71169752 1445911
-0.81441402 0.22474073 0.71169752 1445655
-0.80741799 0.22474073 0.71169752 1314325
-0.78662151 0.22086588 0.69942683 1511447
-0.77974612 0.22086588 0.69942683 1642777
-0.80047327 0.22875394 0.72440636 1511191
-0.82273579 0.23722632 0.75123626 1511191
