# .PCD v0.7 - Point Cloud Data file format
VERSION 0.7
FIELDS x y z rgb
SIZE 4 4 4 4
TYPE F F F U
COUNT 1 1 1 1
WIDTH 1350
HEIGHT 1
VIEWPOINT 0 0 0 1 0 0 0
POINTS 1350
DATA ascii
-2.0444689 -1.1937147 2.1350925 8606781
-2.0234809 -1.1937147 2.1350925 8475449
0 0 0 8476220
-1.9815047 -1.1937147 2.1350925 8475706
-1.8624909 -1.134029 2.028338 8409912
-1.8425523 -1.134029 2.028338 8213563
0 0 0 8606523
0 0 0 8475449
-2.0973368 -1.3341517 2.3862798 8607035
-1.8555764 -1.1937147 2.1350925 8607034
-1.8345883 -1.1937147 2.1350925 8541755
-1.9143559 -1.2600323 2.2537088 8541242
-1.7029817 -1.134029 2.028338 8672828
-1.683043 -1.134029 2.028338 8410427
-1.6631044 -1.134029 2.028338 8607035
-1.6431657 -1.134029 2.028338 8738620
-2.0290337 -1.4175363 2.5354223 8607548
-2.0041103 -1.4175363 2.5354223 8672828
0 0 0 8607033
-1.8393071 -1.3341517 2.3862798 8738363
-1.6247078 -1.1937147 2.1350925 8410683
-1.6037197 -1.1937147 2.1350925 8607033
-1.5035951 -1.134029 2.028338 8738621
-1.6485072 -1.2600323 2.2537088 8541499
-1.0094606 -0.78208894 1.3988537 8672826
-0.99570972 -0.78208894 1.3988537 8672313
-0.79102254 -0.63001615 1.1268544 8673085
-0.77994549 -0.63001615 1.1268544 8673083
-0.4324885 -0.35438406 0.63385558 8607292
-0.73731053 -0.61298865 1.0963988 8672828
-0.72653288 -0.61298865 1.0963988 8738619
-0.71575522 -0.61298865 1.0963988 8672827
-0.40129495 -0.348932 0.62410396 8739391
-0.37772644 -0.33353794 0.59656996 8672574
-0.37186214 -0.33353794 0.59656996 8738621
-0.36599782 -0.33353794 0.59656996 8804411
-0.35491419 -0.32870406 0.587924 8673082
-0.33000419 -0.31069288 0.555709 8804412
-0.32454154 -0.31069288 0.555709 8738619
-0.31907889 -0.31069288 0.555709 8804411
-0.29732451 -0.29455298 0.52684098 8804410
-0.28119019 -0.28350726 0.50708449 8673340
-0.27279556 -0.28000715 0.50082415 8738362
-0.26787242 -0.28000715 0.50082415 8672826
-0.26294932 -0.28000715 0.50082415 8409398
-0.25802618 -0.28000715 0.50082415 8542269
-0.24119234 -0.26683035 0.47725597 8080693
-0.23931637 -0.2700069 0.48293757 7094570
0 0 0 6964274
0 0 0 7423281
0 0 0 7030318
0 0 0 5386528
0 0 0 4004623
-0.21337274 -0.27326 0.48875612 3218460
-0.20856825 -0.27326 0.48875612 2494479
-0.20376375 -0.27326 0.48875612 2166288
-0.19895926 -0.27326 0.48875612 2297873
-0.1989487 -0.28000715 0.50082415 2560272
-0.19165942 -0.27659243 0.49471655 2822928
-0.18910246 -0.28000715 0.50082415 3939605
-0.1888421 -0.28709593 0.51350325 4136472
-0.18615068 -0.29077667 0.52008665 3283219
-0.18580237 -0.29842868 0.53377312 3610895
-0.18055536 -0.29842868 0.53377312 4070157
-0.17530835 -0.29842868 0.53377312 3807500
-0.16785273 -0.29455298 0.52684098 3742226
-0.16267386 -0.29455298 0.52684098 5910813
-0.1595673 -0.29842868 0.53377312 8015413
0 0 0 8475449
0 0 0 8541497
0 0 0 9197885
0 0 0 8869435
-0.15589614 -0.348932 0.62410396 8869947
-0.14315407 -0.33353794 0.59656996 8934713
-0.13933885 -0.33851612 0.605474 9001789
-0.13142544 -0.33353794 0.59656996 9067326
0 0 0 9067326
0 0 0 9329472
0 0 0 9198655
0 0 0 9329471
0 0 0 9133377
0 0 0 9526334
0 0 0 8936512
0 0 0 9263934
0 0 0 9329472
0 0 0 9395264
0 0 0 9198398
0 0 0 9264192
0 0 0 9461570
-0.19730045 -1.3341517 2.3862798 9460541
-0.13433339 -1.0309354 1.8439435 9395008
-0.11620734 -1.0309354 1.8439435 9199165
-0.10275183 -1.0800276 1.9317503 9198655
-0.097723082 -1.2600323 2.2537088 9460541
-0.080014259 -1.3341517 2.3862798 9329725
-0.053414967 -1.2600323 2.2537088 9133375
-0.026795061 -1.0800276 1.9317503 9395518
-0.0081961621 -1.134029 2.028338 9461311
0.011183324 -1.0800276 1.9317503 9460539
0.030172516 -1.0800276 1.9317503 9460799
0.04916171 -1.0800276 1.9317503 9461312
0.0681509 -1.0800276 1.9317503 9396546
0.10166345 -1.2600323 2.2537088 9330495
0.12381751 -1.2600323 2.2537088 9527104
0.14597157 -1.2600323 2.2537088 9395516
0.16812563 -1.2600323 2.2537088 9462081
0.17125171 -1.134029 2.028338 9527874
0.18208605 -1.0800276 1.9317503 9592643
0.19193546 -1.0309354 1.8439435 9592382
0.21006151 -1.0309354 1.8439435 9855297
0.23905364 -1.0800276 1.9317503 9921090
0.25804281 -1.0800276 1.9317503 9789763
0.27703202 -1.0800276 1.9317503 9855554
0.29602119 -1.0800276 1.9317503 9790278
0.3150104 -1.0800276 1.9317503 9921347
0.31881779 -1.0309354 1.8439435 9921604
0.37063825 -1.134029 2.028338 9855556
0.3905769 -1.134029 2.028338 10250055
0.39096716 -1.0800276 1.9317503 9921860
0.40995637 -1.0800276 1.9317503 10184262
0.42894554 -1.0800276 1.9317503 10184262
0.44793475 -1.0800276 1.9317503 10118468
0.46692392 -1.0800276 1.9317503 10250312
0.48591313 -1.0800276 1.9317503 10118470
0.53014749 -1.134029 2.028338 10184518
0.55008614 -1.134029 2.028338 10315337
0.57002479 -1.134029 2.028338 10052420
0.58996344 -1.134029 2.028338 10249801
0.58085907 -1.0800276 1.9317503 10184264
0.59984827 -1.0800276 1.9317503 10052677
0.61883748 -1.0800276 1.9317503 10118726
0.63782668 -1.0800276 1.9317503 9855812
0.65681589 -1.0800276 1.9317503 10184264
0.78843927 -1.2600323 2.2537088 9791044
0.85827523 -1.3341517 2.3862798 10118213
0.88173252 -1.3341517 2.3862798 9921347
0.90518975 -1.3341517 2.3862798 9920837
0.92864698 -1.3341517 2.3862798 9790022
0.89920956 -1.2600323 2.2537088 9592901
0.8728708 -1.1937147 2.1350925 9658690
0.89385885 -1.1937147 2.1350925 9395518
0.96567178 -1.2600323 2.2537088 9723971
1.0459331 -1.3341517 2.3862798 9395007
1.0693904 -1.3341517 2.3862798 9067582
1.1611506 -1.4175363 2.5354223 9264450
1.2651454 -1.5120386 2.7044504 9198659
1.2109972 -1.4175363 2.5354223 9001793
1.2359205 -1.4175363 2.5354223 9133122
1.2608439 -1.4175363 2.5354223 9199170
1.2857672 -1.4175363 2.5354223 9396807
1.3106905 -1.4175363 2.5354223 9396549
1.4246547 -1.5120386 2.7044504 9790279
1.4512396 -1.5120386 2.7044504 9857098
1.3854605 -1.4175363 2.5354223 10249805
1.4103838 -1.4175363 2.5354223 10184010
1.4353071 -1.4175363 2.5354223 9856585
1.4602304 -1.4175363 2.5354223 10184264
1.4851537 -1.4175363 2.5354223 10053194
1.510077 -1.4175363 2.5354223 10184780
1.4447062 -1.3341517 2.3862798 10381387
1.4681635 -1.3341517 2.3862798 10577739
1.4916207 -1.3341517 2.3862798 10381385
1.5150779 -1.3341517 2.3862798 10839884
1.5385351 -1.3341517 2.3862798 10447180
1.5619924 -1.3341517 2.3862798 10579020
1.5854496 -1.3341517 2.3862798 10578763
1.6089069 -1.3341517 2.3862798 10381130
1.6323642 -1.3341517 2.3862798 10448206
1.6558213 -1.3341517 2.3862798 10381644
1.5859854 -1.2600323 2.2537088 10513229
1.6081395 -1.2600323 2.2537088 10513228
1.7261931 -1.3341517 2.3862798 10513228
1.7496502 -1.3341517 2.3862798 10577991
1.7731075 -1.3341517 2.3862798 10120011
1.7965648 -1.3341517 2.3862798 10250570
1.820022 -1.3341517 2.3862798 10577739
1.8434793 -1.3341517 2.3862798 10381389
1.8669364 -1.3341517 2.3862798 10184779
1.8903937 -1.3341517 2.3862798 10184265
1.9138509 -1.3341517 2.3862798 10316620
1.9373082 -1.3341517 2.3862798 10119241
1.9607655 -1.3341517 2.3862798 10315851
1.9842227 -1.3341517 2.3862798 9987660
2.1331599 -1.4175363 2.5354223 10184264
2.4663808 -1.6200414 2.8976254 9922378
2.4948645 -1.6200414 2.8976254 9987401
2.3551252 -1.5120386 2.7044504 9791047
2.3817101 -1.5120386 2.7044504 9791305
2.2577765 -1.4175363 2.5354223 9725256
2.2826998 -1.4175363 2.5354223 9791049
2.3076231 -1.4175363 2.5354223 9857100
2.4880495 -1.5120386 2.7044504 9790022
2.5146344 -1.5120386 2.7044504 9724230
2.5412192 -1.5120386 2.7044504 9593670
2.5678041 -1.5120386 2.7044504 9593415
2.594389 -1.5120386 2.7044504 9724233
2.6209738 -1.5120386 2.7044504 9593417
2.6475587 -1.5120386 2.7044504 9527883
2.5070097 -1.4175363 2.5354223 9528397
2.5319331 -1.4175363 2.5354223 9724745
2.5568564 -1.4175363 2.5354223 9592901
2.5817795 -1.4175363 2.5354223 9527622
2.6067028 -1.4175363 2.5354223 9593671
2.6316261 -1.4175363 2.5354223 9592390
2.5002818 -1.3341517 2.3862798 9593416
2.5237391 -1.3341517 2.3862798 9790280
2.5471964 -1.3341517 2.3862798 10053451
2.5706537 -1.3341517 2.3862798 10381900
2.594111 -1.3341517 2.3862798 10710864
2.617568 -1.3341517 2.3862798 10907472
2.8060894 -1.4175363 2.5354223 11301716
2.8310127 -1.4175363 2.5354223 11564631
2.8559361 -1.4175363 2.5354223 11697498
2.8808594 -1.4175363 2.5354223 11762776
3.0995014 -1.5120386 2.7044504 11959640
3.1260862 -1.5120386 2.7044504 12221785
3.1526711 -1.5120386 2.7044504 12221785
3.179256 -1.5120386 2.7044504 12222557
3.005476 -1.4175363 2.5354223 12353373
3.2324257 -1.5120386 2.7044504 12352603
3.2590106 -1.5120386 2.7044504 12156766
3.2855954 -1.5120386 2.7044504 11959383
3.5487647 -1.6200414 2.8976254 12090713
0 0 0 12090199
0 0 0 12353372
0 0 0 12156766
0 0 0 12155737
0 0 0 12090458
0 0 0 11762265
0 0 0 11630938
0 0 0 7818552
0 0 0 7884087
-2.5481822 -1.1727266 2.1350925 7687478
-2.667594 -1.2378782 2.2537088 7621684
-2.6454399 -1.2378782 2.2537088 7884085
-2.6232858 -1.2378782 2.2537088 7949365
-2.6011317 -1.2378782 2.2537088 8277816
-2.5789776 -1.2378782 2.2537088 8015416
-2.5568237 -1.2378782 2.2537088 8146487
-2.5346696 -1.2378782 2.2537088 8146998
-2.5125155 -1.2378782 2.2537088 8081720
-2.4903615 -1.2378782 2.2537088 8213050
-2.4682074 -1.2378782 2.2537088 8278330
-2.201448 -1.1140904 2.028338 8278074
-2.1815093 -1.1140904 2.028338 8278074
-2.1615708 -1.1140904 2.028338 8344379
-2.2543495 -1.1727266 2.1350925 8475707
-2.1216934 -1.1140904 2.028338 8344632
-2.1017547 -1.1140904 2.028338 8541497
-2.0818162 -1.1140904 2.028338 8607033
-2.1703973 -1.1727266 2.1350925 8541756
0 0 0 8475709
0 0 0 8541244
-2.2245128 -1.2378782 2.2537088 8541501
-2.2023587 -1.2378782 2.2537088 8541502
-1.9621842 -1.1140904 2.028338 8212539
0 0 0 8475453
0 0 0 8540988
0 0 0 8475963
0 0 0 8541756
0 0 0 8476219
0 0 0 8410429
0 0 0 8475708
0 0 0 8475709
-1.6206692 -1.0128094 1.8439435 8475963
-0.80127162 -0.5064047 0.92197174 8542269
-0.79220855 -0.5064047 0.92197174 8542269
-0.80135828 -0.51818156 0.94341296 8607547
-1.7029817 -1.1140904 2.028338 8476222
-0.78281069 -0.51818156 0.94341296 8411453
-1.6631044 -1.1140904 2.028338 8672574
-0.73029584 -0.49515125 0.90148348 8541756
0 0 0 8541242
0 0 0 8475962
0 0 0 8541757
-0.61310238 -0.43689817 0.79542661 8345406
-0.60528326 -0.43689817 0.79542661 8541755
-0.5974642 -0.43689817 0.79542661 8804412
-0.58964515 -0.43689817 0.79542661 8541498
-0.80197644 -0.602211 1.0963988 8475963
-0.79119879 -0.602211 1.0963988 8475962
0 0 0 8607290
-0.79102254 -0.6189391 1.1268544 8541756
-0.40111482 -0.31831154 0.57952511 8607292
-0.3898488 -0.31382826 0.57136279 8738108
-0.3897213 -0.31831154 0.57952511 8804158
-0.48875847 -0.40512374 0.73757738 8738619
-0.46461308 -0.3909089 0.71169752 8541756
-0.38359076 -0.32767361 0.59656996 8738876
-0.37225214 -0.32292473 0.587924 8869948
-0.36647281 -0.32292473 0.587924 8804670
-0.36069348 -0.32292473 0.587924 9001789
-0.32652107 -0.29709077 0.5408901 8738619
-0.30112883 -0.27852261 0.50708449 8804154
-0.29248807 -0.27508402 0.50082415 8804412
-0.28756493 -0.27508402 0.50082415 8607547
-0.2826418 -0.27508402 0.50082415 8541756
-0.27771869 -0.27508402 0.50082415 8672827
-0.27279556 -0.27508402 0.50082415 8935998
-0.26141769 -0.26845551 0.48875612 7751724
-0.25974262 -0.27172935 0.49471655 8278068
-0.24881096 -0.26525959 0.48293757 8145459
-0.24119234 -0.2621389 0.47725597 7883315
-0.23650089 -0.2621389 0.47725597 6437927
-0.23739521 -0.26845551 0.48875612 4728600
0 0 0 4531481
0 0 0 4136466
0 0 0 3610896
-0.21817723 -0.26845551 0.48875612 3085843
-0.21083258 -0.26525959 0.48293757 2626580
-0.20856825 -0.26845551 0.48875612 2034959
-0.20376375 -0.26845551 0.48875612 1706767
-0.19895926 -0.26845551 0.48875612 1641231
-0.19415477 -0.26845551 0.48875612 1707022
-0.18935026 -0.26845551 0.48875612 1969424
-0.18679634 -0.27172935 0.49471655 2494481
-0.18648158 -0.27852261 0.50708449 3480085
-0.18149692 -0.27852261 0.50708449 2428172
-0.17651226 -0.27852261 0.50708449 2166029
-0.17369881 -0.2820482 0.51350325 2495508
-0.16865106 -0.2820482 0.51350325 2034444
-0.16360331 -0.2820482 0.51350325 1903374
-0.16058831 -0.2856642 0.52008665 2034446
-0.15749499 -0.28937411 0.52684098 3742225
-0.15432028 -0.29318166 0.53377312 6438444
-0.15519957 -0.30523023 0.555709 8278330
-0.14973693 -0.30523023 0.555709 8145971
-0.14427428 -0.30523023 0.555709 9000508
-0.13510999 -0.29709077 0.5408901 8803898
-0.12979302 -0.29709077 0.5408901 8672569
-0.12447605 -0.29709077 0.5408901 8737334
-0.1224237 -0.30523023 0.555709 9198139
-0.11696105 -0.30523023 0.555709 9395005
-0.11796208 -0.32292473 0.587924 9132860
0 0 0 9461311
0 0 0 9329471
0 0 0 9067583
0 0 0 9329471
0 0 0 9329982
0 0 0 9461054
0 0 0 9395266
0 0 0 9330241
0 0 0 9199170
0 0 0 9395264
0 0 0 9461057
0 0 0 9460541
-0.13433339 -1.0128094 1.8439435 9460799
-0.11620734 -1.0128094 1.8439435 9460798
-0.10275183 -1.0610384 1.9317503 9395777
-0.083762638 -1.0610384 1.9317503 9592895
-0.064773448 -1.0610384 1.9317503 9199168
-0.045784254 -1.0610384 1.9317503 9330240
-0.023445677 -0.92840862 1.6902815 9132864
-0.0068301349 -0.92840862 1.6902815 9461568
0.011183324 -1.0610384 1.9317503 9330496
0.030172516 -1.0610384 1.9317503 9329728
0.04916171 -1.0610384 1.9317503 9723712
0.0681509 -1.0610384 1.9317503 9461313
0.087140091 -1.0610384 1.9317503 9395516
0.10612928 -1.0610384 1.9317503 9723713
0.12511848 -1.0610384 1.9317503 9396546
0.15131307 -1.1140904 2.028338 9396034
0.17125171 -1.1140904 2.028338 9855045
0.18208605 -1.0610384 1.9317503 9592129
0.19193546 -1.0128094 1.8439435 9723972
0.21006151 -1.0128094 1.8439435 9789506
0.22818756 -1.0128094 1.8439435 9789504
0.25804281 -1.0610384 1.9317503 9659460
0.27703202 -1.0610384 1.9317503 9921090
0.28256571 -1.0128094 1.8439435 9921092
0.28761819 -0.9687742 1.763772 9856069
0.29224965 -0.92840862 1.6902815 9592381
0.30886519 -0.92840862 1.6902815 9856070
0.37197798 -1.0610384 1.9317503 9921603
0.39096716 -1.0610384 1.9317503 9986885
0.40995637 -1.0610384 1.9317503 9986372
0.40944803 -1.0128094 1.8439435 10052678
0.42757407 -1.0128094 1.8439435 9987653
0.44570011 -1.0128094 1.8439435 10118726
0.48591313 -1.0610384 1.9317503 10250055
0.5049023 -1.0610384 1.9317503 10250055
0.52389151 -1.0610384 1.9317503 9986885
0.57002479 -1.1140904 2.028338 10249541
0.56186992 -1.0610384 1.9317503 10117957
0.58085907 -1.0610384 1.9317503 10184006
0.59984827 -1.0610384 1.9317503 9921860
0.61883748 -1.0610384 1.9317503 10118469
0.63782668 -1.0610384 1.9317503 9987656
0.68965667 -1.1140904 2.028338 9920836
0.78843927 -1.2378782 2.2537088 9855810
0.81059337 -1.2378782 2.2537088 10182981
0.88173252 -1.3106945 2.3862798 9724996
0.90518975 -1.3106945 2.3862798 9790276
0.92864698 -1.3106945 2.3862798 9330756
0.89920956 -1.2378782 2.2537088 9460801
0.8728708 -1.1727266 2.1350925 9527104
0.89385885 -1.1727266 2.1350925 9526080
0.96567178 -1.2378782 2.2537088 9198398
1.0459331 -1.3106945 2.3862798 8673083
1.0693904 -1.3106945 2.3862798 8673599
1.1611506 -1.3926129 2.5354223 9068100
1.1860739 -1.3926129 2.5354223 9264452
1.2109972 -1.3926129 2.5354223 9330245
1.1632193 -1.3106945 2.3862798 9396807
1.1866766 -1.3106945 2.3862798 9527879
1.2101338 -1.3106945 2.3862798 9856072
1.3106905 -1.3926129 2.5354223 9791307
1.3356138 -1.3926129 2.5354223 9988171
1.3605372 -1.3926129 2.5354223 10118987
1.3854605 -1.3926129 2.5354223 10184778
1.4103838 -1.3926129 2.5354223 10315849
1.4353071 -1.3926129 2.5354223 10382413
1.4602304 -1.3926129 2.5354223 10185034
1.4851537 -1.3926129 2.5354223 10447178
1.4212489 -1.3106945 2.3862798 10579021
1.4447062 -1.3106945 2.3862798 10644813
1.4681635 -1.3106945 2.3862798 10710095
1.4916207 -1.3106945 2.3862798 10512717
1.5150779 -1.3106945 2.3862798 10972751
1.5385351 -1.3106945 2.3862798 10710093
1.6596169 -1.3926129 2.5354223 10841679
1.5854496 -1.3106945 2.3862798 10775884
1.6089069 -1.3106945 2.3862798 10776653
1.6323642 -1.3106945 2.3862798 10710349
1.6558213 -1.3106945 2.3862798 10513484
1.5859854 -1.2378782 2.2537088 10710093
1.6081395 -1.2378782 2.2537088 10577995
1.6302935 -1.2378782 2.2537088 10381641
1.7496502 -1.3106945 2.3862798 10644556
1.8839267 -1.3926129 2.5354223 10447436
1.9088501 -1.3926129 2.5354223 10447434
1.9337734 -1.3926129 2.5354223 10381130
1.8434793 -1.3106945 2.3862798 10645070
1.8669364 -1.3106945 2.3862798 10316620
1.8903937 -1.3106945 2.3862798 10381643
1.9138509 -1.3106945 2.3862798 10382413
1.9373082 -1.3106945 2.3862798 10447949
1.9607655 -1.3106945 2.3862798 10381643
1.9842227 -1.3106945 2.3862798 10250573
2.437897 -1.5915576 2.8976254 10250060
2.4663808 -1.5915576 2.8976254 10184523
2.3285403 -1.4854537 2.7044504 10184524
2.3551252 -1.4854537 2.7044504 9921862
2.2328532 -1.3926129 2.5354223 10185033
2.2577765 -1.3926129 2.5354223 10250057
2.2826998 -1.3926129 2.5354223 10053196
2.3076231 -1.3926129 2.5354223 9791050
2.3325465 -1.3926129 2.5354223 9922379
2.3574698 -1.3926129 2.5354223 9986631
2.3823931 -1.3926129 2.5354223 9659206
2.4073164 -1.3926129 2.5354223 9594186
2.4322398 -1.3926129 2.5354223 9856334
2.6209738 -1.4854537 2.7044504 9921612
2.6475587 -1.4854537 2.7044504 9527624
2.5070097 -1.3926129 2.5354223 9790023
2.5319331 -1.3926129 2.5354223 9856072
2.5568564 -1.3926129 2.5354223 9724231
2.5817795 -1.3926129 2.5354223 9724488
2.6067028 -1.3926129 2.5354223 9461573
2.4768248 -1.3106945 2.3862798 9593413
2.5002818 -1.3106945 2.3862798 9593413
2.5237391 -1.3106945 2.3862798 9790278
2.5471964 -1.3106945 2.3862798 10184263
2.5706537 -1.3106945 2.3862798 10578248
2.594111 -1.3106945 2.3862798 10841935
2.7811661 -1.3926129 2.5354223 10907727
2.8060894 -1.3926129 2.5354223 11039058
2.8310127 -1.3926129 2.5354223 11498324
2.8559361 -1.3926129 2.5354223 11564371
2.8808594 -1.3926129 2.5354223 11893848
3.0995014 -1.4854537 2.7044504 11959385
3.1260862 -1.4854537 2.7044504 12025178
3.1526711 -1.4854537 2.7044504 12222043
3.179256 -1.4854537 2.7044504 12616028
3.2058408 -1.4854537 2.7044504 12353371
3.2324257 -1.4854537 2.7044504 12419166
3.2590106 -1.4854537 2.7044504 12157021
3.5202808 -1.5915576 2.8976254 12288090
3.5487647 -1.5915576 2.8976254 12354141
0 0 0 11958613
0 0 0 12221272
0 0 0 12155480
0 0 0 11959641
0 0 0 12024406
0 0 0 11696470
0 0 0 11630937
0 0 0 7950650
0 0 0 7949880
0 0 0 7818810
0 0 0 7949880
-9.5235834 -4.3766069 8.1133518 7884601
-2.6232858 -1.2157241 2.2537088 7686965
-2.6011317 -1.2157241 2.2537088 7949366
-2.7306821 -1.2872373 2.3862798 7949622
-2.7072248 -1.2872373 2.3862798 7818294
-2.6837676 -1.2872373 2.3862798 7883829
-2.5125155 -1.2157241 2.2537088 8081464
-2.3592896 -1.1517386 2.1350925 7753271
-2.3383017 -1.1517386 2.1350925 8015673
-2.3173137 -1.1517386 2.1350925 8081209
-2.2963254 -1.1517386 2.1350925 8213050
-2.2753375 -1.1517386 2.1350925 8344636
0 0 0 8212792
0 0 0 8213048
0 0 0 8409916
0 0 0 8278843
0 0 0 8672571
0 0 0 8607035
0 0 0 8606782
0 0 0 8607040
0 0 0 8540988
0 0 0 8409660
0 0 0 8475710
0 0 0 8541500
0 0 0 8541241
0 0 0 8410170
0 0 0 8672313
0 0 0 8541499
0 0 0 8738621
0 0 0 8475963
0 0 0 8541500
0 0 0 8475708
0 0 0 8541756
0 0 0 8410429
0 0 0 8476222
0 0 0 8475965
0 0 0 8607292
0 0 0 8738367
0 0 0 8476733
0 0 0 8607035
-0.62092143 -0.42907909 0.79542661 8738619
-0.58996642 -0.41288742 0.76541048 8345660
-0.5824424 -0.41288742 0.76541048 8607291
-0.57491839 -0.41288742 0.76541048 8738363
-0.54676181 -0.39787334 0.73757738 8606781
-0.51160568 -0.37729368 0.69942683 8541758
-0.43050522 -0.32180932 0.59656996 8673340
-0.51563537 -0.39076844 0.72440636 8607547
-0.49959317 -0.38391289 0.71169752 8804412
-0.39546531 -0.30821174 0.57136279 8738877
-0.3898488 -0.30821174 0.57136279 8607807
-0.38423228 -0.30821174 0.57136279 8542269
-0.42002684 -0.3419224 0.63385558 8673855
-0.41379601 -0.3419224 0.63385558 8738364
-0.37803146 -0.31714541 0.587924 9001278
-0.34709996 -0.29571667 0.54819942 9132092
-0.34639212 -0.29976758 0.555709 9000506
-0.34092948 -0.29976758 0.555709 8673083
-0.32222474 -0.28793466 0.53377312 8935483
-0.30112883 -0.27353793 0.50708449 8804412
-0.29248807 -0.27016091 0.50082415 8607547
-0.28756493 -0.27016091 0.50082415 8935741
-0.2826418 -0.27016091 0.50082415 8738619
-0.27771869 -0.27016091 0.50082415 8803898
-0.27279556 -0.27016091 0.50082415 8738358
-0.25830555 -0.26051229 0.48293757 8014641
-0.25355828 -0.26051229 0.48293757 7095341
-0.24881096 -0.26051229 0.48293757 7620142
-0.24119234 -0.25744745 0.47725597 6832169
-0.23650089 -0.25744745 0.47725597 4006165
-0.23456907 -0.26051229 0.48293757 2756362
-0.23259072 -0.26365101 0.48875612 2100495
-0.23341057 -0.27016091 0.50082415 1706507
-0.2177351 -0.25744745 0.47725597 1838608
-0.21304365 -0.25744745 0.47725597 1969166
-0.21083258 -0.26051229 0.48293757 1837837
-0.20856825 -0.26365101 0.48875612 1641231
-0.20376375 -0.26365101 0.48875612 1772046
-0.19895926 -0.26365101 0.48875612 1443852
-0.19415477 -0.26365101 0.48875612 1378316
-0.19165942 -0.26686627 0.49471655 1706253
-0.18679634 -0.26686627 0.49471655 1771532
-0.18648158 -0.27353793 0.50708449 1968139
-0.18149692 -0.27353793 0.50708449 1509643
-0.17651226 -0.27353793 0.50708449 1443594
-0.17152759 -0.27353793 0.50708449 1378058
-0.16654293 -0.27353793 0.50708449 1378059
-0.16360331 -0.27700043 0.51350325 1706252
-0.15855554 -0.27700043 0.51350325 1903374
-0.15547584 -0.28055173 0.52008665 1903631
-0.15231612 -0.28419524 0.52684098 2954515
-0.14907327 -0.28793466 0.53377312 6306602
-0.14574394 -0.2917738 0.5408901 7685935
-0.14427428 -0.29976758 0.555709 8475447
-0.13881163 -0.29976758 0.555709 8869690
-0.12979302 -0.2917738 0.5408901 9000506
-0.12447605 -0.2917738 0.5408901 8804414
-0.11915907 -0.2917738 0.5408901 9131838
-0.11696105 -0.29976758 0.555709 9263935
-0.11149842 -0.29976758 0.555709 9198655
0 0 0 9067323
0 0 0 9329725
0 0 0 9395264
0 0 0 9657923
0 0 0 9526335
0 0 0 9329725
0 0 0 9198139
0 0 0 9263930
0 0 0 9264704
0 0 0 9330239
0 0 0 9395262
0 0 0 9460798
0 0 0 9460798
0 0 0 9395518
-0.10275183 -1.0420492 1.9317503 9461823
-0.083762638 -1.0420492 1.9317503 9395516
-0.059140973 -0.95143622 1.763772 9395518
-0.041803014 -0.95143622 1.763772 9592127
-0.022507852 -0.87532133 1.6226703 9264450
-0.0065569296 -0.87532133 1.6226703 9264702
0.010210861 -0.95143622 1.763772 9461571
0.02754882 -0.95143622 1.763772 9462083
0.046927087 -0.99468333 1.8439435 9789505
0.059632037 -0.91179305 1.6902815 9658179
0.087140091 -1.0420492 1.9317503 9657407
0.092863128 -0.91179305 1.6902815 9723713
0.12511848 -1.0420492 1.9317503 9789506
0.15131307 -1.0941517 2.028338 9396547
0.17125171 -1.0941517 2.028338 9461570
0.18208605 -1.0420492 1.9317503 9592640
0.20107524 -1.0420492 1.9317503 9723971
0.22006443 -1.0420492 1.9317503 9855043
0.23905364 -1.0420492 1.9317503 9789763
0.25804281 -1.0420492 1.9317503 9724738
0.26443964 -0.99468333 1.8439435 9724483
0.27028024 -0.95143622 1.763772 9986883
0.28761819 -0.95143622 1.763772 9986885
0.29224965 -0.91179305 1.6902815 9986370
0.30886519 -0.91179305 1.6902815 9921347
0.32548073 -0.91179305 1.6902815 9855554
0.34209627 -0.91179305 1.6902815 10184007
0.35871181 -0.91179305 1.6902815 10118469
0.39164594 -0.95143622 1.763772 10052421
0.42757407 -0.99468333 1.8439435 10118470
0.44570011 -0.99468333 1.8439435 9921348
0.48591313 -1.0420492 1.9317503 9987654
0.5049023 -1.0420492 1.9317503 9921090
0.52389151 -1.0420492 1.9317503 10052678
0.54288071 -1.0420492 1.9317503 9921862
0.56186992 -1.0420492 1.9317503 9855815
0.58085907 -1.0420492 1.9317503 9986885
0.59984827 -1.0420492 1.9317503 10052166
0.61883748 -1.0420492 1.9317503 9987401
0.63782668 -1.0420492 1.9317503 9986885
0.68965667 -1.0941517 2.028338 9855813
0.70959538 -1.0941517 2.028338 9527105
0.81059337 -1.2157241 2.2537088 10051393
0.8327474 -1.2157241 2.2537088 9461314
0.85490143 -1.2157241 2.2537088 9592129
0.92864698 -1.2872373 2.3862798 9396547
0.95210421 -1.2872373 2.3862798 9526080
0.97556144 -1.2872373 2.3862798 9133376
0.99901867 -1.2872373 2.3862798 8738878
1.022476 -1.2872373 2.3862798 8804929
1.0459331 -1.2872373 2.3862798 9329987
1.0693904 -1.2872373 2.3862798 9592645
1.0928476 -1.2872373 2.3862798 9134406
1.1163049 -1.2872373 2.3862798 9593416
1.0197872 -1.1517386 2.1350925 9921608
1.0985961 -1.2157241 2.2537088 9856326
1.1207502 -1.2157241 2.2537088 10053707
1.2101338 -1.2872373 2.3862798 10250057
1.2335911 -1.2872373 2.3862798 10447436
1.3356138 -1.3676896 2.5354223 10513227
1.3605372 -1.3676896 2.5354223 10513995
1.3854605 -1.3676896 2.5354223 10513227
1.4103838 -1.3676896 2.5354223 10776399
1.4353071 -1.3676896 2.5354223 10579021
1.4602304 -1.3676896 2.5354223 10775886
1.3977917 -1.2872373 2.3862798 10710606
1.4212489 -1.2872373 2.3862798 10578763
1.4447062 -1.2872373 2.3862798 10776396
1.4681635 -1.2872373 2.3862798 10710860
1.4916207 -1.2872373 2.3862798 10775886
1.5150779 -1.2872373 2.3862798 10776142
1.5385351 -1.2872373 2.3862798 10645070
1.6596169 -1.3676896 2.5354223 10841934
1.5854496 -1.2872373 2.3862798 10710860
1.6089069 -1.2872373 2.3862798 10776141
1.6323642 -1.2872373 2.3862798 10907472
1.6558213 -1.2872373 2.3862798 10906956
1.6792786 -1.2872373 2.3862798 10907471
1.7027358 -1.2872373 2.3862798 10906958
1.7261931 -1.2872373 2.3862798 10907213
1.8590034 -1.3676896 2.5354223 10907726
1.8839267 -1.3676896 2.5354223 10644300
1.9088501 -1.3676896 2.5354223 10710092
1.9337734 -1.3676896 2.5354223 10841164
1.8434793 -1.2872373 2.3862798 10513997
1.8669364 -1.2872373 2.3862798 10644813
1.8903937 -1.2872373 2.3862798 10579020
1.9138509 -1.2872373 2.3862798 10644813
1.9373082 -1.2872373 2.3862798 10513227
1.9607655 -1.2872373 2.3862798 10513227
2.4094131 -1.5630738 2.8976254 10512970
2.6254277 -1.6833104 3.1205199 10185034
2.6561024 -1.6833104 3.1205199 10382413
2.1830065 -1.3676896 2.5354223 10185034
2.2079298 -1.3676896 2.5354223 10250569
2.2328532 -1.3676896 2.5354223 10381641
2.2577765 -1.3676896 2.5354223 10184524
2.2826998 -1.3676896 2.5354223 10118730
2.3076231 -1.3676896 2.5354223 9921608
2.3325465 -1.3676896 2.5354223 9987401
2.3574698 -1.3676896 2.5354223 10183751
2.3823931 -1.3676896 2.5354223 9856582
2.4073164 -1.3676896 2.5354223 9922382
2.4322398 -1.3676896 2.5354223 9725003
2.6209738 -1.4588689 2.7044504 9724746
2.6475587 -1.4588689 2.7044504 10053194
2.5070097 -1.3676896 2.5354223 9724999
2.5319331 -1.3676896 2.5354223 9659207
2.7273133 -1.4588689 2.7044504 9659208
2.7538981 -1.4588689 2.7044504 9724233
2.780483 -1.4588689 2.7044504 9724233
2.4768248 -1.2872373 2.3862798 9593417
2.5002818 -1.2872373 2.3862798 9659208
2.5237391 -1.2872373 2.3862798 9921866
2.5471964 -1.2872373 2.3862798 10250827
2.5706537 -1.2872373 2.3862798 10906702
2.9399922 -1.4588689 2.7044504 10841936
2.9665771 -1.4588689 2.7044504 11039060
2.9931619 -1.4588689 2.7044504 11237204
2.8310127 -1.3676896 2.5354223 11695441
2.8559361 -1.3676896 2.5354223 11827798
3.0729165 -1.4588689 2.7044504 12025180
3.0995014 -1.4588689 2.7044504 11959385
3.1260862 -1.4588689 2.7044504 12090199
3.1526711 -1.4588689 2.7044504 12222041
3.179256 -1.4588689 2.7044504 11959642
3.2058408 -1.4588689 2.7044504 12090970
3.2324257 -1.4588689 2.7044504 12157018
3.4917972 -1.5630738 2.8976254 12222554
3.5202808 -1.5630738 2.8976254 12090969
3.5487647 -1.5630738 2.8976254 12025176
5.5646091 -2.4314482 4.5074177 11959383
0 0 0 12221528
0 0 0 11762778
0 0 0 11697497
0 0 0 11631447
0 0 0 11762264
0 0 0 11696472
0 0 0 8081464
0 0 0 8015419
0 0 0 7753273
0 0 0 7884345
0 0 0 7950393
-9.4438286 -4.2968521 8.1133518 7884857
-2.7541394 -1.26378 2.3862798 7753784
-2.7306821 -1.26378 2.3862798 7820093
-2.7072248 -1.26378 2.3862798 7753271
-2.8515031 -1.3427663 2.5354223 7884603
-3.4788675 -1.6526355 3.1205199 7752759
-2.3592896 -1.1307505 2.1350925 7884085
-2.3383017 -1.1307505 2.1350925 7949880
-2.3173137 -1.1307505 2.1350925 8081464
-7.2716975 -3.5807099 6.761126 7949880
0 0 0 8146744
0 0 0 8343350
0 0 0 8409656
0 0 0 8278331
0 0 0 8344636
0 0 0 8278843
0 0 0 8344123
0 0 0 8409659
0 0 0 8606268
0 0 0 8344123
0 0 0 8542012
0 0 0 8344637
0 0 0 8410172
0 0 0 8475964
0 0 0 8607034
0 0 0 8475963
0 0 0 8542269
0 0 0 8607551
0 0 0 8607550
0 0 0 8475709
0 0 0 8541244
0 0 0 8607292
0 0 0 8738623
0 0 0 8738619
0 0 0 8410683
0 0 0 8607549
0 0 0 8607549
0 0 0 8541502
0 0 0 8738106
-0.62092143 -0.42126 0.79542661 8738363
-0.61310238 -0.42126 0.79542661 8542267
-0.60528326 -0.42126 0.79542661 8542269
-0.55401224 -0.39062291 0.73757738 8738363
-0.53699821 -0.3836475 0.72440636 8607291
-0.51160568 -0.37041828 0.69942683 8869953
-0.50473028 -0.37041828 0.69942683 8541756
-0.51563537 -0.3836475 0.72440636 8607548
-0.50851446 -0.3836475 0.72440636 8738621
-0.40111482 -0.30691803 0.57952511 8804410
-0.38443422 -0.29839253 0.56342721 8935743
-0.37889573 -0.29839253 0.56342721 8738619
-0.42002684 -0.33569157 0.63385558 8673340
-0.41379601 -0.33569157 0.63385558 8869950
-0.35731742 -0.29430494 0.555709 8738106
-0.34709996 -0.29032785 0.54819942 8804411
-0.33271876 -0.28268763 0.53377312 8738619
-0.32747173 -0.28268763 0.53377312 8738619
-0.31396255 -0.27543926 0.52008665 8804410
-0.30112883 -0.26855326 0.50708449 8935998
-0.29248807 -0.26523778 0.50082415 8672828
-0.28756493 -0.26523778 0.50082415 8935998
-0.2826418 -0.26523778 0.50082415 8935485
-0.27433187 -0.26200318 0.49471655 8738619
-0.27279556 -0.26523778 0.50082415 8671543
-0.25830555 -0.25576499 0.48293757 8277555
-0.25661319 -0.25884652 0.48875612 7620661
-0.24881096 -0.25576499 0.48293757 6175010
-0.24406366 -0.25576499 0.48293757 4595986
-0.23931637 -0.25576499 0.48293757 2559502
-0.23456907 -0.25576499 0.48293757 1837838
-0.22982177 -0.25576499 0.48293757 1378059
-0.22242655 -0.252756 0.47725597 1509645
-0.2152033 -0.24981698 0.47170648 1509645
-0.21304365 -0.252756 0.47725597 1443852
-0.21083258 -0.25576499 0.48293757 1706254
-0.20856825 -0.25884652 0.48875612 1378060
-0.20376375 -0.25884652 0.48875612 1575438
-0.19659069 -0.25576499 0.48293757 1443853
-0.19184339 -0.25576499 0.48293757 1575438
-0.19165942 -0.26200318 0.49471655 1575438
-0.18679634 -0.26200318 0.49471655 1509131
-0.18417934 -0.26523778 0.50082415 1312524
-0.18149692 -0.26855326 0.50708449 1312266
-0.17651226 -0.26855326 0.50708449 1246474
-0.16940996 -0.26523778 0.50082415 1246731
-0.16448684 -0.26523778 0.50082415 1312524
-0.15956371 -0.26523778 0.50082415 1312523
-0.15657361 -0.26855326 0.50708449 1378316
-0.15547584 -0.27543926 0.52008665 1378316
-0.15231612 -0.27901638 0.52684098 1509645
-0.14713725 -0.27901638 0.52684098 2297616
-0.14382626 -0.28268763 0.53377312 4927266
-0.14427428 -0.29430494 0.555709 6768173
-0.14901838 -0.315945 0.59656996 8278327
-0.14315407 -0.315945 0.59656996 8738105
-0.12447605 -0.28645682 0.5408901 8869690
-0.11915907 -0.28645682 0.5408901 9067071
-0.1153805 -0.29032785 0.54819942 8870205
-0.10852512 -0.28645682 0.5408901 9198657
-0.10460285 -0.29032785 0.54819942 9264702
-0.10057312 -0.29430494 0.555709 9329471
0 0 0 9330241
0 0 0 9526334
0 0 0 9329725
0 0 0 9329471
0 0 0 9461057
0 0 0 9395518
0 0 0 9395518
0 0 0 9264448
0 0 0 9461312
0 0 0 9395518
0 0 0 9461311
0 0 0 9526590
0 0 0 9461311
-0.076478928 -0.93409824 1.763772 9461311
-0.054409694 -0.85937041 1.6226703 9264448
-0.038458772 -0.85937041 1.6226703 9592897
-0.022507852 -0.85937041 1.6226703 9329471
-0.0065569296 -0.85937041 1.6226703 9526850
0.0097854082 -0.89517748 1.6902815 9591613
0.026400952 -0.89517748 1.6902815 9658432
0.043016493 -0.89517748 1.6902815 9527104
0.059632037 -0.89517748 1.6902815 9395775
0.087140091 -1.02306 1.9317503 9592898
0.11143576 -1.074213 2.028338 9658436
0.1313744 -1.074213 2.028338 9723713
0.15131307 -1.074213 2.028338 9724483
0.14891453 -0.93409824 1.763772 9658436
0.18208605 -1.02306 1.9317503 9986885
0.19193546 -0.97655731 1.8439435 9789506
0.21006151 -0.97655731 1.8439435 9790533
0.20917192 -0.89517748 1.6902815 9790018
0.22578748 -0.89517748 1.6902815 9724229
0.24240302 -0.89517748 1.6902815 9855556
0.27028024 -0.93409824 1.763772 10052677
0.26460874 -0.85937041 1.6226703 9921094
0.28055966 -0.85937041 1.6226703 9921605
0.29651058 -0.85937041 1.6226703 9790276
0.32548073 -0.89517748 1.6902815 9790276
0.34209627 -0.89517748 1.6902815 9921348
0.35871181 -0.89517748 1.6902815 10184003
0.37532735 -0.89517748 1.6902815 10314819
0.40898389 -0.93409824 1.763772 10052424
0.44570011 -0.97655731 1.8439435 10052676
0.48591313 -1.02306 1.9317503 9987141
0.5049023 -1.02306 1.9317503 9986627
0.52389151 -1.02306 1.9317503 9856067
0.54288071 -1.02306 1.9317503 9986370
0.56186992 -1.02306 1.9317503 9790022
0.58085907 -1.02306 1.9317503 9789762
0.59984827 -1.02306 1.9317503 9921092
0.61883748 -1.02306 1.9317503 9724483
0.66971803 -1.074213 2.028338 9724229
0.68965667 -1.074213 2.028338 9723970
0.70959538 -1.074213 2.028338 9527877
0.76793051 -1.1307505 2.1350925 9461829
0.88173252 -1.26378 2.3862798 9329473
0.8099066 -1.1307505 2.1350925 9067842
0.92864698 -1.26378 2.3862798 9001280
0.95210421 -1.26378 2.3862798 9199172
0.97556144 -1.26378 2.3862798 9001791
0.99901867 -1.26378 2.3862798 9396551
1.022476 -1.26378 2.3862798 9528135
1.0459331 -1.26378 2.3862798 9986374
1.0693904 -1.26378 2.3862798 9790021
1.0928476 -1.26378 2.3862798 9922378
1.054288 -1.1935701 2.2537088 10053448
1.076442 -1.1935701 2.2537088 10119241
1.0985961 -1.1935701 2.2537088 10184778
1.1207502 -1.1935701 2.2537088 10447435
1.2101338 -1.26378 2.3862798 10644813
1.2335911 -1.26378 2.3862798 10841933
1.2570482 -1.26378 2.3862798 10906702
1.3605372 -1.3427663 2.5354223 10775627
1.3854605 -1.3427663 2.5354223 10972750
1.4103838 -1.3427663 2.5354223 10973517
1.4353071 -1.3427663 2.5354223 10973262
1.4602304 -1.3427663 2.5354223 10973005
1.3977917 -1.26378 2.3862798 10907726
1.4212489 -1.26378 2.3862798 10973519
1.4447062 -1.26378 2.3862798 10842446
1.4681635 -1.26378 2.3862798 10906956
1.4916207 -1.26378 2.3862798 10907472
1.5150779 -1.26378 2.3862798 11169874
1.5385351 -1.26378 2.3862798 11235662
1.5619924 -1.26378 2.3862798 11104335
1.5854496 -1.26378 2.3862798 10972747
1.6089069 -1.26378 2.3862798 10973264
1.6323642 -1.26378 2.3862798 10972495
1.6558213 -1.26378 2.3862798 10973520
1.6792786 -1.26378 2.3862798 10973262
1.7027358 -1.26378 2.3862798 11104335
1.7261931 -1.26378 2.3862798 10972752
1.8590034 -1.3427663 2.5354223 10776144
1.8839267 -1.3427663 2.5354223 10973267
1.9088501 -1.3427663 2.5354223 10775373
1.820022 -1.26378 2.3862798 10841933
1.8434793 -1.26378 2.3862798 10776143
1.8669364 -1.26378 2.3862798 10710606
1.8903937 -1.26378 2.3862798 10710606
2.0334666 -1.3427663 2.5354223 10644813
1.9373082 -1.26378 2.3862798 10776141
1.9607655 -1.26378 2.3862798 10382413
1.9842227 -1.26378 2.3862798 10185550
2.6254277 -1.6526355 3.1205199 10513999
2.1580832 -1.3427663 2.5354223 10251339
2.1830065 -1.3427663 2.5354223 10513997
2.2079298 -1.3427663 2.5354223 10316618
2.2328532 -1.3427663 2.5354223 10185035
2.2577765 -1.3427663 2.5354223 10118987
2.2826998 -1.3427663 2.5354223 10250057
2.3076231 -1.3427663 2.5354223 9987401
2.3325465 -1.3427663 2.5354223 10184779
2.3574698 -1.3427663 2.5354223 10119241
2.3823931 -1.3427663 2.5354223 9987657
2.4073164 -1.3427663 2.5354223 10053964
2.4322398 -1.3427663 2.5354223 9987657
2.4571631 -1.3427663 2.5354223 10118987
2.4820864 -1.3427663 2.5354223 9659721
2.5070097 -1.3427663 2.5354223 9856843
2.5319331 -1.3427663 2.5354223 9593415
2.7273133 -1.432284 2.7044504 9725001
2.7538981 -1.432284 2.7044504 9725001
2.6067028 -1.3427663 2.5354223 9658696
2.4768248 -1.26378 2.3862798 9593928
2.5002818 -1.26378 2.3862798 9725514
2.5237391 -1.26378 2.3862798 10184010
2.5471964 -1.26378 2.3862798 10184779
2.7313194 -1.3427663 2.5354223 10775886
2.9399922 -1.432284 2.7044504 10907726
2.9665771 -1.432284 2.7044504 11039060
2.9931619 -1.432284 2.7044504 11105364
3.0197468 -1.432284 2.7044504 11368533
3.0463316 -1.432284 2.7044504 11631449
3.0729165 -1.432284 2.7044504 11631447
3.0995014 -1.432284 2.7044504 12024921
3.3493781 -1.53459 2.8976254 12287062
3.377862 -1.53459 2.8976254 11959642
3.4063458 -1.53459 2.8976254 12025178
3.2058408 -1.432284 2.7044504 12025177
3.4633133 -1.53459 2.8976254 12157020
3.4917972 -1.53459 2.8976254 12157021
3.5202808 -1.53459 2.8976254 12025436
3.8217468 -1.6526355 3.1205199 11959644
3.8524218 -1.6526355 3.1205199 12025435
0 0 0 11959642
0 0 0 12025176
0 0 0 11762522
0 0 0 11631449
0 0 0 11696984
0 0 0 11828056
0 0 0 8147772
0 0 0 8279102
0 0 0 8278845
0 0 0 8279102
0 0 0 8147773
0 0 0 8148029
-9.3640747 -4.2170978 8.1133518 8082236
-9.2843199 -4.2170978 8.1133518 7819578
-3.5402174 -1.6219606 3.1205199 8147003
-11.406013 -5.2713718 10.141689 8081466
-11.306319 -5.2713718 10.141689 8081464
-11.206626 -5.2713718 10.141689 8147002
-5.5534663 -2.6356859 5.0708447 7753271
-8.8057919 -4.2170978 8.1133518 7884603
-8.726037 -4.2170978 8.1133518 7883833
0 0 0 8146489
0 0 0 7884087
0 0 0 7884087
0 0 0 8080953
0 0 0 8015929
0 0 0 8081721
0 0 0 8015673
0 0 0 8146746
0 0 0 8475451
0 0 0 8344123
0 0 0 8409916
0 0 0 8475963
0 0 0 8344893
0 0 0 8147257
0 0 0 8344636
0 0 0 8278839
0 0 0 8607804
0 0 0 8475447
0 0 0 8607549
0 0 0 8541501
0 0 0 8475709
0 0 0 8607035
0 0 0 8804412
0 0 0 8738364
0 0 0 8541499
0 0 0 8672828
0 0 0 8541756
0 0 0 8607036
0 0 0 8672828
0 0 0 8672828
-0.61310238 -0.41344094 0.79542661 8738620
0 0 0 8475963
-0.54411918 -0.37652656 0.72440636 9066301
-0.53699821 -0.37652656 0.72440636 8804412
-0.52058125 -0.36992085 0.71169752 8672827
-0.51358521 -0.36992085 0.71169752 8803901
-0.50658917 -0.36992085 0.71169752 8936000
-0.50851446 -0.37652656 0.72440636 8739134
-0.5013935 -0.37652656 0.72440636 8673853
-0.38443422 -0.29285401 0.56342721 8870203
-0.37370536 -0.28884229 0.555709 8804154
-0.36824271 -0.28884229 0.555709 8608060
-0.36278006 -0.28884229 0.555709 8869949
-0.35731742 -0.28884229 0.555709 8804412
-0.33796576 -0.27744064 0.53377312 8739646
-0.33271876 -0.27744064 0.53377312 8739135
-0.32321885 -0.27383751 0.52684098 8870205
-0.31396255 -0.27032676 0.52008665 8869949
-0.30112883 -0.26356861 0.50708449 8804410
-0.29248807 -0.26031464 0.50082415 8804670
-0.28756493 -0.26031464 0.50082415 8803386
-0.27919495 -0.2571401 0.49471655 8672569
-0.27433187 -0.2571401 0.49471655 8607035
-0.26946878 -0.2571401 0.49471655 8409397
-0.2646057 -0.2571401 0.49471655 7949617
-0.25661319 -0.25404203 0.48875612 7489070
-0.24881096 -0.25101769 0.48293757 5188373
-0.24406366 -0.25101769 0.48293757 2822672
-0.23931637 -0.25101769 0.48293757 2165518
-0.22911398 -0.24518009 0.47170648 1641231
-0.22447708 -0.24518009 0.47170648 1706765
-0.21984018 -0.24518009 0.47170648 1575439
-0.2152033 -0.24518009 0.47170648 1378317
-0.21304365 -0.24806456 0.47725597 1444110
-0.20835221 -0.24806456 0.47725597 1509902
-0.20608528 -0.25101769 0.48293757 1509646
-0.20133798 -0.25101769 0.48293757 1707024
-0.19659069 -0.25101769 0.48293757 1903118
-0.19415477 -0.25404203 0.48875612 1706254
-0.19165942 -0.2571401 0.49471655 1443595
-0.18679634 -0.2571401 0.49471655 1312266
-0.18417934 -0.26031464 0.50082415 1115145
-0.1792562 -0.26031464 0.50082415 1115145
-0.17433308 -0.26031464 0.50082415 984329
-0.16940996 -0.26031464 0.50082415 1378060
-0.16448684 -0.26031464 0.50082415 1180938
-0.15956371 -0.26031464 0.50082415 1378060
-0.15464059 -0.26031464 0.50082415 1378060
-0.15158895 -0.26356861 0.50708449 1443852
-0.15036336 -0.27032676 0.52008665 1641229
-0.14713725 -0.27383751 0.52684098 1772045
-0.14195837 -0.27383751 0.52684098 2757140
-0.14427428 -0.28884229 0.555709 4465946
-0.14901838 -0.31008071 0.59656996 6830884
-0.14315407 -0.31008071 0.59656996 7949105
-0.13530004 -0.30558679 0.587924 8344376
-0.12412404 -0.29285401 0.56342721 8804669
-0.11858552 -0.29285401 0.56342721 9001278
-0.10999168 -0.28493902 0.54819942 9132092
-0.10603577 -0.28884229 0.555709 9461566
-0.10057312 -0.28884229 0.555709 9395517
0 0 0 9461055
0 0 0 9330495
0 0 0 9395007
0 0 0 9395264
0 0 0 9526334
0 0 0 9527104
0 0 0 9395518
-0.094355762 -0.47921562 0.92197174 9461057
-0.083397344 -0.46856639 0.90148348 9461057
0 0 0 9526590
0 0 0 9395775
0 0 0 9329727
0 0 0 9264702
0 0 0 9264961
-0.054409694 -0.84341949 1.6226703 9461311
-0.03697959 -0.81098032 1.5602599 9526848
-0.022507852 -0.84341949 1.6226703 9461057
-0.0068301349 -0.87856197 1.6902815 9330238
0.0097854082 -0.87856197 1.6902815 9395518
0.025344914 -0.84341949 1.6226703 9592384
0.041295838 -0.84341949 1.6226703 9592642
0.059632037 -0.87856197 1.6902815 9527360
0.087140091 -1.0040708 1.9317503 9461311
0.11143576 -1.0542744 2.028338 9396033
0.1313744 -1.0542744 2.028338 9659203
0.15131307 -1.0542744 2.028338 9789765
0.17125171 -1.0542744 2.028338 9527874
0.18208605 -1.0040708 1.9317503 9724228
0.17594084 -0.87856197 1.6902815 10052676
0.19255638 -0.87856197 1.6902815 9920835
0.20917192 -0.87856197 1.6902815 9855299
0.22578748 -0.87856197 1.6902815 9593667
0.24240302 -0.87856197 1.6902815 9790019
0.28256571 -0.95843124 1.8439435 9855045
0.33076096 -1.0542744 2.028338 9986885
0.3506996 -1.0542744 2.028338 9855297
0.30886519 -0.87856197 1.6902815 9856069
0.32548073 -0.87856197 1.6902815 9790276
0.34209627 -0.87856197 1.6902815 9986883
0.37430799 -0.91676033 1.763772 9921603
0.40944803 -0.95843124 1.8439435 9855299
0.42757407 -0.95843124 1.8439435 9725254
0.44570011 -0.95843124 1.8439435 9920838
0.40816703 -0.84341949 1.6226703 9921091
0.40780574 -0.81098032 1.5602599 9986884
0.44006887 -0.84341949 1.6226703 9790022
0.54288071 -1.0040708 1.9317503 9855555
0.56186992 -1.0040708 1.9317503 9789507
0.58085907 -1.0040708 1.9317503 9527362
0.57258248 -0.95843124 1.8439435 9658435
0.59070849 -0.95843124 1.8439435 9789250
0.63782668 -1.0040708 1.9317503 9330241
0.68965667 -1.0542744 2.028338 9526850
0.70959538 -1.0542744 2.028338 9264448
0.72953403 -1.0542744 2.028338 9198657
0.74947268 -1.0542744 2.028338 9263938
0.76941133 -1.0542744 2.028338 9263682
0.92864698 -1.2403228 2.3862798 9461830
0.95210421 -1.2403228 2.3862798 9527622
0.97556144 -1.2403228 2.3862798 9855045
0.99901867 -1.2403228 2.3862798 10118471
1.022476 -1.2403228 2.3862798 9922377
0.98782581 -1.171416 2.2537088 10249542
1.0099798 -1.171416 2.2537088 9856842
1.0321339 -1.171416 2.2537088 10185549
1.054288 -1.171416 2.2537088 10381642
1.076442 -1.171416 2.2537088 10645068
1.1632193 -1.2403228 2.3862798 10644554
1.1866766 -1.2403228 2.3862798 10841933
1.2101338 -1.2403228 2.3862798 10645325
1.2335911 -1.2403228 2.3862798 10973006
1.2570482 -1.2403228 2.3862798 10907982
1.2805055 -1.2403228 2.3862798 10973265
1.3039628 -1.2403228 2.3862798 11104849
1.4103838 -1.317843 2.5354223 11104848
1.4353071 -1.317843 2.5354223 10907728
1.4602304 -1.317843 2.5354223 11104335
1.4851537 -1.317843 2.5354223 11170128
1.4212489 -1.2403228 2.3862798 11104846
1.5350003 -1.317843 2.5354223 11104592
1.4681635 -1.2403228 2.3862798 11235921
1.4916207 -1.2403228 2.3862798 11170128
1.5150779 -1.2403228 2.3862798 11170384
1.5385351 -1.2403228 2.3862798 11104592
1.5619924 -1.2403228 2.3862798 11170644
1.5854496 -1.2403228 2.3862798 11301456
1.6089069 -1.2403228 2.3862798 11104076
1.6323642 -1.2403228 2.3862798 11301969
1.6558213 -1.2403228 2.3862798 11235920
1.6792786 -1.2403228 2.3862798 11235919
1.7027358 -1.2403228 2.3862798 11170383
1.6302935 -1.171416 2.2537088 10907727
1.7496502 -1.2403228 2.3862798 11169874
1.8839267 -1.317843 2.5354223 10972751
1.9088501 -1.317843 2.5354223 10776397
1.820022 -1.2403228 2.3862798 10907729
1.8434793 -1.2403228 2.3862798 10907726
1.8669364 -1.2403228 2.3862798 10842191
1.8903937 -1.2403228 2.3862798 10710092
1.9138509 -1.2403228 2.3862798 10775886
2.0583899 -1.317843 2.5354223 10841420
1.9607655 -1.2403228 2.3862798 10513742
1.9842227 -1.2403228 2.3862798 10644300
2.1331599 -1.317843 2.5354223 10578507
2.0311372 -1.2403228 2.3862798 10513229
2.0545943 -1.2403228 2.3862798 10316365
2.0780516 -1.2403228 2.3862798 10512974
2.2328532 -1.317843 2.5354223 10446923
2.2577765 -1.317843 2.5354223 10447436
2.2826998 -1.317843 2.5354223 10382413
2.3076231 -1.317843 2.5354223 10447437
2.3325465 -1.317843 2.5354223 10119501
2.3574698 -1.317843 2.5354223 10053708
2.3823931 -1.317843 2.5354223 10118988
2.4073164 -1.317843 2.5354223 10315850
2.4322398 -1.317843 2.5354223 10119241
2.4571631 -1.317843 2.5354223 10052678
2.4820864 -1.317843 2.5354223 10052423
2.5070097 -1.317843 2.5354223 9922123
2.5319331 -1.317843 2.5354223 9724999
2.5568564 -1.317843 2.5354223 10053451
2.5817795 -1.317843 2.5354223 9725257
2.6067028 -1.317843 2.5354223 9855817
2.6316261 -1.317843 2.5354223 9921610
2.5002818 -1.2403228 2.3862798 9658950
2.5237391 -1.2403228 2.3862798 9987656
2.5471964 -1.2403228 2.3862798 10316107
2.7313194 -1.317843 2.5354223 10644814
2.9399922 -1.4056991 2.7044504 10907472
2.9665771 -1.4056991 2.7044504 11170643
3.2069592 -1.5061063 2.8976254 11433810
3.2354431 -1.5061063 2.8976254 11564883
3.2639267 -1.5061063 2.8976254 11630677
3.2924106 -1.5061063 2.8976254 11893335
4.6492524 -2.1085489 4.0566759 12024408
3.3493781 -1.5061063 2.8976254 12024406
3.377862 -1.5061063 2.8976254 11828056
3.179256 -1.4056991 2.7044504 12090971
3.2058408 -1.4056991 2.7044504 12090973
3.4633133 -1.5061063 2.8976254 11829341
3.4917972 -1.5061063 2.8976254 11566169
3.5202808 -1.5061063 2.8976254 12222302
3.5487647 -1.5061063 2.8976254 12221787
3.8524218 -1.6219606 3.1205199 12090201
0 0 0 11958615
0 0 0 11958615
0 0 0 12024666
0 0 0 11761754
0 0 0 11498837
0 0 0 11762265
0 0 0 8738879
0 0 0 8673088
0 0 0 8476222
0 0 0 8344636
0 0 0 8278845
0 0 0 8213821
0 0 0 8278843
-9.2843199 -4.1373429 8.1133518 8213052
-9.204565 -4.1373429 8.1133518 8147001
-9.1248102 -4.1373429 8.1133518 8344380
-9.0450563 -4.1373429 8.1133518 8278330
-8.9653015 -4.1373429 8.1133518 8278330
0 0 0 8212537
-8.8057919 -4.1373429 8.1133518 8147257
-8.726037 -4.1373429 8.1133518 7950906
-8.6462831 -4.1373429 8.1133518 8081209
-7.138773 -3.4477856 6.761126 8080951
-4.7148743 -2.2985239 4.5074177 7884599
-8.4070187 -4.1373429 8.1133518 7884857
-10.40908 -5.1716785 10.141689 7884600
0 0 0 7818551
0 0 0 7819577
0 0 0 8081464
0 0 0 8212282
0 0 0 8081465
0 0 0 8344635
0 0 0 8344890
0 0 0 8344636
0 0 0 8344124
0 0 0 8475965
0 0 0 8344890
0 0 0 8344632
0 0 0 8541497
0 0 0 8410682
0 0 0 8409916
0 0 0 8541502
0 0 0 8607292
0 0 0 8738619
0 0 0 8607549
0 0 0 8607034
0 0 0 8738620
0 0 0 8607547
0 0 0 8672827
0 0 0 8672828
0 0 0 8804155
-0.58996642 -0.39031535 0.76541048 8738619
-0.5824424 -0.39031535 0.76541048 8804156
-0.57491839 -0.39031535 0.76541048 8804156
-0.53699821 -0.3694056 0.72440636 8673083
-0.52987731 -0.3694056 0.72440636 8608060
-0.52275634 -0.3694056 0.72440636 8804670
-0.50658917 -0.36292484 0.71169752 8935485
-0.50851446 -0.3694056 0.72440636 9001277
-0.5013935 -0.3694056 0.72440636 8738619
-0.41938275 -0.31343505 0.61464781 8870205
-0.37889573 -0.28731549 0.56342721 8869948
-0.36824271 -0.28337964 0.555709 8803899
-0.36278006 -0.28337964 0.555709 8673342
-0.35731742 -0.28337964 0.555709 9067070
-0.34247199 -0.27582285 0.5408901 8804412
-0.32839772 -0.26865861 0.52684098 8870204
-0.31907505 -0.26521429 0.52008665 8738621
-0.31396255 -0.26521429 0.52008665 8935998
-0.30494058 -0.26185715 0.51350325 8804157
-0.29248807 -0.25539154 0.50082415 8738878
-0.28405803 -0.25227702 0.49471655 8738106
-0.27919495 -0.25227702 0.49471655 8736566
-0.27433187 -0.25227702 0.49471655 8540984
-0.26946878 -0.25227702 0.49471655 8277042
-0.2646057 -0.25227702 0.49471655 7422761
-0.25661319 -0.24923754 0.48875612 6438695
-0.24881096 -0.2462704 0.48293757 2691342
-0.24119234 -0.24337311 0.47725597 1903629
-0.23650089 -0.24337311 0.47725597 1575436
-0.22911398 -0.24054319 0.47170648 1575438
-0.22447708 -0.24054319 0.47170648 1641232
-0.21984018 -0.24054319 0.47170648 1772047
-0.2177351 -0.24337311 0.47725597 2101268
-0.21304365 -0.24337311 0.47725597 1903631
-0.20835221 -0.24337311 0.47725597 1575438
-0.20366076 -0.24337311 0.47725597 2035218
-0.20133798 -0.2462704 0.48293757 2099982
-0.19659069 -0.2462704 0.48293757 1771788
-0.19415477 -0.24923754 0.48875612 1574923
-0.19165942 -0.25227702 0.49471655 1574668
-0.18910246 -0.25539154 0.50082415 1246473
-0.18417934 -0.25539154 0.50082415 1115145
-0.1792562 -0.25539154 0.50082415 1049353
-0.17433308 -0.25539154 0.50082415 1049352
-0.16940996 -0.25539154 0.50082415 1246731
-0.16448684 -0.25539154 0.50082415 1049608
-0.15956371 -0.25539154 0.50082415 918536
-0.15275472 -0.25227702 0.49471655 1312266
-0.14971747 -0.25539154 0.50082415 1181708
-0.14660427 -0.25858393 0.50708449 1378316
-0.14713725 -0.26865861 0.52684098 1575181
