# .PCD v0.7 - Point Cloud Data file format
VERSION 0.7
FIELDS x y z rgb
SIZE 4 4 4 4
TYPE F F F U
COUNT 1 1 1 1
WIDTH 1268
HEIGHT 1
VIEWPOINT 0 0 0 1 0 0 0
POINTS 1268
DATA ascii
-2.5892968 -0.42564148 3.1205199 12090453
0 0 0 12222037
0 0 0 12287060
0 0 0 12352852
0 0 0 12287059
-2.638916 -0.46111158 3.380563 12550742
-2.605685 -0.46111158 3.380563 12484437
-2.572454 -0.46111158 3.380563 12484436
0 0 0 12616277
-0.56739438 -0.10440262 0.76541048 12550484
-0.60557407 -0.11292528 0.82789302 12682070
-0.59743583 -0.11292528 0.82789302 12943957
-1.5197675 -0.29122835 2.1350925 13075543
-3.5596011 -0.69166738 5.0708447 12812885
-3.5097547 -0.69166738 5.0708447 12878421
-3.459908 -0.69166738 5.0708447 13076313
0 0 0 13010262
0 0 0 13404251
0 0 0 13272918
0 0 0 13470044
0 0 0 13666393
0 0 0 13732698
0 0 0 13601112
-0.29153666 -0.065873079 0.48293757 13468754
-0.26185113 -0.060144987 0.440943 6960414
-0.24678679 -0.057638947 0.42257038 4531489
-0.24263291 -0.057638947 0.42257038 4268575
-0.23847902 -0.057638947 0.42257038 4333597
-0.23432514 -0.057638947 0.42257038 4990496
-0.23259412 -0.058245674 0.42701849 5318946
-0.22839651 -0.058245674 0.42701849 5581346
-0.22419889 -0.058245674 0.42701849 5777955
-0.22000128 -0.058245674 0.42701849 5909541
-0.21580367 -0.058245674 0.42701849 5910565
-0.21160606 -0.058245674 0.42701849 5843746
-0.20740844 -0.058245674 0.42701849 5975588
-0.20321083 -0.058245674 0.42701849 6435364
-0.19901322 -0.058245674 0.42701849 6106659
-0.19688812 -0.058865305 0.43156123 6434851
-0.19264585 -0.058865305 0.43156123 6434849
-0.18840358 -0.058865305 0.43156123 6369056
-0.18416132 -0.058865305 0.43156123 6303264
-0.18383034 -0.060144987 0.440943 5975327
-0.18146832 -0.060805921 0.44578853 5842975
-0.17905383 -0.061481543 0.45074174 6040609
-0.17462301 -0.061481543 0.45074174 5908766
-0.17019221 -0.061481543 0.45074174 5777694
-0.16762388 -0.062172346 0.45580626 5382936
-0.16883433 -0.06434115 0.47170648 4923416
-0.16419744 -0.06434115 0.47170648 4858137
-0.16143773 -0.065098107 0.47725597 4923674
-0.1586123 -0.065873079 0.48293757 4595736
-0.1557188 -0.066666737 0.48875612 3280905
-0.15091431 -0.066666737 0.48875612 1508873
-0.14789164 -0.067479745 0.49471655 1639946
-0.14479433 -0.068312824 0.50082415 1574668
-0.14161961 -0.069166742 0.50708449 2034702
-0.14771345 -0.074774846 0.54819942 2362127
-0.14427428 -0.07579916 0.555709 2559504
-0.13881163 -0.07579916 0.555709 3084562
-0.14107937 -0.080193318 0.587924 3544340
-0.13530004 -0.080193318 0.587924 3741461
-0.13338701 -0.082587145 0.605474 4135190
-0.12936601 -0.083838463 0.61464781 4398360
-0.123324 -0.083838463 0.61464781 4464151
-0.12094705 -0.086458422 0.63385558 4267287
-0.11841674 -0.089247398 0.65430254 1574925
-0.11767907 -0.093785405 0.68757218 720903
-0.12347721 -0.10440262 0.76541048 524294
0 0 0 655366
0 0 0 524294
0 0 0 786696
0 0 0 1772047
0 0 0 6633243
0 0 0 14784866
0 0 0 15243616
0 0 0 15243360
0 0 0 15244386
0 0 0 15178338
0 0 0 15243617
0 0 0 15178595
0 0 0 14455906
0 0 0 1246471
0 0 0 1049354
0 0 0 1049098
0.11742491 -2.7666695 20.283379 918536
0.12672457 -1.1066679 8.1133518 984329
0.17206597 -0.92222315 6.761126 852491
0.20445271 -0.79047698 5.7952509 1115144
0.22874275 -0.69166738 5.0708447 786696
0.27858937 -0.69166738 5.0708447 918282
0.32843602 -0.69166738 5.0708447 918282
0.37828264 -0.69166738 5.0708447 1049098
0.42812929 -0.69166738 5.0708447 984075
0.4779759 -0.69166738 5.0708447 984329
0.52782255 -0.69166738 5.0708447 4993576
0.57766914 -0.69166738 5.0708447 7818040
0.62751579 -0.69166738 5.0708447 9329471
0.60209996 -0.61481547 4.5074177 11104331
0.64640808 -0.61481547 4.5074177 12418133
0.69071621 -0.61481547 4.5074177 12878936
0.73502433 -0.61481547 4.5074177 12878936
0.77933246 -0.61481547 4.5074177 13404508
0.82364053 -0.61481547 4.5074177 13535067
0.86794865 -0.61481547 4.5074177 13470553
0.91225678 -0.61481547 4.5074177 13995870
0.9565649 -0.61481547 4.5074177 13864032
0.90078574 -0.55333394 4.0566759 14060891
0.85514814 -0.50303078 3.687887 14193247
0.81711692 -0.46111158 3.380563 13996893
0.92765236 -0.50303078 3.687887 14652000
0.88357908 -0.46111158 3.380563 14323806
0.78583729 -0.39523849 2.8976254 14914401
0.87696117 -0.42564148 3.1205199 14652771
1.1799269 -0.55333394 4.0566759 14783584
1.355338 -0.61481547 4.5074177 14652511
1.399646 -0.61481547 4.5074177 14455649
1.4439542 -0.61481547 4.5074177 14718305
1.3394361 -0.55333394 4.0566759 14586976
1.5325705 -0.61481547 4.5074177 14587489
1.5768785 -0.61481547 4.5074177 14784866
1.6211867 -0.61481547 4.5074177 14586976
1.8736815 -0.69166738 5.0708447 14521442
1.9235282 -0.69166738 5.0708447 14587491
1.9733748 -0.69166738 5.0708447 14586206
2.0232215 -0.69166738 5.0708447 14718308
1.8427273 -0.61481547 4.5074177 14521442
2.1229148 -0.69166738 5.0708447 14520413
1.9313436 -0.61481547 4.5074177 14194017
1.7780864 -0.55333394 4.0566759 14520927
1.8179637 -0.55333394 4.0566759 14389856
1.8578411 -0.55333394 4.0566759 14521443
1.8977184 -0.55333394 4.0566759 14258272
1.9375957 -0.55333394 4.0566759 14127199
1.977473 -0.55333394 4.0566759 14061922
1.1207502 -0.30740774 2.2537088 13732959
1.1429043 -0.30740774 2.2537088 13272924
1.3106905 -0.34583369 2.5354223 12551004
1.6438324 -0.42564148 3.1205199 10840909
1.8140495 -0.46111158 3.380563 8999225
2.770921 -0.69166738 5.0708447 6961444
2.8207676 -0.69166738 5.0708447 5251861
2.8706143 -0.69166738 5.0708447 4068616
2.5959654 -0.61481547 4.5074177 2821121
2.6402733 -0.61481547 4.5074177 2164994
2.6845815 -0.61481547 4.5074177 1641220
2.7288897 -0.61481547 4.5074177 1707271
3.1198473 -0.69166738 5.0708447 1444360
2.8175058 -0.61481547 4.5074177 1312778
3.2195406 -0.69166738 5.0708447 1181196
3.2693872 -0.69166738 5.0708447 1312524
3.3192339 -0.69166738 5.0708447 1181454
2.9947383 -0.61481547 4.5074177 1378063
3.0390465 -0.61481547 4.5074177 1312270
3.0833545 -0.61481547 4.5074177 1312270
3.1276627 -0.61481547 4.5074177 1312270
3.1719708 -0.61481547 4.5074177 1115663
3.6183136 -0.69166738 5.0708447 1050383
3.260587 -0.61481547 4.5074177 1115661
3.3048952 -0.61481547 4.5074177 1181709
3.3492033 -0.61481547 4.5074177 1181196
1.5270802 -0.27666697 2.028338 1181452
1.5470188 -0.27666697 2.028338 1115661
1.5669575 -0.27666697 2.028338 1181451
1.5113295 -0.26349232 1.9317503 1115145
1.5303187 -0.26349232 1.9317503 2102809
1.6267734 -0.27666697 2.028338 10907474
0 0 0 11236173
0 0 0 11236691
0 0 0 11367507
2.8442132 -0.46111158 3.380563 11236434
2.1580832 -0.34583369 2.5354223 10908239
2.3285403 -0.36888924 2.7044504 11039825
2.0780516 -0.32549053 2.3862798 11039571
2.1015089 -0.32549053 2.3862798 10974548
2.0069125 -0.30740774 2.2537088 11105362
2.1484234 -0.32549053 2.3862798 11169873
2.4614646 -0.36888924 2.7044504 11104083
2.8708265 -0.42564148 3.1205199 10842194
2.9015014 -0.42564148 3.1205199 10973265
4.2353659 -0.61481547 4.5074177 10842192
4.8146329 -0.69166738 5.0708447 10907987
4.8644795 -0.69166738 5.0708447 10841937
3.9314611 -0.55333394 4.0566759 10710353
3.9713383 -0.55333394 4.0566759 10776147
4.0112157 -0.55333394 4.0566759 10644816
4.5012145 -0.61481547 4.5074177 10710354
4.5455227 -0.61481547 4.5074177 10907475
4.5898304 -0.61481547 4.5074177 10776144
4.6341386 -0.61481547 4.5074177 10513230
2.8070679 -0.36888924 2.7044504 10710609
2.6565495 -0.34583369 2.5354223 10644815
2.6814728 -0.34583369 2.5354223 10512972
3.093024 -0.39523849 2.8976254 10775886
3.361624 -0.42564148 3.1205199 10578509
4.0090804 -0.50303078 3.687887 10513488
4.9442954 -0.61481547 4.5074177 10381901
8.9794865 -1.1066679 8.1133518 10513745
7.549367 -0.92222315 6.761126 10579538
7.6158295 -0.92222315 6.761126 10841940
6.5848212 -0.79047698 5.7952509 10907987
6.641789 -0.79047698 5.7952509 10973265
5.210144 -0.61481547 4.5074177 11039058
6.755724 -0.79047698 5.7952509 10711378
6.8126917 -0.79047698 5.7952509 10776403
6.010952 -0.69166738 5.0708447 10776145
6.0607986 -0.69166738 5.0708447 10841425
6.1106453 -0.69166738 5.0708447 10973010
6.1604919 -0.69166738 5.0708447 10973523
8.2804508 -0.92222315 6.761126 11038545
8.3469133 -0.92222315 6.761126 10973265
0 0 0 10776914
0 0 0 10646098
0 0 0 10777427
0 0 0 10776401
0 0 0 10907222
0 0 0 10776147
0 0 0 8803900
0 0 0 8672572
-2.8479683 -0.30203328 2.3862798 8672314
-3.0010431 -0.32091036 2.5354223 8541242
-3.1745276 -0.34230438 2.7044504 8409911
-3.1479428 -0.34230438 2.7044504 8475962
-3.1213579 -0.34230438 2.7044504 8541499
-3.0947731 -0.34230438 2.7044504 8541499
-3.0681882 -0.34230438 2.7044504 8541756
-3.5095425 -0.3949666 3.1205199 8607549
-3.4788675 -0.3949666 3.1205199 9067071
-3.7355418 -0.42788047 3.380563 9527622
-3.4175179 -0.3949666 3.1205199 10381643
-3.386843 -0.3949666 3.1205199 10973262
-3.3561683 -0.3949666 3.1205199 11235917
-3.0879579 -0.36675468 2.8976254 11564109
-3.0594742 -0.36675468 2.8976254 11301708
-3.0309904 -0.36675468 2.8976254 11235659
-3.0025065 -0.36675468 2.8976254 11695695
-2.9740229 -0.36675468 2.8976254 11564109
-2.945539 -0.36675468 2.8976254 11433036
-2.7225847 -0.34230438 2.7044504 11499343
-2.5275002 -0.32091036 2.5354223 11301964
-2.5025768 -0.32091036 2.5354223 11367500
-2.3319092 -0.30203328 2.3862798 11762515
-2.4527302 -0.32091036 2.5354223 11498829
-2.4278069 -0.32091036 2.5354223 11630674
-2.4028835 -0.32091036 2.5354223 11499089
-2.7176688 -0.36675468 2.8976254 11498832
-2.6891849 -0.36675468 2.8976254 11498832
-2.660701 -0.36675468 2.8976254 11433550
-2.8346958 -0.3949666 3.1205199 11630672
-2.8040209 -0.3949666 3.1205199 11696465
-2.7733459 -0.3949666 3.1205199 12023889
-2.7426713 -0.3949666 3.1205199 12024658
-2.9379959 -0.42788047 3.380563 11828051
0 0 0 12023888
-2.8715336 -0.42788047 3.380563 12222039
-1.7926122 -0.27024031 2.1350925 12025171
-1.7716242 -0.27024031 2.1350925 12155474
-1.7506361 -0.27024031 2.1350925 12286803
-2.5279472 -0.3949666 3.1205199 12483924
0 0 0 12286800
-0.65440339 -0.10478706 0.82789302 12549972
-0.64626521 -0.10478706 0.82789302 12549717
-2.084548 -0.34230438 2.7044504 12484691
-0.59364325 -0.098741651 0.78012997 12353619
-0.55401224 -0.093355738 0.73757738 12681809
-0.55688709 -0.095084555 0.75123626 12353873
-0.5598703 -0.096878596 0.76541048 12681816
-0.57400697 -0.10067776 0.79542661 12681302
-0.58929759 -0.10478706 0.82789302 12943702
-1.6751064 -0.30203328 2.3862798 13010265
-3.5097547 -0.64182073 5.0708447 12944216
-1.5377369 -0.28525367 2.2537088 13009750
0 0 0 13404507
0 0 0 13534551
0 0 0 13338969
-0.38931599 -0.076635309 0.605474 13535321
-0.37772644 -0.075508319 0.59656996 13535580
0 0 0 13600860
-0.36599782 -0.075508319 0.59656996 13667677
-0.278285 -0.058347337 0.46098587 13469778
-0.26185113 -0.055810496 0.440943 6500119
-0.25474766 -0.055210385 0.43620169 4663590
-0.24263291 -0.053485058 0.42257038 4465956
-0.23847902 -0.053485058 0.42257038 4268834
-0.23432514 -0.053485058 0.42257038 4662049
-0.23017125 -0.053485058 0.42257038 4924449
-0.22601737 -0.053485058 0.42257038 5253664
-0.22419889 -0.054048061 0.42701849 5515555
-0.22000128 -0.054048061 0.42701849 5647139
-0.21580367 -0.054048061 0.42701849 5712162
-0.21160606 -0.054048061 0.42701849 5580832
-0.20740844 -0.054048061 0.42701849 5581348
-0.20321083 -0.054048061 0.42701849 6040868
-0.19901322 -0.054048061 0.42701849 6106404
-0.19688812 -0.054623038 0.43156123 6040866
-0.19264585 -0.054623038 0.43156123 6106144
-0.18840358 -0.054623038 0.43156123 6303780
-0.18416132 -0.054623038 0.43156123 6303266
-0.18185367 -0.055210385 0.43620169 5843488
-0.17949584 -0.055810496 0.440943 5908766
-0.17905383 -0.057050731 0.45074174 5580830
-0.17658508 -0.057691749 0.45580626 5580316
-0.17019221 -0.057050731 0.45074174 5908766
-0.1657614 -0.057050731 0.45074174 5448729
-0.16314329 -0.057691749 0.45580626 4989209
-0.16419744 -0.059704255 0.47170648 4989209
-0.16143773 -0.060406659 0.47725597 4857879
-0.1586123 -0.061125781 0.48293757 4529430
-0.1557188 -0.061862241 0.48875612 2098950
-0.15091431 -0.061862241 0.48875612 1378059
-0.14789164 -0.062616654 0.49471655 1574666
-0.14302856 -0.062616654 0.49471655 1574409
-0.14525089 -0.065827772 0.52008665 2296591
-0.14771345 -0.069386028 0.54819942 2427918
-0.1462781 -0.071313418 0.56342721 2625039
-0.14476071 -0.073350944 0.57952511 3019025
-0.14107937 -0.074413992 0.587924 3478547
-0.13530004 -0.074413992 0.587924 3873046
-0.13338701 -0.076635309 0.605474 3938325
-0.12936601 -0.077796452 0.61464781 4135444
-0.123324 -0.077796452 0.61464781 4069911
-0.11728198 -0.077796452 0.61464781 3544082
-0.11295135 -0.07899332 0.62410396 3281423
-0.10848539 -0.080227591 0.63385558 2493713
-0.11092021 -0.087026544 0.68757218 787468
0 0 0 524296
0 0 0 524294
0 0 0 524294
0 0 0 1246477
0 0 0 1180938
0 0 0 2690578
0 0 0 9920569
0 0 0 14915936
0 0 0 15309411
0 0 0 15112548
0 0 0 15178851
0 0 0 14784863
0 0 0 14126690
0 0 0 1246729
0 0 0 1180938
0 0 0 918282
0 0 0 918282
0.21120761 -1.7115219 13.522252 721673
0.20647919 -1.0269132 8.1133518 786698
0.28623381 -1.0269132 8.1133518 787466
0.26142028 -0.73350936 5.7952509 918282
0.27858937 -0.64182073 5.0708447 1313294
0.32843602 -0.64182073 5.0708447 1575438
0.37828264 -0.64182073 5.0708447 2101782
0.4892906 -0.73350936 5.7952509 1509903
0.54625815 -0.73350936 5.7952509 1378317
0.52782255 -0.64182073 5.0708447 4007197
0.57766914 -0.64182073 5.0708447 7095087
0.62751579 -0.64182073 5.0708447 8606522
0.67736244 -0.64182073 5.0708447 10446921
0.72720903 -0.64182073 5.0708447 11498062
0.69071621 -0.57050735 4.5074177 12746580
0.73502433 -0.57050735 4.5074177 13338460
0.77933246 -0.57050735 4.5074177 13273176
0.82364053 -0.57050735 4.5074177 13404760
0.86794865 -0.57050735 4.5074177 13930079
0.91225678 -0.57050735 4.5074177 13930077
0.9565649 -0.57050735 4.5074177 13864284
1.000873 -0.57050735 4.5074177 14061918
0.72358692 -0.3949666 3.1205199 14258270
0.75426179 -0.3949666 3.1205199 14061663
0.78493661 -0.3949666 3.1205199 14126944
0.81561148 -0.3949666 3.1205199 14455395
0.84628636 -0.3949666 3.1205199 14652258
0.87696117 -0.3949666 3.1205199 14586721
1.1799269 -0.51345658 4.0566759 14521186
1.355338 -0.57050735 4.5074177 14653025
1.399646 -0.57050735 4.5074177 14521443
1.2995588 -0.51345658 4.0566759 14521441
1.3394361 -0.51345658 4.0566759 14652256
1.5325705 -0.57050735 4.5074177 14588000
1.5768785 -0.57050735 4.5074177 14324833
1.6211867 -0.57050735 4.5074177 14586722
1.6654948 -0.57050735 4.5074177 14522466
1.9235282 -0.64182073 5.0708447 14390880
1.9733748 -0.64182073 5.0708447 14259297
1.7984191 -0.57050735 4.5074177 14587236
1.8427273 -0.57050735 4.5074177 14259042
1.8870354 -0.57050735 4.5074177 14520929
1.7382091 -0.51345658 4.0566759 14192989
1.7780864 -0.51345658 4.0566759 14258014
1.8179637 -0.51345658 4.0566759 14259042
1.8578411 -0.51345658 4.0566759 14126944
1.8977184 -0.51345658 4.0566759 14192736
1.1397622 -0.30203328 2.3862798 14061406
1.0407752 -0.27024031 2.1350925 8276008
1.0617633 -0.27024031 2.1350925 3084556
1.0827513 -0.27024031 2.1350925 2561041
1.1037394 -0.27024031 2.1350925 1838866
1.2570482 -0.30203328 2.3862798 1313294
1.3605372 -0.32091036 2.5354223 1575439
1.8472806 -0.42788047 3.380563 1378317
2.8207676 -0.64182073 5.0708447 1444366
2.5516572 -0.57050735 4.5074177 1312524
2.5959654 -0.57050735 4.5074177 1312524
2.6402733 -0.57050735 4.5074177 1246992
2.6845815 -0.57050735 4.5074177 1443856
2.7288897 -0.57050735 4.5074177 1181709
2.7731977 -0.57050735 4.5074177 1050638
2.8175058 -0.57050735 4.5074177 1246990
2.861814 -0.57050735 4.5074177 1050381
2.9061222 -0.57050735 4.5074177 1115661
2.9504302 -0.57050735 4.5074177 1116431
2.9947383 -0.57050735 4.5074177 1116174
3.0390465 -0.57050735 4.5074177 1050638
3.0833545 -0.57050735 4.5074177 1115661
3.1276627 -0.57050735 4.5074177 1050638
3.1719708 -0.57050735 4.5074177 1049868
3.216279 -0.57050735 4.5074177 984588
3.260587 -0.57050735 4.5074177 1115661
2.9744058 -0.51345658 4.0566759 1115661
1.5864646 -0.27024031 2.1350925 1115659
1.5270802 -0.25672829 2.028338 1050122
1.5470188 -0.25672829 2.028338 1050379
1.4923403 -0.24450313 1.9317503 1050122
1.5113295 -0.24450313 1.9317503 1181451
1.5303187 -0.24450313 1.9317503 1642259
1.5493079 -0.24450313 1.9317503 10382673
0 0 0 11170896
0 0 0 11169874
1.9842227 -0.30203328 2.3862798 11235667
2.0076799 -0.30203328 2.3862798 11236178
2.0311372 -0.30203328 2.3862798 10973262
2.1830065 -0.32091036 2.5354223 11105105
2.0780516 -0.30203328 2.3862798 11104595
1.9847585 -0.28525367 2.2537088 11236434
2.0069125 -0.28525367 2.2537088 11301202
2.0290666 -0.28525367 2.2537088 11038801
2.1718805 -0.30203328 2.3862798 11038542
2.8708265 -0.3949666 3.1205199 10776140
3.7719517 -0.51345658 4.0566759 10841679
4.7647862 -0.64182073 5.0708447 11103824
4.8146329 -0.64182073 5.0708447 10842194
3.8915837 -0.51345658 4.0566759 11038288
3.2762172 -0.42788047 3.380563 10776399
3.3094485 -0.42788047 3.380563 10776145
3.0855503 -0.3949666 3.1205199 10579282
3.1162252 -0.3949666 3.1205199 10382157
3.1469002 -0.3949666 3.1205199 10644815
4.5898304 -0.57050735 4.5074177 10514000
2.979089 -0.36675468 2.8976254 10579792
2.6316261 -0.32091036 2.5354223 10514000
2.6565495 -0.32091036 2.5354223 10513745
2.5237391 -0.30203328 2.3862798 10644817
2.7063961 -0.32091036 2.5354223 10382416
3.1215079 -0.36675468 2.8976254 10316623
3.6749904 -0.42788047 3.380563 10579024
4.9442954 -0.57050735 4.5074177 10644046
5.6121788 -0.64182073 5.0708447 10512719
7.549367 -0.85576093 6.761126 10250575
7.6158295 -0.85576093 6.761126 10645845
5.7617188 -0.64182073 5.0708447 10710867
5.1658363 -0.57050735 4.5074177 10842450
5.210144 -0.57050735 4.5074177 10842449
5.2544522 -0.57050735 4.5074177 10514513
5.2987604 -0.57050735 4.5074177 10710095
5.3430686 -0.57050735 4.5074177 10316880
3.7297223 -0.3949666 3.1205199 9527107
3.7603972 -0.3949666 3.1205199 10645329
4.1069946 -0.42788047 3.380563 10841935
4.1402254 -0.42788047 3.380563 11169874
5.0081482 -0.51345658 4.0566759 10973778
0 0 0 10841681
0 0 0 10579281
0 0 0 10776917
0 0 0 10776404
0 0 0 10906708
0 0 0 10579540
0 0 0 8541754
0 0 0 8474936
-3.0259664 -0.29598704 2.5354223 8278330
-3.2011125 -0.31571952 2.7044504 8344123
-3.1745276 -0.31571952 2.7044504 8344377
-3.1479428 -0.31571952 2.7044504 8541244
-3.1213579 -0.31571952 2.7044504 8409402
-3.0947731 -0.31571952 2.7044504 8475452
-3.0681882 -0.31571952 2.7044504 8409916
-3.2588606 -0.3382709 2.8976254 8541754
-3.4788675 -0.36429176 3.1205199 8542269
-3.4481928 -0.36429176 3.1205199 8870719
-3.4175179 -0.36429176 3.1205199 9330241
-3.386843 -0.36429176 3.1205199 10446923
-3.3561683 -0.36429176 3.1205199 10841933
-3.3254933 -0.36429176 3.1205199 11234890
-3.2948184 -0.36429176 3.1205199 11104328
-3.2641437 -0.36429176 3.1205199 10972742
-3.0025065 -0.3382709 2.8976254 11170378
-2.9740229 -0.3382709 2.8976254 11432523
-2.945539 -0.3382709 2.8976254 11235659
-2.9170551 -0.3382709 2.8976254 11433038
-2.5275002 -0.29598704 2.5354223 11366730
-2.5025768 -0.29598704 2.5354223 11366988
-2.4776535 -0.29598704 2.5354223 11301710
-2.4527302 -0.29598704 2.5354223 11235915
-2.4278069 -0.29598704 2.5354223 11433293
-2.4028835 -0.29598704 2.5354223 11302482
-2.7176688 -0.3382709 2.8976254 11367503
-2.6891849 -0.3382709 2.8976254 11630672
-2.660701 -0.3382709 2.8976254 11630672
-2.6322174 -0.3382709 2.8976254 11696465
-2.8040209 -0.36429176 3.1205199 11565136
-2.7733459 -0.36429176 3.1205199 11893330
0 0 0 11893586
0 0 0 11893071
0 0 0 11893330
0 0 0 12024657
0 0 0 12155729
-1.7716242 -0.24925226 2.1350925 12155731
-1.7506361 -0.24925226 2.1350925 11959635
-2.5279472 -0.36429176 3.1205199 12024658
0 0 0 12287058
-0.61664939 -0.091072939 0.78012997 12090451
-0.57576352 -0.086105324 0.73757738 12418644
-0.57904112 -0.087699868 0.75123626 12287060
-0.59364325 -0.091072939 0.78012997 12287315
-0.57491839 -0.089354575 0.76541048 12550228
-0.55688709 -0.087699868 0.75123626 12747095
-0.5598703 -0.089354575 0.76541048 12681302
-0.54211771 -0.087699868 0.75123626 12615509
-0.54482228 -0.089354575 0.76541048 12944216
-0.50851446 -0.084567726 0.72440636 12878679
-0.46796724 -0.078929879 0.67611259 12616277
-0.45375842 -0.077635951 0.66502881 12813143
-0.44722116 -0.077635951 0.66502881 13141335
-1.4934288 -0.26309961 2.2537088 13272919
-0.4074299 -0.072858348 0.62410396 13141593
-0.36738271 -0.066701308 0.57136279 13338458
-0.36176619 -0.066701308 0.57136279 13535067
-0.35614967 -0.066701308 0.57136279 13142360
-0.36599782 -0.069644012 0.59656996 13667675
-0.29153666 -0.056378484 0.48293757 13403476
-0.26472864 -0.05204168 0.44578853 7090192
-0.25474766 -0.050922502 0.43620169 4138019
-0.24779531 -0.050380774 0.43156123 4466211
-0.24098933 -0.049850449 0.42701849 4268834
-0.23432514 -0.049331173 0.42257038 4399650
-0.23017125 -0.049331173 0.42257038 4728099
-0.22601737 -0.049331173 0.42257038 5056289
-0.22419889 -0.049850449 0.42701849 5056549
-0.22000128 -0.049850449 0.42701849 5253666
-0.21580367 -0.049850449 0.42701849 5581346
-0.21160606 -0.049850449 0.42701849 5318946
-0.20740844 -0.049850449 0.42701849 5055774
-0.20321083 -0.049850449 0.42701849 5449503
-0.19901322 -0.049850449 0.42701849 5777954
-0.19481561 -0.049850449 0.42701849 5909536
-0.19264585 -0.050380774 0.43156123 6171938
-0.18840358 -0.050380774 0.43156123 6172195
-0.18416132 -0.050380774 0.43156123 6303266
-0.17991905 -0.050380774 0.43156123 5909277
-0.17756578 -0.050922502 0.43620169 5712414
-0.17905383 -0.052619919 0.45074174 5843230
-0.17658508 -0.053211153 0.45580626 5777180
-0.17019221 -0.052619919 0.45074174 5843487
-0.16393985 -0.05204168 0.44578853 6041118
-0.16133058 -0.052619919 0.45074174 5056026
-0.16419744 -0.055067357 0.47170648 5055002
-0.15956055 -0.055067357 0.47170648 4529943
-0.15674628 -0.055715211 0.47725597 4202007
-0.1557188 -0.057057746 0.48875612 1377287
-0.15091431 -0.057057746 0.48875612 1312013
-0.14789164 -0.05775357 0.49471655 1378059
-0.14479433 -0.058466576 0.50082415 1771532
-0.14907327 -0.062313065 0.53377312 1771275
-0.14973693 -0.064873874 0.555709 2230798
-0.1462781 -0.065774903 0.56342721 2559246
-0.14476071 -0.067654185 0.57952511 3216147
-0.14107937 -0.068634674 0.587924 3610389
-0.13728975 -0.069644012 0.59656996 3741204
-0.13338701 -0.070683472 0.605474 3872533
-0.12936601 -0.071754433 0.61464781 3872532
-0.123324 -0.071754433 0.61464781 3938324
-0.11728198 -0.071754433 0.61464781 3281425
-0.11123996 -0.071754433 0.61464781 3215376
-0.10681639 -0.072858348 0.62410396 2821390
-0.10225456 -0.07399676 0.63385558 2887696
-0.097547919 -0.075171314 0.64391679 1968911
0 0 0 1378060
0 0 0 852489
0 0 0 918536
0 0 0 786950
0 0 0 984075
0 0 0 1312524
0 0 0 1509387
0 0 0 6172701
0 0 0 13864790
0 0 0 14850143
0 0 0 14981215
0 0 0 12418383
0 0 0 1641483
0 0 0 1904402
0 0 0 2693143
0 0 0 4400420
0 0 0 4531488
0.51619792 -2.3678963 20.283379 4794142
0.28623381 -0.94715858 8.1133518 4530968
0.30499032 -0.78929877 6.761126 4794144
0.31838787 -0.67654181 5.7952509 4399386
0.32843602 -0.59197408 5.0708447 4663328
0.37828264 -0.59197408 5.0708447 5844000
0.4892906 -0.67654181 5.7952509 1837836
0.4779759 -0.59197408 5.0708447 1707024
0.52782255 -0.59197408 5.0708447 1903633
0.57766914 -0.59197408 5.0708447 1641231
0.62751579 -0.59197408 5.0708447 1969426
0.67736244 -0.59197408 5.0708447 9528133
0.72720903 -0.59197408 5.0708447 10316102
0.77705568 -0.59197408 5.0708447 11433039
0.73502433 -0.52619922 4.5074177 12616023
0.77933246 -0.52619922 4.5074177 13141336
0.82364053 -0.52619922 4.5074177 13207899
0.86794865 -0.52619922 4.5074177 13536091
0.91225678 -0.52619922 4.5074177 13535321
0.9565649 -0.52619922 4.5074177 13667675
1.000873 -0.52619922 4.5074177 13667677
1.0451812 -0.52619922 4.5074177 14128226
0.75426179 -0.36429176 3.1205199 14192735
0.78493661 -0.36429176 3.1205199 13996640
0.75735348 -0.3382709 2.8976254 14389343
0.78583729 -0.3382709 2.8976254 14389857
0.81432104 -0.3382709 2.8976254 14717535
0.98327231 -0.39464939 3.380563 14193248
1.355338 -0.52619922 4.5074177 14455391
1.2596815 -0.47357929 4.0566759 14455393
1.0829656 -0.39464939 3.380563 14587493
1.1161966 -0.39464939 3.380563 14521700
1.5325705 -0.52619922 4.5074177 14653026
1.5768785 -0.52619922 4.5074177 14652515
1.6211867 -0.52619922 4.5074177 14522212
1.6654948 -0.52619922 4.5074177 14520929
1.7098029 -0.52619922 4.5074177 14259294
1.7541111 -0.52619922 4.5074177 14586978
1.7984191 -0.52619922 4.5074177 14258272
1.8427273 -0.52619922 4.5074177 14128485
1.8870354 -0.52619922 4.5074177 14324063
1.9313436 -0.52619922 4.5074177 14258271
1.9756516 -0.52619922 4.5074177 14061663
1.8179637 -0.47357929 4.0566759 14127456
2.0642679 -0.52619922 4.5074177 13995868
1.1163049 -0.27857605 2.3862798 13733468
1.076442 -0.26309961 2.2537088 13667421
1.0407752 -0.24925226 2.1350925 7355693
1.0086751 -0.23678964 2.028338 1443853
1.0827513 -0.24925226 2.1350925 1444110
1.1037394 -0.24925226 2.1350925 1313039
1.1247275 -0.24925226 2.1350925 1378317
1.1457155 -0.24925226 2.1350925 1378574
1.7051822 -0.36429176 3.1205199 1247501
2.8207676 -0.59197408 5.0708447 1378317
2.5516572 -0.52619922 4.5074177 1378317
2.5959654 -0.52619922 4.5074177 1181454
2.6402733 -0.52619922 4.5074177 1181711
2.6845815 -0.52619922 4.5074177 1116433
2.7288897 -0.52619922 4.5074177 1115919
2.495878 -0.47357929 4.0566759 1116433
2.3052318 -0.43052661 3.687887 1050125
2.5756326 -0.47357929 4.0566759 1116431
2.61551 -0.47357929 4.0566759 1115662
2.9504302 -0.52619922 4.5074177 853260
2.6952646 -0.47357929 4.0566759 984590
3.0390465 -0.52619922 4.5074177 1050127
3.0833545 -0.52619922 4.5074177 1116175
3.1276627 -0.52619922 4.5074177 984075
3.1719708 -0.52619922 4.5074177 984845
3.216279 -0.52619922 4.5074177 853259
2.667753 -0.43052661 3.687887 984077
1.5654767 -0.24925226 2.1350925 1049869
1.5071415 -0.23678964 2.028338 1115661
1.5270802 -0.23678964 2.028338 984075
1.5470188 -0.23678964 2.028338 984075
1.4923403 -0.22551394 1.9317503 984075
1.5113295 -0.22551394 1.9317503 1246477
1.5303187 -0.22551394 1.9317503 1510159
1.6267734 -0.23678964 2.028338 10185549
0 0 0 11170126
0 0 0 10973778
1.9842227 -0.27857605 2.3862798 11171157
1.6252646 -0.22551394 1.9317503 11236434
1.8173332 -0.24925226 2.1350925 10973519
1.9404503 -0.26309961 2.2537088 11039058
1.9626044 -0.26309961 2.2537088 11104851
1.9847585 -0.26309961 2.2537088 11104595
2.0069125 -0.26309961 2.2537088 10907216
2.0290666 -0.26309961 2.2537088 10775373
2.1718805 -0.27857605 2.3862798 10841935
2.1953378 -0.27857605 2.3862798 10776141
2.3574698 -0.29598704 2.5354223 10776399
2.5412192 -0.31571952 2.7044504 10907985
2.5678041 -0.31571952 2.7044504 10645331
2.7797024 -0.3382709 2.8976254 10973268
3.0242007 -0.36429176 3.1205199 10972752
3.0548756 -0.36429176 3.1205199 10907988
3.0855503 -0.36429176 3.1205199 10710611
2.8936377 -0.3382709 2.8976254 10644305
2.9221213 -0.3382709 2.8976254 10579536
2.9506052 -0.3382709 2.8976254 10579537
2.780483 -0.31571952 2.7044504 10644816
2.3392234 -0.26309961 2.2537088 10513746
2.2370944 -0.24925226 2.1350925 10514003
2.3835316 -0.26309961 2.2537088 10447182
2.7063961 -0.29598704 2.5354223 10513487
3.1215079 -0.3382709 2.8976254 10513999
3.6749904 -0.39464939 3.380563 10579280
4.4498658 -0.47357929 4.0566759 10578767
4.9886036 -0.52619922 4.5074177 10841681
5.0329118 -0.52619922 4.5074177 10841165
6.5278535 -0.67654181 5.7952509 10775634
5.7617188 -0.59197408 5.0708447 11104083
5.1658363 -0.52619922 4.5074177 10514515
5.210144 -0.52619922 4.5074177 10711124
4.7290072 -0.47357929 4.0566759 10907987
3.6683726 -0.36429176 3.1205199 10907474
2.6715343 -0.26309961 2.2537088 9725514
2.5519152 -0.24925226 2.1350925 9199169
2.5729032 -0.24925226 2.1350925 10448205
3.7910719 -0.36429176 3.1205199 10973520
4.1402254 -0.39464939 3.380563 10842193
0 0 0 10842707
0 0 0 10842450
0 0 0 10842705
0 0 0 10711377
0 0 0 10579793
0 0 0 10382931
0 0 0 10383446
0 0 0 8409399
0 0 0 8278328
-3.2276974 -0.28913465 2.7044504 8147257
-3.2011125 -0.28913465 2.7044504 8015160
-3.1745276 -0.28913465 2.7044504 8147002
-3.1479428 -0.28913465 2.7044504 8080952
-3.1213579 -0.28913465 2.7044504 8146487
-3.0947731 -0.28913465 2.7044504 8343609
-3.0681882 -0.28913465 2.7044504 8409402
-3.2588606 -0.30978712 2.8976254 8279097
-3.4788675 -0.33361691 3.1205199 8476476
-3.4481928 -0.33361691 3.1205199 8542269
-3.4175179 -0.33361691 3.1205199 9133377
-3.386843 -0.33361691 3.1205199 9790022
-4.3630185 -0.43370199 4.0566759 10315588
-3.6026175 -0.36141831 3.380563 10579530
-3.5693865 -0.36141831 3.380563 10447173
-3.5361555 -0.36141831 3.380563 10446918
-3.5029244 -0.36141831 3.380563 10907465
-3.2027938 -0.33361691 3.1205199 11104073
-3.1721191 -0.33361691 3.1205199 11169868
-2.9170551 -0.30978712 2.8976254 11038540
-2.5275002 -0.27106375 2.5354223 11235919
-2.5025768 -0.27106375 2.5354223 11366733
-2.4776535 -0.27106375 2.5354223 11563596
-2.6162453 -0.28913465 2.7044504 11498833
-2.5896604 -0.28913465 2.7044504 11499089
-2.7461524 -0.30978712 2.8976254 11499089
-2.9267204 -0.33361691 3.1205199 11433296
-2.8960454 -0.33361691 3.1205199 11367757
-2.660701 -0.30978712 2.8976254 11433039
-2.8346958 -0.33361691 3.1205199 11499601
-2.8040209 -0.33361691 3.1205199 11433807
0 0 0 11892817
0 0 0 11564108
0 0 0 11892302
0 0 0 11630418
0 0 0 11762256
0 0 0 11893074
-1.0858341 -0.13990386 1.3086051 11959123
-0.66524172 -0.086740397 0.81133515 11958865
-0.65726626 -0.086740397 0.81133515 12287060
-0.66254163 -0.08851061 0.82789302 12287060
-0.65440339 -0.08851061 0.82789302 12090449
-0.57576352 -0.078854904 0.73757738 12090447
-0.5685131 -0.078854904 0.73757738 12156242
-0.56126267 -0.078854904 0.73757738 12417875
-0.55401224 -0.078854904 0.73757738 12221521
-0.54676181 -0.078854904 0.73757738 12615764
-0.53951138 -0.078854904 0.73757738 12681814
-0.52275634 -0.077446781 0.72440636 12615765
-0.51563537 -0.077446781 0.72440636 12813143
-0.48265779 -0.073508814 0.68757218 12616023
-0.46029568 -0.071098685 0.66502881 12747351
-0.45375842 -0.071098685 0.66502881 13271895
-0.44722116 -0.071098685 0.66502881 13141337
-0.42002684 -0.067765936 0.63385558 13338458
-0.4074299 -0.066723384 0.62410396 13011035
-0.36738271 -0.061084788 0.57136279 12813656
-0.35674167 -0.060236387 0.56342721 13404509
-0.35120314 -0.060236387 0.56342721 13535576
-0.34566462 -0.060236387 0.56342721 13733468
-0.33093348 -0.058608375 0.54819942 13470040
-0.27375346 -0.049284313 0.46098587 11889724
-0.2603465 -0.047659557 0.44578853 3545626
-0.25045979 -0.046634622 0.43620169 4138277
-0.24355304 -0.046138506 0.43156123 4137502
-0.23931077 -0.046138506 0.43156123 4071970
-0.23259412 -0.04565284 0.42701849 4399650
-0.22601737 -0.045177288 0.42257038 4727843
-0.22186348 -0.045177288 0.42257038 4859170
-0.22000128 -0.04565284 0.42701849 4859424
-0.21580367 -0.04565284 0.42701849 4990496
-0.21160606 -0.04565284 0.42701849 5384739
-0.20524794 -0.045177288 0.42257038 4990496
-0.20321083 -0.04565284 0.42701849 5580833
-0.19901322 -0.04565284 0.42701849 5581348
-0.19481561 -0.04565284 0.42701849 5909540
-0.19061801 -0.04565284 0.42701849 6106658
-0.18840358 -0.046138506 0.43156123 6237986
-0.18416132 -0.046138506 0.43156123 6237474
-0.17991905 -0.046138506 0.43156123 6170655
-0.17567678 -0.046138506 0.43156123 5842973
-0.1732779 -0.046634622 0.43620169 5843230
-0.16899002 -0.046634622 0.43620169 5712416
-0.16470215 -0.046634622 0.43620169 6040866
-0.16215789 -0.047141518 0.440943 6435362
-0.15955772 -0.047659557 0.44578853 6105886
-0.15689978 -0.048189107 0.45074174 5120537
-0.15956055 -0.050430462 0.47170648 4464150
-0.15674628 -0.051023763 0.47725597 3740689
-0.15386501 -0.051631186 0.48293757 1114634
-0.15275472 -0.052890487 0.49471655 1377290
-0.14789164 -0.052890487 0.49471655 1639946
-0.14479433 -0.053543452 0.50082415 1968911
-0.14907327 -0.057066049 0.53377312 2099726
-0.14973693 -0.059411231 0.555709 2362384
-0.1462781 -0.060236387 0.56342721 2756625
-0.14476071 -0.061957426 0.57952511 3150610
-0.14107937 -0.062855355 0.587924 3544341
-0.13728975 -0.063779704 0.59656996 3675669
-0.13338701 -0.064731635 0.605474 3740690
-0.12936601 -0.065712415 0.61464781 3609876
-0.12148335 -0.064731635 0.605474 3938068
-0.11728198 -0.065712415 0.61464781 3084560
-0.10957967 -0.064731635 0.605474 3215376
-0.10681639 -0.066723384 0.62410396 3018769
-0.10068142 -0.066723384 0.62410396 3215378
-0.096023731 -0.067765936 0.63385558 2952978
-0.091218188 -0.068841584 0.64391679 2493710
0 0 0 1837325
0 0 0 786696
0 0 0 787466
0 0 0 721673
0 0 0 852489
0 0 0 1114891
0 0 0 984075
0 0 0 1114890
0 0 0 3873039
0 0 0 12681289
0 0 0 7224861
0 0 0 5581600
0 0 0 6041888
0 0 0 6107424
0 0 0 6370339
0 0 0 5975840
0 0 0 6041633
0 0 0 4858906
0.3659884 -0.86740398 8.1133518 5647391
0.44574302 -0.86740398 8.1133518 5121565
0.37535542 -0.61957425 5.7952509 5647645
0.33625126 -0.4818911 4.5074177 5843739
0.38055938 -0.4818911 4.5074177 1641481
0.4779759 -0.54212749 5.0708447 1575438
0.60322571 -0.61957425 5.7952509 1707024
0.66019332 -0.61957425 5.7952509 1706254
0.62751579 -0.54212749 5.0708447 1641231
0.67736244 -0.54212749 5.0708447 8674373
0.72720903 -0.54212749 5.0708447 10183749
0.77705568 -0.54212749 5.0708447 10578504
0.82690233 -0.54212749 5.0708447 12089681
0.77933246 -0.4818911 4.5074177 12943957
0.82364053 -0.4818911 4.5074177 13076061
0.86794865 -0.4818911 4.5074177 13207129
0.91225678 -0.4818911 4.5074177 13798493
0.9565649 -0.4818911 4.5074177 13733468
1.000873 -0.4818911 4.5074177 13865056
1.0451812 -0.4818911 4.5074177 13799261
1.0894892 -0.4818911 4.5074177 14061665
1.1337974 -0.4818911 4.5074177 14127972
1.1781055 -0.4818911 4.5074177 14192475
1.0001565 -0.3942745 3.687887 14389602
0.81432104 -0.30978712 2.8976254 14455393
0.98327231 -0.36141831 3.380563 14390367
1.355338 -0.4818911 4.5074177 14194019
1.399646 -0.4818911 4.5074177 14456161
1.4439542 -0.4818911 4.5074177 14521440
1.4882623 -0.4818911 4.5074177 14455648
1.5325705 -0.4818911 4.5074177 14456163
1.5768785 -0.4818911 4.5074177 14390626
1.6211867 -0.4818911 4.5074177 14455651
1.6654948 -0.4818911 4.5074177 14520929
1.7098029 -0.4818911 4.5074177 14521183
1.7541111 -0.4818911 4.5074177 14389599
1.7984191 -0.4818911 4.5074177 14127454
1.8427273 -0.4818911 4.5074177 13930847
1.8870354 -0.4818911 4.5074177 14061665
1.9313436 -0.4818911 4.5074177 14324063
1.9756516 -0.4818911 4.5074177 14061663
1.8179637 -0.43370199 4.0566759 13865054
1.0928476 -0.25511882 2.3862798 13667934
1.054288 -0.24094555 2.2537088 13864286
1.076442 -0.24094555 2.2537088 13864285
1.0407752 -0.2282642 2.1350925 7617324
1.0617633 -0.2282642 2.1350925 1378318
1.0827513 -0.2282642 2.1350925 1313040
1.1037394 -0.2282642 2.1350925 1247247
1.1247275 -0.2282642 2.1350925 1378576
1.1457155 -0.2282642 2.1350925 1313039
1.1667036 -0.2282642 2.1350925 1182223
1.1876916 -0.2282642 2.1350925 1050383
1.2758286 -0.24094555 2.2537088 1050640
1.2979827 -0.24094555 2.2537088 1181454
1.3201367 -0.24094555 2.2537088 1181454
1.3422908 -0.24094555 2.2537088 1115661
2.0466671 -0.36141831 3.380563 1050380
2.0798981 -0.36141831 3.380563 1115915
2.1131291 -0.36141831 3.380563 984588
2.1463604 -0.36141831 3.380563 1116433
2.0119307 -0.33361691 3.1205199 983819
2.0426054 -0.33361691 3.1205199 1049868
1.4973692 -0.24094555 2.2537088 1049869
1.6089069 -0.25511882 2.3862798 984588
1.6323642 -0.25511882 2.3862798 984331
2.8148963 -0.43370199 4.0566759 918539
2.8547738 -0.43370199 4.0566759 984075
1.7027358 -0.25511882 2.3862798 787466
1.6302935 -0.24094555 2.2537088 984075
1.5654767 -0.2282642 2.1350925 787210
1.5071415 -0.216851 2.028338 1049868
1.5270802 -0.216851 2.028338 918282
1.5470188 -0.216851 2.028338 918794
1.4923403 -0.20652474 1.9317503 787720
1.5868961 -0.216851 2.028338 918284
1.5303187 -0.20652474 1.9317503 1904145
1.5493079 -0.20652474 1.9317503 10053444
1.733381 -0.2282642 2.1350925 11170126
0 0 0 11105106
1.7753571 -0.2282642 2.1350925 11236435
1.6252646 -0.20652474 1.9317503 11039313
1.6442538 -0.20652474 1.9317503 10842194
1.9404503 -0.24094555 2.2537088 10973265
2.0780516 -0.25511882 2.3862798 11104335
1.9847585 -0.24094555 2.2537088 11104593
2.0069125 -0.24094555 2.2537088 10776913
2.0290666 -0.24094555 2.2537088 10710608
2.0512207 -0.24094555 2.2537088 10972497
2.1953378 -0.25511882 2.3862798 10579538
2.2187951 -0.25511882 2.3862798 10580308
2.2422523 -0.25511882 2.3862798 10710093
2.4073164 -0.27106375 2.5354223 10644561
2.594389 -0.28913465 2.7044504 10579281
2.8081863 -0.30978712 2.8976254 10448464
2.8366699 -0.30978712 2.8976254 10710864
2.8651538 -0.30978712 2.8976254 10579536
2.8936377 -0.30978712 2.8976254 10710097
2.9221213 -0.30978712 2.8976254 10580311
2.7538981 -0.28913465 2.7044504 10316625
2.4533675 -0.25511882 2.3862798 10316366
2.3392234 -0.24094555 2.2537088 10513999
2.3613775 -0.24094555 2.2537088 10644815
2.3835316 -0.24094555 2.2537088 10644813
2.5471964 -0.25511882 2.3862798 10579020
3.361624 -0.33361691 3.1205199 10447436
3.3922989 -0.33361691 3.1205199 10513229
3.7082214 -0.36141831 3.380563 10316363
4.4897432 -0.43370199 4.0566759 10381899
3.7746835 -0.36141831 3.380563 10644300
3.5149984 -0.33361691 3.1205199 10841166
5.1215281 -0.4818911 4.5074177 10907473
5.1658363 -0.4818911 4.5074177 10645328
3.607023 -0.33361691 3.1205199 10579278
2.7817688 -0.25511882 2.3862798 10711123
2.6493802 -0.24094555 2.2537088 10710354
2.4043808 -0.216851 2.028338 9463371
2.3088756 -0.20652474 1.9317503 8608060
2.4442582 -0.216851 2.028338 10185036
2.4641969 -0.216851 2.028338 10776144
3.8217468 -0.33361691 3.1205199 10842706
0 0 0 10972495
0 0 0 10842194
0 0 0 10842192
0 0 0 10579020
0 0 0 10710864
0 0 0 10579795
0 0 0 10579795
0 0 0 8081466
0 0 0 8081466
-3.2276974 -0.26254976 2.7044504 7819064
-3.2011125 -0.26254976 2.7044504 7819064
-3.4012797 -0.28130332 2.8976254 7753271
-3.3727958 -0.28130332 2.8976254 7819063
-3.344312 -0.28130332 2.8976254 7753269
-3.3158283 -0.28130332 2.8976254 7819062
-3.5402174 -0.30294207 3.1205199 8015672
-3.5095425 -0.30294207 3.1205199 8081464
-3.4788675 -0.30294207 3.1205199 8475194
-3.4481928 -0.30294207 3.1205199 8475961
-3.7023108 -0.32818723 3.380563 8738879
-4.0026326 -0.35802242 3.687887 9001535
-4.3630185 -0.3938247 4.0566759 9657920
-4.3231416 -0.3938247 4.0566759 9789243
-4.7591825 -0.437583 4.5074177 6239516
-4.7148743 -0.437583 4.5074177 3939343
-4.6705661 -0.437583 4.5074177 9002053
-4.6262579 -0.437583 4.5074177 11038541
-3.7488678 -0.35802242 3.687887 10972747
-3.1414442 -0.30294207 3.1205199 10972747
-2.5275002 -0.24614042 2.5354223 11039053
-2.5025768 -0.24614042 2.5354223 11170126
-2.6428301 -0.26254976 2.7044504 11170635
-2.6162453 -0.26254976 2.7044504 11301453
-2.7746363 -0.28130332 2.8976254 11300940
-2.7461524 -0.28130332 2.8976254 11367247
-2.9267204 -0.30294207 3.1205199 11301711
-2.8960454 -0.30294207 3.1205199 11236174
-2.483321 -0.26254976 2.7044504 11235917
-2.4567361 -0.26254976 2.7044504 11630418
-2.6037335 -0.28130332 2.8976254 11498832
0 0 0 11564625
0 0 0 11433296
0 0 0 11367758
0 0 0 11630929
0 0 0 11762258
0 0 0 11697238
-2.5892968 -0.30294207 3.1205199 11630159
-2.2174723 -0.26254976 2.7044504 12154961
-2.1908875 -0.26254976 2.7044504 11761743
-2.9513218 -0.35802242 3.687887 12090451
-0.65440339 -0.080372386 0.82789302 12090450
-0.64626521 -0.080372386 0.82789302 12025169
-0.57904112 -0.072930492 0.75123626 12090449
-0.57165647 -0.072930492 0.75123626 12418131
-0.55401224 -0.071604483 0.73757738 12287058
-0.50969326 -0.066749945 0.68757218 12483408
-0.5029344 -0.066749945 0.68757218 12287828
-0.51358521 -0.06909205 0.71169752 12681813
-0.51563537 -0.070325829 0.72440636 12616023
-0.49959317 -0.06909205 0.71169752 12943705
-0.46029568 -0.064561419 0.66502881 12681300
-0.40704799 -0.057915393 0.59656996 12943957
-0.42625767 -0.061535105 0.63385558 13009750
-0.42002684 -0.061535105 0.63385558 12944728
-0.4074299 -0.060588412 0.62410396 13010521
-0.37263101 -0.056260668 0.57952511 13010262
-0.35674167 -0.054697875 0.56342721 13469784
-0.34639212 -0.053948585 0.555709 13273436
-0.34566462 -0.054697875 0.56342721 13207384
-0.33093348 -0.053219549 0.54819942 13469784
-0.28011984 -0.045793567 0.47170648 13076567
-0.26922196 -0.044752803 0.46098587 6040355
-0.25045979 -0.042346738 0.43620169 2953489
-0.24355304 -0.041896239 0.43156123 3151640
-0.24451318 -0.042807028 0.440943 4071713
-0.2401787 -0.042807028 0.440943 4333087
-0.22839651 -0.041455228 0.42701849 4464929
-0.22186348 -0.041023403 0.42257038 4530466
-0.2177096 -0.041023403 0.42257038 4793377
-0.21355571 -0.041023403 0.42257038 4793376
-0.20940182 -0.041023403 0.42257038 4990496
-0.20524794 -0.041023403 0.42257038 5056288
-0.20109405 -0.041023403 0.42257038 5581348
-0.19694017 -0.041023403 0.42257038 5844006
-0.19278628 -0.041023403 0.42257038 5909795
-0.1886324 -0.041023403 0.42257038 6106659
-0.18840358 -0.041896239 0.43156123 6303522
-0.18416132 -0.041896239 0.43156123 6106145
-0.17991905 -0.041896239 0.43156123 6171425
-0.17567678 -0.041896239 0.43156123 5974558
-0.17143452 -0.041896239 0.43156123 6040605
-0.16899002 -0.042346738 0.43620169 6172192
-0.16470215 -0.042346738 0.43620169 6237985
-0.16041426 -0.042346738 0.43620169 6828837
-0.15955772 -0.043277435 0.44578853 7026212
-0.15689978 -0.043758295 0.45074174 6171933
-0.15418209 -0.044249963 0.45580626 4463894
-0.15674628 -0.046332315 0.47725597 3412237
-0.15386501 -0.046883889 0.48293757 1640462
-0.15275472 -0.0480274 0.49471655 1771534
-0.14971747 -0.048620328 0.50082415 1968911
-0.14479433 -0.048620328 0.50082415 2296845
0 0 0 2362382
0 0 0 2822418
-0.14427428 -0.053948585 0.555709 2822417
-0.14272183 -0.055468265 0.57136279 3150354
-0.14107937 -0.057076037 0.587924 3216146
-0.13728975 -0.057915393 0.59656996 3544341
-0.13338701 -0.058779802 0.605474 3347732
-0.12743518 -0.058779802 0.605474 3741204
-0.12148335 -0.058779802 0.605474 3806482
-0.11728198 -0.0596704 0.61464781 3281426
-0.10957967 -0.058779802 0.605474 3346962
-0.10519795 -0.0596704 0.61464781 3150353
-0.10068142 -0.060588412 0.62410396 3150353
-0.094546445 -0.060588412 0.62410396 3346448
-0.089792907 -0.061535105 0.63385558 3085075
-0.082276508 -0.060588412 0.62410396 2756110
-0.076141536 -0.060588412 0.62410396 786950
0 0 0 720903
0 0 0 786950
0 0 0 918282
0 0 0 1049352
0 0 0 1246730
0 0 0 1444110
0 0 0 1378830
0 0 0 1444110
0 0 0 2166541
0 0 0 5121307
0 0 0 6106911
0 0 0 5910045
0 0 0 5845022
0 0 0 6107426
0 0 0 5778977
0 0 0 4793367
0.3659884 -0.78764939 8.1133518 5451036
0 0 0 4990492
0.52549762 -0.78764939 8.1133518 5450784
0 0 0 5778207
0.38055938 -0.437583 4.5074177 1641481
0.4779759 -0.49228084 5.0708447 1509645
0.52782255 -0.49228084 5.0708447 1707024
0.66019332 -0.56260663 5.7952509 1575695
0.71716088 -0.56260663 5.7952509 1509645
0.67736244 -0.49228084 5.0708447 8673090
0.72720903 -0.49228084 5.0708447 9724483
0.69071621 -0.437583 4.5074177 10316102
0.73502433 -0.437583 4.5074177 11039051
0.77933246 -0.437583 4.5074177 12287316
0.82364053 -0.437583 4.5074177 13075543
0.86794865 -0.437583 4.5074177 13206872
0.91225678 -0.437583 4.5074177 13404251
0.9565649 -0.437583 4.5074177 13470553
1.000873 -0.437583 4.5074177 13799263
1.0451812 -0.437583 4.5074177 13798492
1.0894892 -0.437583 4.5074177 13733727
1.1337974 -0.437583 4.5074177 14257758
1.1781055 -0.437583 4.5074177 14127197
1.2224137 -0.437583 4.5074177 14127457
1.2667217 -0.437583 4.5074177 14258785
1.3110299 -0.437583 4.5074177 14586465
1.355338 -0.437583 4.5074177 14521184
1.399646 -0.437583 4.5074177 13996894
1.4439542 -0.437583 4.5074177 14390369
1.4882623 -0.437583 4.5074177 14324577
1.5325705 -0.437583 4.5074177 14520930
1.5768785 -0.437583 4.5074177 14455393
1.6211867 -0.437583 4.5074177 14456162
1.6654948 -0.437583 4.5074177 14455903
1.7098029 -0.437583 4.5074177 14455138
1.7541111 -0.437583 4.5074177 14258272
1.7984191 -0.437583 4.5074177 14127712
1.8427273 -0.437583 4.5074177 14258270
1.8870354 -0.437583 4.5074177 13995868
1.9313436 -0.437583 4.5074177 13865054
1.9756516 -0.437583 4.5074177 13996639
1.0099798 -0.2187915 2.2537088 13930077
0.92892057 -0.19691235 2.028338 13863514
0.99879909 -0.20727615 2.1350925 13405278
1.076442 -0.2187915 2.2537088 13470555
1.0985961 -0.2187915 2.2537088 8140836
1.0617633 -0.20727615 2.1350925 1181454
1.0827513 -0.20727615 2.1350925 1443856
1.0485525 -0.19691235 2.028338 1181454
1.1247275 -0.20727615 2.1350925 1312781
1.1457155 -0.20727615 2.1350925 1181710
1.1667036 -0.20727615 2.1350925 1247247
1.1876916 -0.20727615 2.1350925 1246990
1.2758286 -0.2187915 2.2537088 1115148
1.2979827 -0.2187915 2.2537088 1181454
1.3201367 -0.2187915 2.2537088 984075
1.3422908 -0.2187915 2.2537088 984845
1.3644449 -0.2187915 2.2537088 984075
1.9199061 -0.30294207 3.1205199 1049868
1.950581 -0.30294207 3.1205199 853261
1.9812558 -0.30294207 3.1205199 787468
1.4530611 -0.2187915 2.2537088 853259
1.4752151 -0.2187915 2.2537088 853261
1.4973692 -0.2187915 2.2537088 918540
1.5195233 -0.2187915 2.2537088 1049868
1.5416772 -0.2187915 2.2537088 984075
1.5638313 -0.2187915 2.2537088 853002
1.5859854 -0.2187915 2.2537088 787466
1.6081395 -0.2187915 2.2537088 984075
1.5444885 -0.20727615 2.1350925 918537
1.4872029 -0.19691235 2.028338 852746
1.5071415 -0.19691235 2.028338 787466
1.4543619 -0.18753555 1.9317503 918282
1.4733511 -0.18753555 1.9317503 984075
1.4923403 -0.18753555 1.9317503 1115915
1.5113295 -0.18753555 1.9317503 984075
1.5303187 -0.18753555 1.9317503 2101005
1.4788848 -0.17901121 1.8439435 10382149
1.4970108 -0.17901121 1.8439435 10711630
1.5872862 -0.18753555 1.9317503 10646353
1.6062754 -0.18753555 1.9317503 10776143
1.6252646 -0.18753555 1.9317503 10973778
1.6442538 -0.18753555 1.9317503 10842192
1.8383213 -0.20727615 2.1350925 10842192
2.0780516 -0.23166157 2.3862798 10907727
1.9847585 -0.2187915 2.2537088 10711119
2.0069125 -0.2187915 2.2537088 10776913
1.9222735 -0.20727615 2.1350925 10775886
2.0512207 -0.2187915 2.2537088 10711119
2.1953378 -0.23166157 2.3862798 10776401
2.2187951 -0.23166157 2.3862798 10841679
2.2422523 -0.23166157 2.3862798 10842194
2.2657096 -0.23166157 2.3862798 10710610
2.4322398 -0.24614042 2.5354223 10710608
2.4571631 -0.24614042 2.5354223 10776401
2.4820864 -0.24614042 2.5354223 10776654
2.5070097 -0.24614042 2.5354223 10579274
2.5319331 -0.24614042 2.5354223 10448205
2.7273133 -0.26254976 2.7044504 10513745
2.5817795 -0.24614042 2.5354223 10382417
2.4533675 -0.23166157 2.3862798 10317137
2.3392234 -0.2187915 2.2537088 10317136
2.3613775 -0.2187915 2.2537088 10317392
2.3835316 -0.2187915 2.2537088 10382158
2.4056857 -0.2187915 2.2537088 10448206
3.361624 -0.30294207 3.1205199 10447438
3.3922989 -0.30294207 3.1205199 10446926
3.4229739 -0.30294207 3.1205199 10250316
3.4536486 -0.30294207 3.1205199 10250828
3.4843235 -0.30294207 3.1205199 10381900
3.5149984 -0.30294207 3.1205199 10579279
3.2924106 -0.28130332 2.8976254 10580049
3.0995014 -0.26254976 2.7044504 10317390
2.605072 -0.2187915 2.2537088 10448206
2.7817688 -0.23166157 2.3862798 10645585
2.6493802 -0.2187915 2.2537088 10513745
2.2898865 -0.18753555 1.9317503 8936000
2.3088756 -0.18753555 1.9317503 8345147
2.3278649 -0.18753555 1.9317503 10251086
2.4641969 -0.19691235 2.028338 10579536
0 0 0 10711121
0 0 0 10973266
0 0 0 10907476
0 0 0 10972499
0 0 0 10841427
0 0 0 10841940
0 0 0 10775891
0 0 0 10906450
0 0 0 7555380
0 0 0 7949625
-3.0259664 -0.22121711 2.5354223 7752757
-3.4297633 -0.25281954 2.8976254 7818294
-3.4012797 -0.25281954 2.8976254 7489842
-3.3727958 -0.25281954 2.8976254 6898218
-3.344312 -0.25281954 2.8976254 6635560
-3.5708921 -0.27226722 3.1205199 6897962
-3.5402174 -0.27226722 3.1205199 6963501
-3.5095425 -0.27226722 3.1205199 7357743
-3.4788675 -0.27226722 3.1205199 7488814
-3.7355418 -0.29495612 3.380563 7686193
-4.0388846 -0.32177034 3.687887 7883574
-4.4028959 -0.35394737 4.0566759 8476222
-4.3630185 -0.35394737 4.0566759 8673083
-4.3231416 -0.35394737 4.0566759 8343856
-5.3540797 -0.44243422 5.0708447 5254684
-5.3042331 -0.44243422 5.0708447 2494737
-5.2543864 -0.44243422 5.0708447 6374462
-6.9393864 -0.58991224 6.761126 10251090
-4.123755 -0.35394737 4.0566759 10447174
-4.0838776 -0.35394737 4.0566759 10775883
-2.5275002 -0.22121711 2.5354223 10709833
-2.669415 -0.23596489 2.7044504 10775370
-2.6428301 -0.23596489 2.7044504 10973262
-2.8031201 -0.25281954 2.8976254 11038796
-2.7746363 -0.25281954 2.8976254 11104332
