# .PCD v0.7 - Point Cloud Data file format
VERSION 0.7
FIELDS x y z rgb
SIZE 4 4 4 4
TYPE F F F U
COUNT 1 1 1 1
WIDTH 1309
HEIGHT 1
VIEWPOINT 0 0 0 1 0 0 0
POINTS 1309
DATA ascii
-2.4035664 0.72109038 2.7044504 6436391
-2.3769815 0.72109038 2.7044504 6173478
-2.3503966 0.72109038 2.7044504 5318942
-2.6813214 0.83202744 3.1205199 4071450
-2.6506467 0.83202744 3.1205199 3152151
-2.4328308 0.77259684 2.8976254 2561561
-2.4043469 0.77259684 2.8976254 2692892
-2.5586221 0.83202744 3.1205199 4929843
-2.5279472 0.83202744 3.1205199 6503988
-2.4972725 0.83202744 3.1205199 2691605
-2.9150696 0.9833051 3.687887 2232855
-3.5185549 1.2018174 4.5074177 4075564
-3.9085276 1.3520445 5.0708447 6830377
-3.858681 1.3520445 5.0708447 7291696
-2.7700613 0.9833051 3.687887 7029296
-1.4319953 0.51506454 1.9317503 6832687
-1.4130061 0.51506454 1.9317503 7226930
-1.5407555 0.56928188 2.1350925 7424307
-1.6041991 0.6009087 2.2537088 8015415
-1.5820451 0.6009087 2.2537088 8607035
-1.559891 0.6009087 2.2537088 8738876
-1.5377369 0.6009087 2.2537088 8738106
-1.5155829 0.6009087 2.2537088 8870205
-1.2800817 0.51506454 1.9317503 9001533
-1.2610925 0.51506454 1.9317503 9067582
-1.3042086 0.5408178 2.028338 9264190
-2.8539333 1.2018174 4.5074177 9527104
-2.8096251 1.2018174 4.5074177 9592897
-0.73199564 0.31812811 1.1931399 9658688
-0.54420173 0.24036346 0.90148348 10052930
-0.51255971 0.23013523 0.86312246 10315587
-0.46453986 0.21208541 0.79542661 8737071
-0.43948603 0.20408218 0.76541048 7222821
-0.43196198 0.20408218 0.76541048 5975073
-0.42443797 0.20408218 0.76541048 4595484
-0.41691396 0.20408218 0.76541048 3150613
-0.40938994 0.20408218 0.76541048 2493456
-0.40186593 0.20408218 0.76541048 2427920
-0.3870393 0.2003029 0.75123626 2362385
-0.35967278 0.18976064 0.71169752 1837583
-0.35267678 0.18976064 0.71169752 1771534
-0.34568074 0.18976064 0.71169752 1574669
-0.33868474 0.18976064 0.71169752 1180681
-0.34375009 0.19666101 0.73757738 1311496
0 0 0 1246220
0 0 0 1837839
0 0 0 3347731
0 0 0 5841436
0 0 0 9648680
0 0 0 11681322
0 0 0 11812134
0 0 0 11877411
0 0 0 12008740
0 0 0 11746341
0 0 0 11877929
-0.1681069 0.12876613 0.48293757 11943205
-0.16143773 0.12725125 0.47725597 11680034
-0.15674628 0.12725125 0.47725597 11482656
-0.15956371 0.13353525 0.50082415 11614242
-0.15464059 0.13353525 0.50082415 11548962
-0.14789164 0.13190678 0.49471655 12074020
-0.14479433 0.13353525 0.50082415 11876900
-0.14713725 0.14047214 0.52684098 11941921
-0.13663495 0.13520445 0.50708449 11876898
-0.12390615 0.12725125 0.47725597 11811618
-0.1192147 0.12725125 0.47725597 12008225
-0.11452325 0.12725125 0.47725597 11811362
-0.11525559 0.13353525 0.50082415 11943207
-0.14414404 0.17445736 0.65430254 11877411
0 0 0 11811107
0 0 0 11614242
0 0 0 11286819
0 0 0 12008484
-0.091356121 0.14232047 0.53377312 12008227
-0.086109102 0.14232047 0.53377312 12139043
-0.083047554 0.14616697 0.54819942 12139813
-0.077658728 0.14616697 0.54819942 12073762
-0.071306303 0.14421809 0.5408901 11942947
-0.06598933 0.14421809 0.5408901 12205604
-0.060672358 0.14421809 0.5408901 12008738
0 0 0 11811361
0 0 0 12335907
0 0 0 11942947
0 0 0 11942946
0 0 0 12139811
0 0 0 12008740
0 0 0 12532770
0 0 0 12140065
0 0 0 12533029
0 0 0 12270627
0 0 0 12270627
0 0 0 11680802
0 0 0 11746341
0 0 0 11549732
0.0681509 0.51506454 1.9317503 11615525
0.087140091 0.51506454 1.9317503 11681572
0.12381751 0.6009087 2.2537088 11943461
0.1313744 0.5408178 2.028338 11943461
0.15131307 0.5408178 2.028338 12009254
0.19027969 0.6009087 2.2537088 12074531
0.23898795 0.67602223 2.5354223 12271397
0.32481387 0.83202744 3.1205199 12598822
0.33009666 0.77259684 2.8976254 12271397
0.35858044 0.77259684 2.8976254 12664867
0.33868122 0.67602223 2.5354223 12468006
0.36360452 0.67602223 2.5354223 12599592
0.3453581 0.6009087 2.2537088 12402983
0.41345116 0.67602223 2.5354223 12402985
0.43837446 0.67602223 2.5354223 12600103
0.46329778 0.67602223 2.5354223 12271910
0.55796695 0.77259684 2.8976254 12468773
0.63156235 0.83202744 3.1205199 12927783
0.53806776 0.67602223 2.5354223 12599846
0.47409773 0.56928188 2.1350925 12600102
0.55333114 0.63625622 2.3862798 12600359
0.57678843 0.63625622 2.3862798 12796453
0.637761 0.67602223 2.5354223 12862504
0.66268432 0.67602223 2.5354223 12862248
0.50007826 0.49165255 1.8439435 12665639
0.51820433 0.49165255 1.8439435 12861735
0.53633034 0.49165255 1.8439435 12600616
0.55445641 0.49165255 1.8439435 12534823
0.50387257 0.43265423 1.6226703 12272421
0.46412811 0.38629842 1.4488127 12599846
0.47837001 0.38629842 1.4488127 12534053
0.49261189 0.38629842 1.4488127 12534312
0.52562618 0.4006058 1.5024725 12665638
0.56118 0.41601372 1.5602599 12796455
0.59957808 0.43265423 1.6226703 12468006
0.615529 0.43265423 1.6226703 12600616
0.63147992 0.43265423 1.6226703 12599849
0.62252969 0.41601372 1.5602599 12730407
0.66338181 0.43265423 1.6226703 12665639
0.67933273 0.43265423 1.6226703 12337446
0.69528365 0.43265423 1.6226703 12534826
0.68387938 0.41601372 1.5602599 12206375
0.67331988 0.4006058 1.5024725 12271654
0.68808925 0.4006058 1.5024725 12206117
0.70285863 0.4006058 1.5024725 11746598
0.74522913 0.41601372 1.5602599 11616297
0.76056653 0.41601372 1.5602599 12009767
0.80694008 0.43265423 1.6226703 11812647
0.822891 0.43265423 1.6226703 11943976
0.91178471 0.47027633 1.763772 12074533
0.9713555 0.49165255 1.8439435 11812134
0.98948157 0.49165255 1.8439435 11747111
1.0555888 0.51506454 1.9317503 12008486
1.074578 0.51506454 1.9317503 11943207
1.0935673 0.51506454 1.9317503 11745828
1.1125565 0.51506454 1.9317503 11418404
1.188123 0.5408178 2.028338 11483940
1.2080617 0.5408178 2.028338 11483940
1.2280003 0.5408178 2.028338 11286562
1.1885133 0.51506454 1.9317503 11353125
1.2075025 0.51506454 1.9317503 11484711
1.2264916 0.51506454 1.9317503 11287334
1.307755 0.5408178 2.028338 11025188
1.3975722 0.56928188 2.1350925 11156517
1.4185603 0.56928188 2.1350925 11221797
1.4395483 0.56928188 2.1350925 11222054
1.3875096 0.5408178 2.028338 11287334
1.4815243 0.56928188 2.1350925 11418408
1.4273869 0.5408178 2.028338 11484713
1.3784052 0.51506454 1.9317503 11156777
1.3973943 0.51506454 1.9317503 10959653
1.4163835 0.51506454 1.9317503 10894375
1.4353727 0.51506454 1.9317503 10762787
1.3882545 0.49165255 1.8439435 10828327
1.4063807 0.49165255 1.8439435 11025191
1.4245067 0.49165255 1.8439435 11155748
1.5868961 0.5408178 2.028338 10895914
1.6914049 0.56928188 2.1350925 11159089
1.9138509 0.63625622 2.3862798 11159089
1.568297 0.51506454 1.9317503 11160111
1.5872862 0.51506454 1.9317503 11028529
1.533263 0.49165255 1.8439435 10896687
1.551389 0.49165255 1.8439435 10830896
1.2788641 0.4006058 1.5024725 10437420
1.2936336 0.4006058 1.5024725 10567723
1.3587261 0.41601372 1.5602599 10567465
1.3740635 0.41601372 1.5602599 10502443
1.6420193 0.49165255 1.8439435 10763818
1.6601453 0.49165255 1.8439435 10764331
2.1718805 0.63625622 2.3862798 10764844
2.6657672 0.77259684 2.8976254 10699052
2.6942511 0.77259684 2.8976254 10502957
2.7227349 0.77259684 2.8976254 10502958
2.5678041 0.72109038 2.7044504 10371372
2.594389 0.72109038 2.7044504 10634029
3.2762172 0.90136296 3.380563 10305580
3.3094485 0.90136296 3.380563 10108714
3.3426795 0.90136296 3.380563 10043435
2.8936377 0.77259684 2.8976254 10042153
2.9221213 0.77259684 2.8976254 10173993
3.1775749 0.83202744 3.1205199 10372142
3.2082498 0.83202744 3.1205199 10438189
3.5088348 0.90136296 3.380563 10635312
3.2695994 0.83202744 3.1205199 10373684
1.7161427 0.43265423 1.6226703 10175792
1.7320936 0.43265423 1.6226703 10242355
0 0 0 10241069
0 0 0 10307378
0 0 0 8996659
0 0 0 7882547
0 0 0 8344120
0 0 0 8014906
2.004076 0.47027633 1.763772 6634288
2.3246262 0.5408178 2.028338 6634288
2.3445649 0.5408178 2.028338 6502185
0 0 0 8274993
0 0 0 9915447
0 0 0 10373429
0 0 0 10766130
0 0 0 10635314
0 0 0 10832693
0 0 0 10833204
0 0 0 10438707
0 0 0 10438195
0 0 0 10438194
0 0 0 10372401
0 0 0 9979183
0 0 0 9979188
0 0 0 9847857
0 0 0 5648674
0 0 0 2691858
-4.4014053 1.0195571 3.687887 2100752
-4.8016691 1.121513 4.0566759 1969682
-4.7617917 1.121513 4.0566759 2167576
-4.7219143 1.121513 4.0566759 2627612
-4.2563972 1.0195571 3.687887 2758938
-4.2201452 1.0195571 3.687887 3021337
-4.1838932 1.0195571 3.687887 3152663
-5.0693393 1.2461255 4.5074177 3415065
-5.0250311 1.2461255 4.5074177 3678237
-4.4826508 1.121513 4.0566759 3744030
-4.4427733 1.121513 4.0566759 4400929
-4.4028959 1.121513 4.0566759 4992291
-4.8477983 1.2461255 4.5074177 5977643
-4.3231416 1.121513 4.0566759 6503213
-3.8938763 1.0195571 3.687887 7094321
-3.8576241 1.0195571 3.687887 7422772
-3.5029244 0.93459404 3.380563 7554356
-3.2027938 0.86270225 3.1205199 7423025
-3.1721191 0.86270225 3.1205199 7291696
-3.1414442 0.86270225 3.1205199 7160623
-3.1107693 0.86270225 3.1205199 7684911
-3.0800946 0.86270225 3.1205199 7882288
-3.0494196 0.86270225 3.1205199 7356713
-2.6162453 0.74767524 2.7044504 6700329
-2.5896604 0.74767524 2.7044504 5452580
-3.2038445 0.93459404 3.380563 3942175
-3.1706135 0.93459404 3.380563 3022360
-3.1373823 0.93459404 3.380563 2496788
-2.660701 0.80108064 2.8976254 2430995
-1.8425523 0.5607565 2.028338 2693140
-1.8226136 0.5607565 2.028338 2956828
-1.802675 0.5607565 2.028338 2626581
-1.6206692 0.50977856 1.8439435 2233109
-1.6025432 0.50977856 1.8439435 2298387
-2.1785736 0.70094556 2.5354223 2167573
-1.9143559 0.62306273 2.2537088 2299159
-0.8109436 0.26702687 0.96587515 4271406
-0.801449 0.26702687 0.96587515 5649456
-1.5119129 0.50977856 1.8439435 6899771
-1.4937869 0.50977856 1.8439435 3150605
-1.4756609 0.50977856 1.8439435 2298387
-1.6032884 0.5607565 2.028338 3022114
-2.638916 0.93459404 3.380563 4075044
0 0 0 7421229
0 0 0 7094061
-1.171949 0.43135113 1.5602599 7356714
-1.1566117 0.43135113 1.5602599 7620661
-1.3487786 0.50977856 1.8439435 8410429
-1.3940169 0.53405374 1.9317503 8739133
-1.4437792 0.5607565 2.028338 8869691
-1.4238405 0.5607565 2.028338 9067326
-1.2207842 0.4876143 1.763772 8869690
-1.2034461 0.4876143 1.763772 9199168
-1.1861082 0.4876143 1.763772 9460800
-1.1200715 0.46729702 1.6902815 9198655
-0.88276476 0.37383762 1.3522252 9264448
-0.89945418 0.38672858 1.3988537 9461566
-0.88570338 0.38672858 1.3988537 9658688
-0.81569761 0.36177835 1.3086051 10184773
-0.55306339 0.24922508 0.90148348 10184001
-0.52104419 0.23861976 0.86312246 10185029
-0.46327513 0.21567556 0.78012997 9066033
-0.44701004 0.2116062 0.76541048 7289125
-0.43948603 0.2116062 0.76541048 7091237
-0.43196198 0.2116062 0.76541048 6369312
-0.42443797 0.2116062 0.76541048 5383451
-0.41691396 0.2116062 0.76541048 3806995
-0.40938994 0.2116062 0.76541048 2954261
-0.40186593 0.2116062 0.76541048 2493456
-0.36666882 0.19675666 0.71169752 1902092
-0.35967278 0.19675666 0.71169752 1640205
-0.35267678 0.19675666 0.71169752 1640206
-0.34568074 0.19675666 0.71169752 1574668
-0.33868474 0.19675666 0.71169752 2296334
0 0 0 4922650
0 0 0 8075309
0 0 0 10436911
0 0 0 11550502
0 0 0 11549989
0 0 0 11746599
-0.17201684 0.11682425 0.42257038 12008740
-0.1732779 0.12059279 0.43620169 11352355
-0.16899002 0.12059279 0.43620169 11680548
-0.16294998 0.11930988 0.43156123 11811362
-0.16215789 0.12190358 0.440943 11614757
-0.16499719 0.12744464 0.46098587 11745828
-0.16231011 0.12890953 0.46628457 11811875
-0.1633596 0.13351344 0.48293757 11942948
-0.16448684 0.13845839 0.50082415 11811361
-0.17006132 0.14756748 0.53377312 12008226
-0.15464059 0.13845839 0.50082415 12139812
-0.14437041 0.13351344 0.48293757 11876641
-0.14130533 0.13512205 0.48875612 11548449
-0.14161961 0.14018913 0.50708449 11417374
-0.14195837 0.14565103 0.52684098 11745315
-0.13002497 0.13845839 0.50082415 11876899
-0.12510183 0.13845839 0.50082415 11679778
-0.12017871 0.13845839 0.50082415 12007457
-0.1212429 0.14565103 0.52684098 12008486
-0.13540803 0.16992618 0.61464781 11943202
-0.27542442 0.36177835 1.3086051 12204836
0 0 0 11745311
0 0 0 11089439
0 0 0 11680291
0 0 0 11811105
-0.089647837 0.15363191 0.555709 11942693
-0.08418519 0.15363191 0.555709 12074020
-0.078722544 0.15363191 0.555709 11811361
-0.072269902 0.15155579 0.54819942 12401697
-0.066881076 0.15155579 0.54819942 12401443
0 0 0 12270627
0 0 0 12205604
0 0 0 12204834
0 0 0 12205606
0 0 0 12140068
0 0 0 12074021
0 0 0 12270627
0 0 0 11680800
0 0 0 11877668
0 0 0 12074020
0 0 0 11942947
0 0 0 12205606
0 0 0 12009254
0 0 0 12140326
0.041295838 0.44860515 1.6226703 12074020
0.05724676 0.44860515 1.6226703 12074531
0.073197678 0.44860515 1.6226703 11745828
0.11730079 0.59026992 2.1350925 11943459
0.13828884 0.59026992 2.1350925 11812134
0.1592769 0.59026992 2.1350925 12140326
0.19027969 0.62306273 2.2537088 12074533
0.23898795 0.70094556 2.5354223 12402213
0.32481387 0.86270225 3.1205199 12206117
0.35548872 0.86270225 3.1205199 12598822
0.38616356 0.86270225 3.1205199 12337190
0.38706425 0.80108064 2.8976254 12598822
0.36360452 0.70094556 2.5354223 12861735
0.38852784 0.70094556 2.5354223 12795942
0.41345116 0.70094556 2.5354223 12469289
0.46759942 0.74767524 2.7044504 12599075
0.46329778 0.70094556 2.5354223 12796456
0.43397433 0.62306273 2.2537088 12665382
0.63156235 0.86270225 3.1205199 12862502
0.53806776 0.70094556 2.5354223 12731432
0.52987391 0.65971345 2.3862798 12730665
0.55333114 0.65971345 2.3862798 12796455
0.57678843 0.65971345 2.3862798 12731175
0.60024565 0.65971345 2.3862798 12796711
0.62370288 0.65971345 2.3862798 12796968
0.64716011 0.65971345 2.3862798 12928039
0.51820433 0.50977856 1.8439435 12797225
0.51301163 0.4876143 1.763772 12862246
0.50825173 0.46729702 1.6902815 12469030
0.48449287 0.43135113 1.5602599 12731688
0.46412811 0.40054032 1.4488127 12665641
0.47837001 0.40054032 1.4488127 12665896
0.49261189 0.40054032 1.4488127 12403754
0.50685376 0.40054032 1.4488127 12665385
0.56118 0.43135113 1.5602599 12009767
0.59957808 0.44860515 1.6226703 12075560
0.59185487 0.43135113 1.5602599 12207145
0.60719228 0.43135113 1.5602599 12272425
0.59947306 0.41537514 1.5024725 12272685
0.66338181 0.44860515 1.6226703 12402983
0.65320456 0.43135113 1.5602599 12206117
0.69528365 0.44860515 1.6226703 12206118
0.6585505 0.41537514 1.5024725 12403240
0.67331988 0.41537514 1.5024725 12271397
0.68808925 0.41537514 1.5024725 11943720
0.70285863 0.41537514 1.5024725 11943719
0.74522913 0.43135113 1.5602599 12009000
0.76056653 0.43135113 1.5602599 11025445
0.77590394 0.43135113 1.5602599 11484455
0.822891 0.44860515 1.6226703 11877670
0.83884192 0.44860515 1.6226703 12009000
0.92912263 0.4876143 1.763772 11943207
0.98948157 0.50977856 1.8439435 11747111
1.0555888 0.53405374 1.9317503 11746855
1.074578 0.53405374 1.9317503 12074533
1.0438597 0.50977856 1.8439435 11877924
1.1125565 0.53405374 1.9317503 11943461
1.1315457 0.53405374 1.9317503 11681320
1.2080617 0.5607565 2.028338 11484199
1.1695241 0.53405374 1.9317503 11287334
1.1885133 0.53405374 1.9317503 11550761
1.2075025 0.53405374 1.9317503 11550504
1.170742 0.50977856 1.8439435 11484453
1.307755 0.5607565 2.028338 11091238
1.3276936 0.5607565 2.028338 11156003
1.3476323 0.5607565 2.028338 11221539
1.3675709 0.5607565 2.028338 11287588
1.3875096 0.5607565 2.028338 11090468
1.4074482 0.5607565 2.028338 11615270
1.359416 0.53405374 1.9317503 11418663
1.3784052 0.53405374 1.9317503 11286819
1.3973943 0.53405374 1.9317503 11287591
1.4163835 0.53405374 1.9317503 11353127
1.4353727 0.53405374 1.9317503 11156261
1.1311704 0.41537514 1.5024725 11156261
1.4063807 0.50977856 1.8439435 11352612
1.4245067 0.50977856 1.8439435 10893860
1.5868961 0.5607565 2.028338 10895143
1.6914049 0.59026992 2.1350925 10895915
1.9138509 0.65971345 2.3862798 10765099
1.568297 0.53405374 1.9317503 10634029
1.2820389 0.43135113 1.5602599 10765615
1.2493254 0.41537514 1.5024725 10831151
1.2189485 0.40054032 1.4488127 11026990
1.2331904 0.40054032 1.4488127 10699820
1.2936336 0.41537514 1.5024725 10765613
1.3084029 0.41537514 1.5024725 10699820
1.3740635 0.43135113 1.5602599 10634284
1.4449769 0.44860515 1.6226703 10699052
1.6601453 0.50977856 1.8439435 10436908
1.6782713 0.50977856 1.8439435 10501931
2.3325465 0.70094556 2.5354223 10239786
2.6942511 0.80108064 2.8976254 10567981
2.5412192 0.74767524 2.7044504 10305065
2.5678041 0.74767524 2.7044504 10239530
2.4322398 0.70094556 2.5354223 10042407
2.4571631 0.70094556 2.5354223 10173993
2.4820864 0.70094556 2.5354223 10042923
2.8651538 0.80108064 2.8976254 10173739
2.8936377 0.80108064 2.8976254 10108200
2.9221213 0.80108064 2.8976254 10305579
2.9506052 0.80108064 2.8976254 10305320
3.2082498 0.86270225 3.1205199 10437163
3.5088348 0.93459404 3.380563 10437933
2.2370944 0.59026992 2.1350925 10701618
1.7161427 0.44860515 1.6226703 10504241
1.8042641 0.46729702 1.6902815 10438194
0 0 0 10568751
0 0 0 10175276
0 0 0 9782061
0 0 0 8274734
0 0 0 7947570
1.9039574 0.46729702 1.6902815 8146232
2.004076 0.4876143 1.763772 7226164
2.1132965 0.50977856 1.8439435 5911079
2.2329187 0.53405374 1.9317503 5582113
2.3645036 0.5607565 2.028338 6436135
0 0 0 7881521
0 0 0 9324083
0 0 0 10373429
0 0 0 10635830
0 0 0 10897203
0 0 0 10766130
0 0 0 10701620
0 0 0 10636596
0 0 0 10701618
0 0 0 10504244
0 0 0 10372914
0 0 0 10176560
0 0 0 10241839
0 0 0 4925719
0 0 0 3612698
-4.8415465 1.1613903 4.0566759 3283735
-4.8016691 1.1613903 4.0566759 3283480
-4.7617917 1.1613903 4.0566759 3349271
-3.9349284 0.96782517 3.380563 3744026
-3.344312 0.82956439 2.8976254 4270369
-3.3158283 0.82956439 2.8976254 4928553
-3.5402174 0.89337713 3.1205199 5782832
-3.5095425 0.89337713 3.1205199 6044462
-5.0250311 1.2904336 4.5074177 6108968
-4.9807229 1.2904336 4.5074177 6502441
-4.9364147 1.2904336 4.5074177 6765352
-4.8921065 1.2904336 4.5074177 7225644
-4.8477983 1.2904336 4.5074177 7356716
-3.9301283 1.0558093 3.687887 7093804
-3.2948184 0.89337713 3.1205199 6569006
-2.4961097 0.68317068 2.3862798 6504246
-2.0016711 0.55304295 1.9317503 6175025
-1.9826819 0.55304295 1.9317503 5385509
-2.1703973 0.61125803 2.1350925 4136470
-2.1494091 0.61125803 2.1350925 3282448
-1.5553846 0.44668856 1.5602599 2626063
-1.5400473 0.44668856 1.5602599 2167056
-1.5247098 0.44668856 1.5602599 2035989
-1.1892024 0.3519364 1.2292956 2035987
-1.1098546 0.33182579 1.1590502 2758940
-1.098461 0.33182579 1.1590502 3087905
-1.0870675 0.33182579 1.1590502 2956575
-1.0756741 0.33182579 1.1590502 2364180
-1.0955828 0.34158534 1.1931399 2035215
-1.1166983 0.3519364 1.2292956 3416605
-1.0721256 0.34158534 1.1931399 4930353
-0.78377163 0.25247613 0.88188601 2494995
-0.72764742 0.23701841 0.82789302 1903118
-0.76643372 0.25247613 0.88188601 3020056
-0.7577647 0.25247613 0.88188601 5653821
-0.7657423 0.25808671 0.90148348 2367001
-0.77408254 0.26395231 0.92197174 3021338
-0.76501954 0.26395231 0.92197174 3413264
-0.73915744 0.25808671 0.90148348 2299153
-0.73029584 0.25808671 0.90148348 2232593
-0.77296519 0.27652147 0.96587515 2364184
-0.78209186 0.28326592 0.98943311 4009521
0 0 0 5780776
0 0 0 7882545
-0.99578863 0.37464201 1.3086051 7619886
-0.74318719 0.28326592 0.98943311 7290666
-0.81275409 0.31388924 1.0963988 7291439
-1.1412742 0.44668856 1.5602599 7817265
-1.3940169 0.55304295 1.9317503 8935997
-1.3750277 0.55304295 1.9317503 9132862
-1.3560386 0.55304295 1.9317503 9198654
-0.96820813 0.40047938 1.3988537 9460543
-0.95445734 0.40047938 1.3988537 9658947
-0.94070655 0.40047938 1.3988537 9723200
-0.84005368 0.36293444 1.2677112 9854784
-0.82759202 0.36293444 1.2677112 9854784
-0.84142488 0.37464201 1.3086051 9724481
-0.82856125 0.37464201 1.3086051 10052674
-0.58806103 0.27009076 0.94341296 10183747
-0.54104024 0.25247613 0.88188601 10380610
-0.46205807 0.21913022 0.76541048 9855294
-0.45453405 0.21913022 0.76541048 6961443
-0.44701004 0.21913022 0.76541048 6829350
-0.43948603 0.21913022 0.76541048 6763814
-0.43196198 0.21913022 0.76541048 5974814
-0.42443797 0.21913022 0.76541048 5514779
-0.40919337 0.21507226 0.75123626 4201753
-0.40180868 0.21507226 0.75123626 3742230
-0.39442399 0.21507226 0.75123626 3150868
-0.36034691 0.20023969 0.69942683 3283996
-0.35967278 0.20375268 0.71169752 4664622
-0.35267678 0.20375268 0.71169752 7813166
-0.34568074 0.20375268 0.71169752 9977130
-0.33868474 0.20375268 0.71169752 11287334
0 0 0 11812134
0 0 0 11812134
0 0 0 11746341
0 0 0 11942693
0 0 0 11877927
-0.17617074 0.12097815 0.42257038 12008740
-0.16850631 0.1185092 0.41394651 11680547
-0.16786297 0.12097815 0.42257038 11680549
-0.16719225 0.12355214 0.43156123 11615269
-0.16294998 0.12355214 0.43156123 11746083
-0.16215789 0.12623806 0.440943 11746082
-0.16499719 0.13197616 0.46098587 11614755
-0.16231011 0.13349313 0.46628457 11811107
-0.15772651 0.13349313 0.46628457 11745314
-0.16448684 0.14338151 0.50082415 12073765
-0.17006132 0.15281451 0.53377312 12008483
-0.15464059 0.14338151 0.50082415 11942948
-0.14610982 0.13992654 0.48875612 11811361
-0.14130533 0.13992654 0.48875612 11680035
-0.14161961 0.14517379 0.50708449 11680289
-0.1401384 0.14889619 0.52008665 11942180
-0.13502593 0.14889619 0.52008665 11811365
-0.13160063 0.1508299 0.52684098 11811106
-0.12642176 0.1508299 0.52684098 11877154
-0.14362621 0.17867541 0.62410396 11745314
-0.13749124 0.17867541 0.62410396 12008227
0 0 0 11942433
0 0 0 12074020
0 0 0 12139301
0 0 0 11943204
-0.10681639 0.17867541 0.62410396 12270628
-0.10068142 0.17867541 0.62410396 11942947
-0.094546445 0.17867541 0.62410396 11811107
-0.088411473 0.17867541 0.62410396 11680289
-0.083562076 0.18146722 0.63385558 12074020
-0.078558728 0.18434766 0.64391679 12402213
-0.063200377 0.16130421 0.56342721 12008740
-0.057661861 0.16130421 0.56342721 12008225
-0.051409323 0.15909454 0.555709 12401443
-0.04594668 0.15909454 0.555709 12598309
0 0 0 12270627
0 0 0 12468006
0 0 0 12074018
0 0 0 12598309
0 0 0 12074533
0 0 0 12074533
0 0 0 11812134
0 0 0 11877668
0 0 0 11877927
0 0 0 11942947
0 0 0 11942947
0.05724676 0.4645561 1.6226703 11811875
0.10166345 0.64521682 2.2537088 11681572
0.12381751 0.64521682 2.2537088 12205604
0.14597157 0.64521682 2.2537088 12336420
0.16812563 0.64521682 2.2537088 12402467
0.2014726 0.68317068 2.3862798 12534053
0.27312908 0.82956439 2.8976254 12337190
0.32481387 0.89337713 3.1205199 12533799
0.35548872 0.89337713 3.1205199 12468776
0.38616356 0.89337713 3.1205199 12271910
0.38706425 0.82956439 2.8976254 12336674
0.36360452 0.72586888 2.5354223 12730408
0.38852784 0.72586888 2.5354223 12796454
0.47251561 0.82956439 2.8976254 12533541
0.50099939 0.82956439 2.8976254 12534566
0.46329778 0.72586888 2.5354223 12665382
0.45950222 0.68317068 2.3862798 12271651
0.48295945 0.68317068 2.3862798 12665381
0.50641668 0.68317068 2.3862798 12665384
0.45039287 0.58069515 2.028338 12861992
0.55333114 0.68317068 2.3862798 12796454
0.57678843 0.68317068 2.3862798 12468775
0.60024565 0.68317068 2.3862798 12600359
0.62370288 0.68317068 2.3862798 12665896
0.61120683 0.64521682 2.2537088 12928041
0.54288071 0.55304295 1.9317503 12534823
0.51301163 0.50495225 1.763772 12666153
0.48792166 0.4645561 1.6226703 12534569
0.4498862 0.4147822 1.4488127 12862504
0.44812369 0.40047938 1.3988537 12862248
0.46187449 0.40047938 1.3988537 12600103
0.47562528 0.40047938 1.3988537 12796455
0.50685376 0.4147822 1.4488127 12402983
0.54039556 0.43014452 1.5024725 12272164
0.5765174 0.44668856 1.5602599 12207144
0.59185487 0.44668856 1.5602599 12403496
0.58470368 0.43014452 1.5024725 12140324
0.59947306 0.43014452 1.5024725 12140839
0.61424243 0.43014452 1.5024725 12271657
0.62901175 0.43014452 1.5024725 11878697
0.64378113 0.43014452 1.5024725 11812901
0.6585505 0.43014452 1.5024725 12140324
0.64927274 0.4147822 1.4488127 12009254
0.66351461 0.4147822 1.4488127 12272168
0.70285863 0.43014452 1.5024725 12206119
0.717628 0.43014452 1.5024725 12140326
0.76056653 0.44668856 1.5602599 11877411
0.77590394 0.44668856 1.5602599 11943463
0.79124135 0.44668856 1.5602599 11943207
0.83884192 0.4645561 1.6226703 12008741
0.85479283 0.4645561 1.6226703 11943720
0.9464606 0.50495225 1.763772 11943461
1.0076076 0.52790463 1.8439435 11615012
1.0257336 0.52790463 1.8439435 11615526
1.0438597 0.52790463 1.8439435 11746599
1.0619857 0.52790463 1.8439435 11811621
1.0801117 0.52790463 1.8439435 11680548
1.0982379 0.52790463 1.8439435 11811878
1.1695241 0.55304295 1.9317503 11549736
1.1885133 0.55304295 1.9317503 11615015
1.2075025 0.55304295 1.9317503 11746599
1.170742 0.52790463 1.8439435 11483683
1.2454808 0.55304295 1.9317503 11418146
1.26447 0.55304295 1.9317503 11417889
1.3476323 0.58069515 2.028338 11418148
1.3675709 0.58069515 2.028338 11287589
1.3875096 0.58069515 2.028338 11221541
1.3404268 0.55304295 1.9317503 11221798
1.359416 0.55304295 1.9317503 11221284
1.3784052 0.55304295 1.9317503 11221539
1.3973943 0.55304295 1.9317503 11353640
1.1016316 0.43014452 1.5024725 11155748
1.1164011 0.43014452 1.5024725 11287588
1.2216641 0.4645561 1.6226703 11222052
1.4063807 0.52790463 1.8439435 11286306
1.5669575 0.58069515 2.028338 10762787
0 0 0 11355435
2.0085433 0.72586888 2.5354223 11028272
2.0334666 0.72586888 2.5354223 10962223
1.733381 0.61125803 2.1350925 10765613
1.2820389 0.44668856 1.5602599 10502441
1.2493254 0.43014452 1.5024725 10699053
1.2189485 0.4147822 1.4488127 10634542
1.2788641 0.43014452 1.5024725 10633515
1.2936336 0.43014452 1.5024725 10502188
1.3587261 0.44668856 1.5602599 10567723
1.3740635 0.44668856 1.5602599 10305320
1.5051843 0.48391259 1.6902815 10305324
1.82616 0.58069515 2.028338 10437165
2.1718805 0.68317068 2.3862798 10502445
2.1953378 0.68317068 2.3862798 10436909
2.3574698 0.72586888 2.5354223 10305836
2.5412192 0.7742601 2.7044504 10240556
2.5678041 0.7742601 2.7044504 10240299
2.4322398 0.72586888 2.5354223 10305579
2.4571631 0.72586888 2.5354223 10305065
2.3360813 0.68317068 2.3862798 10305065
2.6741436 0.7742601 2.7044504 9845799
2.7007284 0.7742601 2.7044504 10173993
2.7273133 0.7742601 2.7044504 10042407
2.7538981 0.7742601 2.7044504 10239271
2.780483 0.7742601 2.7044504 10370857
2.8070679 0.7742601 2.7044504 10370858
1.8480344 0.50495225 1.763772 10437676
1.7876486 0.48391259 1.6902815 10438448
1.8827103 0.50495225 1.763772 10437165
3.1215079 0.82956439 2.8976254 10634544
4.0090804 1.0558093 3.687887 10372401
0 0 0 10175023
0 0 0 9323053
0 0 0 8011308
0 0 0 7683887
0 0 0 7158572
2.2139297 0.55304295 1.9317503 6369830
2.3445649 0.58069515 2.028338 5976102
2.6272261 0.64521682 2.2537088 6108970
2.9805527 0.72586888 2.5354223 6699048
0 0 0 7879724
0 0 0 9454899
0 0 0 9782833
0 0 0 10371884
0 0 0 10569778
0 0 0 10438451
0 0 0 10504499
0 0 0 10503987
0 0 0 10437933
0 0 0 10306608
0 0 0 10437937
0 0 0 10306865
0 0 0 5714722
0 0 0 5846311
-9.6830931 2.4025352 8.1133518 6436907
-9.6033382 2.4025352 8.1133518 6700333
-3.4012797 0.8580482 2.8976254 6568747
-2.2485306 0.57203215 1.9317503 6897197
-2.2295413 0.57203215 1.9317503 6962733
-2.2105522 0.57203215 1.9317503 7225646
-1.5869938 0.41423017 1.3988537 7423023
-1.573243 0.41423017 1.3988537 7225130
-3.230377 0.8580482 2.8976254 6240552
-3.2018931 0.8580482 2.8976254 6304803
-3.4175179 0.92405194 3.1205199 4991519
-3.6690798 1.0010562 3.380563 3282708
-4.8477983 1.3347417 4.5074177 2232853
-3.3254933 0.92405194 3.1205199 1970453
-2.519567 0.70662796 2.3862798 1838867
-1.4144621 0.40042248 1.3522252 1838867
-1.5568553 0.44491389 1.5024725 1970194
-1.542086 0.44491389 1.5024725 1904146
-1.4219843 0.41423017 1.3988537 1970194
-1.2375386 0.36402044 1.2292956 2035215
-1.092973 0.32466689 1.0963988 2101010
-1.0821953 0.32466689 1.0963988 2233366
-1.0432225 0.31612304 1.0675462 2429718
-0.87208182 0.26694834 0.90148348 3615021
-0.86322016 0.26694834 0.90148348 12685969
-0.83578551 0.26114511 0.88188601 9979690
-0.76094723 0.24025351 0.81133515 9462867
-0.75297177 0.24025351 0.81133515 8810337
-0.74499631 0.24025351 0.81133515 11237468
-0.75206214 0.24515665 0.82789302 10250832
-0.7439239 0.24515665 0.82789302 9133377
-0.73578566 0.24515665 0.82789302 9329977
-0.72764742 0.24515665 0.82789302 9199936
-0.71950924 0.24515665 0.82789302 7096120
-0.711371 0.24515665 0.82789302 3611156
-0.74909574 0.26114511 0.88188601 1575434
-0.74042678 0.26114511 0.88188601 1838354
-0.73175776 0.26114511 0.88188601 2364182
-0.7230888 0.26114511 0.88188601 2101780
-0.73029584 0.26694834 0.90148348 2166803
-0.72143424 0.26694834 0.90148348 2627612
-0.7457155 0.27936453 0.94341296 4600110
-0.75397605 0.28601608 0.96587515 7160369
-0.74448144 0.28601608 0.96587515 7947568
-0.73498684 0.28601608 0.96587515 8144944
-0.72549224 0.28601608 0.96587515 8079154
-0.73346102 0.29299209 0.98943311 7947567
-0.72373486 0.29299209 0.98943311 7553837
-0.71400869 0.29299209 0.98943311 7290669
-0.87501758 0.36402044 1.2292956 8803647
-0.86293358 0.36402044 1.2292956 9526847
-0.85084957 0.36402044 1.2292956 9658436
-0.81409597 0.35331398 1.1931399 9657919
-0.80236733 0.35331398 1.1931399 9790019
-0.72653288 0.32466689 1.0963988 10117956
-0.71575522 0.32466689 1.0963988 9986883
-0.79042941 0.36402044 1.2292956 9856067
-0.77834535 0.36402044 1.2292956 9856067
-0.56192499 0.26694834 0.90148348 10249794
-0.50791538 0.24515665 0.82789302 9988163
-0.46205807 0.22665423 0.76541048 7948333
-0.44611678 0.22245695 0.75123626 6960423
-0.44701004 0.22665423 0.76541048 6763814
-0.43948603 0.22665423 0.76541048 6829094
-0.43196198 0.22665423 0.76541048 6434851
-0.41657805 0.22245695 0.75123626 6762530
-0.40919337 0.22245695 0.75123626 8140585
-0.40180868 0.22245695 0.75123626 10042408
-0.38725263 0.21841227 0.73757738 11551017
-0.3800022 0.21841227 0.73757738 11877927
-0.35967278 0.21074869 0.71169752 11878182
-0.35267678 0.21074869 0.71169752 11812134
-0.33396277 0.20360467 0.68757218 11549217
-0.32175046 0.20021124 0.67611259 11549733
-0.31510425 0.20021124 0.67611259 11352613
0 0 0 11221539
0 0 0 11221539
0 0 0 11418918
-0.2012926 0.13968226 0.47170648 12074533
-0.18383034 0.13057256 0.440943 11943206
-0.16850631 0.12257832 0.41394651 12074277
-0.16962995 0.12644921 0.42701849 11746084
-0.16719225 0.12779441 0.43156123 11614499
-0.16470215 0.12916856 0.43620169 11942948
-0.16762388 0.13497387 0.45580626 11811361
-0.16499719 0.13650768 0.46098587 11680802
-0.16046567 0.13650768 0.46098587 11614755
-0.15593417 0.13650768 0.46098587 11483939
-0.15140265 0.13650768 0.46098587 11680034
-0.15386501 0.14300804 0.48293757 11942436
-0.15464059 0.14830463 0.50082415 11746084
-0.14971747 0.14830463 0.50082415 11876897
-0.14479433 0.14830463 0.50082415 11811618
0 0 0 12008483
0 0 0 11811875
-0.13857925 0.15806152 0.53377312 12336163
-0.13333222 0.15806152 0.53377312 12008741
-0.12808521 0.15806152 0.53377312 11811876
-0.14362621 0.18481039 0.62410396 11680547
-0.13749124 0.18481039 0.62410396 11614242
-0.1399698 0.1969291 0.66502881 12139041
0 0 0 12139043
0 0 0 11942180
0 0 0 12139554
-0.10362784 0.17929366 0.605474 12204834
-0.10068142 0.18481039 0.62410396 12139299
-0.094546445 0.18481039 0.62410396 12073763
-0.089792907 0.18769805 0.63385558 12074276
-0.084888458 0.19067739 0.64391679 12008738
-0.077331245 0.18769805 0.63385558 12139555
-0.063200377 0.16684271 0.56342721 12204834
-0.056871969 0.16455719 0.555709 11876639
-0.051409323 0.16455719 0.555709 12204834
-0.04594668 0.16455719 0.555709 12072478
-0.040484034 0.16455719 0.555709 12336420
0 0 0 12074531
0 0 0 12205604
0 0 0 12139811
0 0 0 12402213
0 0 0 12204834
0 0 0 12205604
-0.0027320539 0.20021124 0.67611259 12074018
0.0040491344 0.20711508 0.69942683 12139811
0.011955148 0.22665423 0.76541048 11942945
0 0 0 11812388
0 0 0 12074533
0 0 0 12008738
0 0 0 12205604
0 0 0 12533283
0.18914132 0.75079221 2.5354223 12271912
0.2014726 0.70662796 2.3862798 12205606
0.27312908 0.8580482 2.8976254 12271397
0.32481387 0.92405194 3.1205199 12336934
0.35548872 0.92405194 3.1205199 12468260
0.41834384 1.0010562 3.380563 12599076
0.41683844 0.92405194 3.1205199 12730405
0.34221601 0.70662796 2.3862798 12730663
0.36567327 0.70662796 2.3862798 12731174
0.41345116 0.75079221 2.5354223 12665125
0.50099939 0.8580482 2.8976254 12599846
0.46329778 0.75079221 2.5354223 12336677
0.45950222 0.70662796 2.3862798 12468776
0.45612839 0.66737086 2.2537088 12599331
0.39132199 0.5460307 1.8439435 12796455
0.42894554 0.57203215 1.9317503 12599079
0.47033152 0.6006338 2.028338 12730920
0.57678843 0.70662796 2.3862798 12927269
0.60024565 0.70662796 2.3862798 12993063
0.62370288 0.70662796 2.3862798 12665639
0.61120683 0.66737086 2.2537088 12468776
0.57002479 0.6006338 2.028338 12796971
0.56186992 0.57203215 1.9317503 12928040
0.46915543 0.46202597 1.5602599 12402982
0.4343729 0.41423017 1.3988537 12665896
0.44812369 0.41423017 1.3988537 12664615
0.44647866 0.40042248 1.3522252 12534569
0.47562528 0.41423017 1.3988537 12402985
0.48937607 0.41423017 1.3988537 12271910
0.52109569 0.4290241 1.4488127 12599592
0.55516493 0.44491389 1.5024725 12402980
0.56993431 0.44491389 1.5024725 12403240
0.58470368 0.44491389 1.5024725 12665128
0.57806325 0.4290241 1.4488127 12403239
0.59230512 0.4290241 1.4488127 12206119
0.62901175 0.44491389 1.5024725 12075047
0.64378113 0.44491389 1.5024725 12140583
0.63503081 0.4290241 1.4488127 12075047
0.64927274 0.4290241 1.4488127 12338732
0.66351461 0.4290241 1.4488127 11943719
0.70285863 0.44491389 1.5024725 11943719
0.717628 0.44491389 1.5024725 11682090
0.76056653 0.46202597 1.5602599 11746854
0.80694008 0.48050702 1.6226703 11812134
0.822891 0.48050702 1.6226703 11550502
0.83884192 0.48050702 1.6226703 11943719
0.85479283 0.48050702 1.6226703 11681320
0.87074375 0.48050702 1.6226703 11812131
0.96379858 0.52229023 1.763772 11614499
1.0257336 0.5460307 1.8439435 11483426
1.0438597 0.5460307 1.8439435 11812390
1.0619857 0.5460307 1.8439435 11877414
1.0801117 0.5460307 1.8439435 11877927
1.0982379 0.5460307 1.8439435 11746341
1.1163639 0.5460307 1.8439435 11418404
1.1885133 0.57203215 1.9317503 11418919
1.2075025 0.57203215 1.9317503 11089953
1.2264916 0.57203215 1.9317503 11353125
1.188868 0.5460307 1.8439435 11352353
1.26447 0.57203215 1.9317503 11287332
1.3476323 0.6006338 2.028338 11024931
1.3675709 0.6006338 2.028338 11286820
1.3875096 0.6006338 2.028338 11352870
1.3404268 0.57203215 1.9317503 11221539
1.359416 0.57203215 1.9317503 11221539
1.1133273 0.46202597 1.5602599 11353125
1.0480458 0.4290241 1.4488127 11287076
1.0622877 0.4290241 1.4488127 11352612
1.2057132 0.48050702 1.6226703 11418148
1.2216641 0.48050702 1.6226703 11091238
1.5470188 0.6006338 2.028338 11090211
0 0 0 11156261
0 0 0 11026988
1.6914049 0.63224608 2.1350925 10764845
1.7123929 0.63224608 2.1350925 10699567
1.733381 0.63224608 2.1350925 10830896
1.1904647 0.4290241 1.4488127 10831406
1.2047065 0.4290241 1.4488127 10765870
1.2640948 0.44491389 1.5024725 10634285
1.3280512 0.46202597 1.5602599 10633772
1.4553376 0.5005281 1.6902815 10568751
1.4719532 0.5005281 1.6902815 10634542
2.2328532 0.75079221 2.5354223 10830892
2.2577765 0.75079221 2.5354223 10436650
2.4348798 0.80084497 2.7044504 10567210
2.1718805 0.70662796 2.3862798 10436138
2.1953378 0.70662796 2.3862798 10370345
2.2187951 0.70662796 2.3862798 10566954
2.5412192 0.80084497 2.7044504 10108200
2.5678041 0.80084497 2.7044504 10370343
2.4322398 0.75079221 2.5354223 10173993
2.4571631 0.75079221 2.5354223 10239786
2.4820864 0.75079221 2.5354223 10305324
2.5070097 0.75079221 2.5354223 10239530
2.7007284 0.80084497 2.7044504 10239786
2.7273133 0.80084497 2.7044504 10240042
2.7538981 0.80084497 2.7044504 10239531
2.780483 0.80084497 2.7044504 10305066
2.8070679 0.80084497 2.7044504 10371372
2.2370944 0.63224608 2.1350925 10503471
1.8653724 0.52229023 1.763772 10699824
2.5471964 0.70662796 2.3862798 10436909
2.5706537 0.70662796 2.3862798 10568493
1.8374952 0.5005281 1.6902815 10240299
1.8541107 0.5005281 1.6902815 10043949
0 0 0 10110000
0 0 0 9519664
0 0 0 8207403
0 0 0 7617325
0 0 0 6630946
2.7583115 0.70662796 2.3862798 6499620
2.7817688 0.70662796 2.3862798 6501157
2.9805527 0.75079221 2.5354223 6370598
4.0073013 1.0010562 3.380563 6699563
0 0 0 7355951
0 0 0 9324083
0 0 0 10176818
0 0 0 10505011
0 0 0 10505011
0 0 0 10570034
0 0 0 10438194
0 0 0 10634289
0 0 0 10306351
0 0 0 10175280
0 0 0 10175537
0 0 0 6438185
0 0 0 7028524
-1.344874 0.34476247 1.1268544 6634536
-1.4122555 0.3650426 1.1931399 6897197
-1.4005269 0.3650426 1.1931399 6896940
-1.3887984 0.3650426 1.1931399 7094319
-1.1147707 0.29551065 0.96587515 7094061
-1.1052761 0.29551065 0.96587515 7356717
-1.0957814 0.29551065 0.96587515 7356715
-1.4257516 0.38785776 1.2677112 6371622
-1.5594922 0.42798096 1.3988537 3151374
-1.0672977 0.29551065 0.96587515 2100497
-1.0578032 0.29551065 0.96587515 1904403
-1.1289477 0.31824228 1.0401733 1904403
-1.1791942 0.33544454 1.0963988 1772817
-1.1684165 0.33544454 1.0963988 1838867
-1.2237897 0.3546128 1.1590502 1838866
-1.2858746 0.37610447 1.2292956 1838610
-1.3559707 0.40036929 1.3086051 1969426
-1.3431071 0.40036929 1.3086051 1838608
-1.2496226 0.37610447 1.2292956 1838610
-1.1037506 0.33544454 1.0963988 1969938
-1.092973 0.33544454 1.0963988 1707024
-1.0266982 0.31824228 1.0401733 2232596
-0.88094342 0.27580994 0.90148348 2889241
-0.81757671 0.25857183 0.84514076 3481378
-0.77689815 0.24822897 0.81133515 6572627
-0.76892269 0.24822897 0.81133515 11116161
-0.74602669 0.24336173 0.79542661 7960137
-0.73820764 0.24336173 0.79542661 7565903
-0.74499631 0.24822897 0.81133515 6575424
-0.73702085 0.24822897 0.81133515 3740431
-0.72904539 0.24822897 0.81133515 3677719
-0.72106993 0.24822897 0.81133515 7558990
-0.71309447 0.24822897 0.81133515 8345134
-0.70511901 0.24822897 0.81133515 5122342
-0.69714355 0.24822897 0.81133515 5455667
-0.70323277 0.25329486 0.82789302 1246729
-0.70957565 0.25857183 0.84514076 1246732
-0.7012679 0.25857183 0.84514076 1509902
-0.7230888 0.26981407 0.88188601 2364182
-0.71441984 0.26981407 0.88188601 2429975
-0.72143424 0.27580994 0.90148348 2891293
-0.71257257 0.27580994 0.90148348 4206373
-0.73644173 0.28863832 0.94341296 7619636
-0.74448144 0.29551065 0.96587515 7684910
-0.73498684 0.29551065 0.96587515 7684911
-0.72549224 0.29551065 0.96587515 8013615
-0.71599764 0.29551065 0.96587515 8341808
-0.70650303 0.29551065 0.96587515 7948335
-0.69700843 0.29551065 0.96587515 7356973
-0.67152518 0.28863832 0.94341296 7553583
-0.64720023 0.28207836 0.92197174 7685678
-0.63813716 0.28207836 0.92197174 9592895
-0.62907416 0.28207836 0.92197174 10052674
-0.6653778 0.30271825 0.98943311 9921090
-0.65565163 0.30271825 0.98943311 10118210
-0.66207361 0.31028622 1.014169 10380869
-0.65210432 0.31028622 1.014169 10184003
-0.69419992 0.33544454 1.0963988 10381125
-0.56192499 0.27580994 0.90148348 10381382
-0.49775705 0.24822897 0.81133515 9722681
-0.45350146 0.22984163 0.75123626 8010277
-0.44611678 0.22984163 0.75123626 9060909
-0.44701004 0.23417826 0.76541048 10305319
-0.43948603 0.23417826 0.76541048 11485996
-0.43196198 0.23417826 0.76541048 11550504
-0.42443797 0.23417826 0.76541048 11681318
-0.40919337 0.22984163 0.75123626 11615525
-0.40180868 0.22984163 0.75123626 11943720
-0.38725263 0.22566269 0.73757738 11812391
-0.37321645 0.221633 0.72440636 11811875
-0.37275177 0.22566269 0.73757738 11680547
-0.35897455 0.221633 0.72440636 11681320
-0.32839671 0.20685746 0.67611259 11943720
-0.32175046 0.20685746 0.67611259 11615782
-0.30493963 0.20018464 0.65430254 11483942
-0.30845803 0.20685746 0.67611259 11418146
-0.23517805 0.16118763 0.52684098 11679777
-0.20835221 0.14601704 0.47725597 11943207
-0.2012926 0.14431916 0.47170648 11680035
-0.1989693 0.14601704 0.47725597 11811364
-0.19427787 0.14601704 0.47725597 12008740
-0.18958642 0.14601704 0.47725597 11811621
-0.16899002 0.13345644 0.43620169 11548705
-0.16470215 0.13345644 0.43620169 11680290
-0.16762388 0.13945447 0.45580626 11746084
-0.16499719 0.14103918 0.46098587 11614242
-0.16046567 0.14103918 0.46098587 11614755
-0.15593417 0.14103918 0.46098587 11548962
-0.15140265 0.14103918 0.46098587 11548705
-0.14687113 0.14103918 0.46098587 11548706
-0.15464059 0.15322775 0.50082415 11482912
-0.15158895 0.15514311 0.50708449 11483941
-0.14660427 0.15514311 0.50708449 11482913
-0.14525089 0.15912114 0.52008665 11877154
-0.1401384 0.15912114 0.52008665 12008482
-0.13857925 0.16330853 0.53377312 11811361
-0.13333222 0.16330853 0.53377312 11810848
-0.12808521 0.16330853 0.53377312 12008481
-0.14818577 0.19700712 0.64391679 11877411
-0.13749124 0.19094536 0.62410396 11746341
-0.1399698 0.20346637 0.66502881 11746595
0 0 0 11615009
0 0 0 11811361
-0.11295135 0.19094536 0.62410396 11876900
-0.10362784 0.1852455 0.605474 11942434
-0.099155933 0.18805224 0.61464781 12139043
-0.094546445 0.19094536 0.62410396 12008226
-0.088411473 0.19094536 0.62410396 12139555
-0.083562076 0.19392888 0.63385558 12270885
-0.077331245 0.19392888 0.63385558 12205091
-0.065948211 0.17987606 0.587924 12270115
-0.056871969 0.17001984 0.555709 12204836
-0.051409323 0.17001984 0.555709 12269857
-0.045325778 0.16772227 0.54819942 12336420
-0.039936952 0.16772227 0.54819942 12139813
-0.038157634 0.1852455 0.605474 11942947
0 0 0 11811875
0 0 0 12074020
0 0 0 12140326
0 0 0 12205604
0 0 0 12270627
0 0 0 12467490
0 0 0 11811621
0 0 0 12074020
0 0 0 12008740
0 0 0 12139811
0 0 0 12008738
0 0 0 12074272
0 0 0 12205606
0 0 0 12468776
0.21406464 0.77571553 2.5354223 12140324
0.27312908 0.88653201 2.8976254 12271651
0.32481387 0.95472682 3.1205199 12402470
0.35548872 0.95472682 3.1205199 12271396
0.38616356 0.95472682 3.1205199 12533798
0.38706425 0.88653201 2.8976254 12468261
0.41554803 0.88653201 2.8976254 12730406
0.36567327 0.73008519 2.3862798 12534566
0.47251561 0.88653201 2.8976254 12533796
0.50099939 0.88653201 2.8976254 12468516
0.43604496 0.73008519 2.3862798 12402468
0.45950222 0.73008519 2.3862798 12664869
0.4321216 0.65323412 2.1350925 12731176
0.39132199 0.56415671 1.8439435 12600102
0.40944803 0.56415671 1.8439435 12534823
0.47033152 0.62057245 2.028338 12730661
0.57678843 0.73008519 2.3862798 12796455
0.60024565 0.73008519 2.3862798 12599846
0.62370288 0.73008519 2.3862798 12599591
0.61120683 0.68952495 2.2537088 12468521
0.63336086 0.68952495 2.2537088 12665895
0.58996344 0.62057245 2.028338 12599589
0.46915543 0.47736341 1.5602599 12534567
0.4343729 0.42798096 1.3988537 12337445
0.43318623 0.41371492 1.3522252 12337703
0.43207613 0.40036929 1.3086051 12140324
0.47562528 0.42798096 1.3988537 12271910
0.48937607 0.42798096 1.3988537 12009767
0.52109569 0.443266 1.4488127 12468006
0.53533757 0.443266 1.4488127 12008997
0.56993431 0.45968327 1.5024725 12402469
0.58470368 0.45968327 1.5024725 12205349
0.59947306 0.45968327 1.5024725 12402213
0.61424243 0.45968327 1.5024725 12205604
0.62901175 0.45968327 1.5024725 12402471
0.62078893 0.443266 1.4488127 12337705
0.63503081 0.443266 1.4488127 12074533
0.64927274 0.443266 1.4488127 12403241
0.68808925 0.45968327 1.5024725 12205606
0.70285863 0.45968327 1.5024725 12008740
0.717628 0.45968327 1.5024725 12140072
0.76056653 0.47736341 1.5602599 12009254
0.80694008 0.49645793 1.6226703 11419429
0.822891 0.49645793 1.6226703 11222054
0.7767055 0.45968327 1.5024725 11812390
0.85479283 0.49645793 1.6226703 11615784
0.87074375 0.49645793 1.6226703 11615782
0.92364031 0.51714367 1.6902815 11681572
0.94025582 0.51714367 1.6902815 11614757
1.0438597 0.56415671 1.8439435 11549991
1.0158124 0.53962815 1.763772 11680548
1.0801117 0.56415671 1.8439435 11615269
1.0982379 0.56415671 1.8439435 11484454
1.1163639 0.56415671 1.8439435 11680550
1.1885133 0.5910213 1.9317503 11418146
1.2075025 0.5910213 1.9317503 11483684
1.2264916 0.5910213 1.9317503 11353127
1.2454808 0.5910213 1.9317503 11221797
1.26447 0.5910213 1.9317503 11156261
1.3476323 0.62057245 2.028338 10958883
1.4395483 0.65323412 2.1350925 11025191
1.5416772 0.68952495 2.2537088 11090468
1.4074482 0.62057245 2.028338 11025191
1.359416 0.5910213 1.9317503 11221539
1.3784052 0.5910213 1.9317503 11024674
1.3973943 0.5910213 1.9317503 11352611
1.1897622 0.49645793 1.6226703 11287332
1.2057132 0.49645793 1.6226703 11156518
1.2216641 0.49645793 1.6226703 11025445
2.2100267 0.88653201 2.8976254 11222054
0 0 0 11025446
0 0 0 10763816
1.6914049 0.65323412 2.1350925 10632745
1.6267734 0.62057245 2.028338 10567209
1.733381 0.65323412 2.1350925 10370602
1.7543691 0.65323412 2.1350925 10370343
1.2973764 0.47736341 1.5602599 10370344
1.3127139 0.47736341 1.5602599 10305066
1.3811733 0.49645793 1.6226703 10764589
1.8383213 0.65323412 2.1350925 10436650
2.2079298 0.77571553 2.5354223 10700079
2.748127 0.95472682 3.1205199 10699565
2.5803158 0.88653201 2.8976254 10568749
2.4348798 0.82742983 2.7044504 10437164
2.4614646 0.82742983 2.7044504 10502958
2.4880495 0.82742983 2.7044504 10305577
2.5146344 0.82742983 2.7044504 10370857
2.5412192 0.82742983 2.7044504 10305322
2.5678041 0.82742983 2.7044504 10043177
2.4322398 0.77571553 2.5354223 10174763
2.4571631 0.77571553 2.5354223 10173993
2.4820864 0.77571553 2.5354223 10305066
2.5070097 0.77571553 2.5354223 10305067
2.5319331 0.77571553 2.5354223 10108202
2.2727613 0.68952495 2.2537088 9779494
2.7538981 0.82742983 2.7044504 9911338
2.780483 0.82742983 2.7044504 10174251
2.8070679 0.82742983 2.7044504 10371371
2.8336527 0.82742983 2.7044504 10437420
2.8602376 0.82742983 2.7044504 10635313
2.5471964 0.73008519 2.3862798 10503985
1.680812 0.47736341 1.5602599 10438961
1.5206857 0.42798096 1.3988537 10438448
1.5344365 0.42798096 1.3988537 10568494
1.8707262 0.51714367 1.6902815 10437166
0 0 0 10043438
0 0 0 9650480
0 0 0 7748908
0 0 0 8077103
0 0 0 7157034
3.6376977 0.95472682 3.1205199 6566692
3.6683726 0.95472682 3.1205199 6173479
3.6990473 0.95472682 3.1205199 5977128
4.848639 1.2411449 4.0566759 6173990
0 0 0 7159083
0 0 0 8668468
0 0 0 9717300
10.016296 2.4822898 8.1133518 10176817
16.826752 4.1371493 13.522252 10176816
0 0 0 10372655
0 0 0 10634801
0 0 0 10569265
0 0 0 10372401
0 0 0 10307120
0 0 0 5583398
0 0 0 6962991
-1.1003513 0.29114139 0.92197174 7159597
-1.1711388 0.31244442 0.98943311 6896940
-1.1614126 0.31244442 0.98943311 6962733
-1.0493143 0.28467157 0.90148348 6831147
-1.0404526 0.28467157 0.90148348 7356718
-1.0315911 0.28467157 0.90148348 7292209
-1.0227294 0.28467157 0.90148348 4927780
-1.0138677 0.28467157 0.90148348 2297612
-1.0050062 0.28467157 0.90148348 1969425
-0.97448921 0.27848306 0.88188601 1838610
-0.96582019 0.27848306 0.88188601 1904146
-1.0239292 0.29791212 0.94341296 1904403
-1.1187227 0.32846722 1.0401733 1641231
-1.1376687 0.33711109 1.0675462 1707281
-1.1271747 0.33711109 1.0675462 1772817
-1.1166807 0.33711109 1.0675462 1837840
-1.2737906 0.38818851 1.2292956 1904402
-1.3011349 0.40031943 1.2677112 1772817
-1.2496226 0.38818851 1.2292956 1707279
-1.1037506 0.34622219 1.0963988 1970194
-1.0369232 0.32846722 1.0401733 2035987
-0.88980502 0.28467157 0.90148348 1706252
-0.88094342 0.28467157 0.90148348 2100754
-0.78487366 0.25620443 0.81133515 7171941
-0.7470175 0.24635041 0.78012997 4868660
-0.73934877 0.24635041 0.78012997 2299148
-0.7316801 0.24635041 0.78012997 2100750
-0.73820764 0.2511808 0.79542661 1709332
-0.73038858 0.2511808 0.79542661 2366235
-0.72256947 0.2511808 0.79542661 3547425
-0.71475041 0.2511808 0.79542661 5716786
-0.70693129 0.2511808 0.79542661 12898728
-0.71309447 0.25620443 0.81133515 7630632
-0.70511901 0.25620443 0.81133515 3941913
-0.69714355 0.25620443 0.81133515 3810846
-0.70323277 0.26143309 0.82789302 1644312
-0.69509453 0.26143309 0.82789302 1707282
-0.7012679 0.26687959 0.84514076 1838608
-0.69296008 0.26687959 0.84514076 1969679
-0.71441984 0.27848306 0.88188601 2364183
-0.72143424 0.28467157 0.90148348 3550767
-0.71257257 0.28467157 0.90148348 4730920
-0.71970439 0.29114139 0.92197174 7291184
-0.7271679 0.29791212 0.94341296 7619885
-0.71789414 0.29791212 0.94341296 7816236
-0.70862037 0.29791212 0.94341296 7684396
-0.69934654 0.29791212 0.94341296 7882031
-0.6743893 0.29114139 0.92197174 8210994
-0.66532624 0.29114139 0.92197174 8145199
-0.64167958 0.28467157 0.90148348 7685166
-0.63281798 0.28467157 0.90148348 7553064
-0.61039209 0.27848306 0.88188601 7751472
-0.60172307 0.27848306 0.88188601 9590849
-0.62001115 0.29114139 0.92197174 10511941
-0.62515622 0.29791212 0.94341296 10315334
-0.64592546 0.31244442 0.98943311 10642498
-0.65210432 0.32025555 1.014169 10575163
-0.64213496 0.32025555 1.014169 10571314
-0.56192499 0.28467157 0.90148348 11290412
-0.49775705 0.25620443 0.81133515 11419686
