# .PCD v0.7 - Point Cloud Data file format
VERSION 0.7
FIELDS x y z rgb
SIZE 4 4 4 4
TYPE F F F U
COUNT 1 1 1 1
WIDTH 1297
HEIGHT 1
VIEWPOINT 0 0 0 1 0 0 0
POINTS 1297
DATA ascii
-1.534363 1.0350293 2.3862798 11483940
-1.5109057 1.0350293 2.3862798 11156261
-1.4874486 1.0350293 2.3862798 11287075
-1.3826585 0.97752768 2.2537088 10959652
-1.2888989 0.92607886 2.1350925 11024932
-1.0037627 0.73314571 1.6902815 11156260
-0.98714715 0.73314571 1.6902815 11025187
-0.68508118 0.51751465 1.1931399 11221539
-0.47695804 0.36657286 0.84514076 11221541
-0.46865028 0.36657286 0.84514076 11155748
-0.45094779 0.35909179 0.82789302 11090467
-0.43395334 0.35190997 0.81133515 11024675
-0.38725263 0.31991813 0.73757738 11221541
-0.3800022 0.31991813 0.73757738 11221541
-0.37275177 0.31991813 0.73757738 11483683
-0.32955042 0.28845078 0.66502881 11549477
-0.32301316 0.28845078 0.66502881 11483169
-0.28389749 0.25875732 0.59656996 11614756
-0.27803317 0.25875732 0.59656996 11418149
-0.24035692 0.22851294 0.52684098 11352355
-0.22083794 0.21457924 0.49471655 11483428
-0.21597485 0.21457924 0.49471655 11286562
-0.21371807 0.21722837 0.50082415 11221539
-0.20879495 0.21722837 0.50082415 11483428
-0.19659069 0.20947021 0.48293757 11220769
-0.19184339 0.20947021 0.48293757 11220769
-0.18709609 0.20947021 0.48293757 11089954
-0.18234879 0.20947021 0.48293757 11417891
-0.1776015 0.20947021 0.48293757 11416863
-0.1728542 0.20947021 0.48293757 11352355
-0.1681069 0.20947021 0.48293757 11089955
-0.1633596 0.20947021 0.48293757 10958625
-0.16248091 0.21457924 0.49471655 11089955
-0.15761781 0.21457924 0.49471655 11089184
-0.15275472 0.21457924 0.49471655 11024161
-0.14789164 0.21457924 0.49471655 10957599
-0.15036336 0.22558331 0.52008665 11351842
-0.14713725 0.22851294 0.52684098 11351583
-0.14574394 0.23460664 0.5408901 11285794
-0.14042696 0.23460664 0.5408901 11352355
-0.13333222 0.23151971 0.53377312 11285279
-0.12642176 0.22851294 0.52684098 11155232
-0.1212429 0.22851294 0.52684098 11286305
-0.11606403 0.22851294 0.52684098 11154977
-0.11088516 0.22851294 0.52684098 11286306
-0.10709716 0.23151971 0.53377312 11154462
-0.10185014 0.23151971 0.53377312 11286560
-0.097891174 0.23460664 0.5408901 11154976
-0.093825199 0.23777699 0.54819942 10892576
-0.08843638 0.23777699 0.54819942 11154976
-0.083047554 0.23777699 0.54819942 10892574
-0.077658728 0.23777699 0.54819942 11351583
-0.073259905 0.24103421 0.555709 11417378
-0.067797258 0.24103421 0.555709 11680290
-0.059874035 0.23151971 0.53377312 11483171
-0.054627024 0.23151971 0.53377312 11483169
-0.050714605 0.23777699 0.54819942 11811361
0 0 0 11745825
0 0 0 11614242
0 0 0 11941664
0 0 0 11876642
0 0 0 11811364
0 0 0 11482656
0 0 0 11811107
0 0 0 11614496
0 0 0 11811361
0 0 0 11286562
0 0 0 11745828
0 0 0 11614757
0.11008992 1.3534999 3.1205199 11745568
0.14076477 1.3534999 3.1205199 11483171
0.13110088 1.0350293 2.3862798 11352098
0.16421801 1.0997186 2.5354223 11614498
0.18914132 1.0997186 2.5354223 11877157
0.21406464 1.0997186 2.5354223 11614242
0.23898795 1.0997186 2.5354223 11614241
0.28150535 1.1730331 2.7044504 11811363
0.35548872 1.3534999 3.1205199 11549218
0.38616356 1.3534999 3.1205199 11811620
0.41683844 1.3534999 3.1205199 11746085
0.44751328 1.3534999 3.1205199 11680035
0.31082228 0.87977493 2.028338 11876900
0.3150104 0.83788085 1.9317503 11746341
0.3339996 0.83788085 1.9317503 11811107
0.35298878 0.83788085 1.9317503 11287332
0.33963206 0.76502162 1.763772 12074018
0.35697001 0.76502162 1.763772 12008740
0.37430799 0.76502162 1.763772 11614498
0.39164594 0.76502162 1.763772 11877411
0.42757407 0.79979533 1.8439435 11877412
0.49027017 0.87977493 2.028338 11745571
0.51020885 0.87977493 2.028338 11877411
0.53014749 0.87977493 2.028338 11746343
0.55008614 0.87977493 2.028338 11614242
0.57002479 0.87977493 2.028338 11877668
0.49163616 0.73314571 1.6902815 12140069
0.45177931 0.65168512 1.5024725 12140326
0.4498862 0.62841064 1.4488127 12008740
0.44812369 0.60674131 1.3988537 12008998
0.44647866 0.58651656 1.3522252 12139813
0.43103543 0.54985929 1.2677112 12008740
0.44349706 0.54985929 1.2677112 12008740
0.45595872 0.54985929 1.2677112 12206119
0.46842039 0.54985929 1.2677112 12205606
0.48088205 0.54985929 1.2677112 12140068
0.50925803 0.56759667 1.3086051 12008742
0.55813003 0.60674131 1.3988537 11746341
0.66338181 0.70381993 1.6226703 11287847
0.67933273 0.70381993 1.6226703 11351842
0.69528365 0.70381993 1.6226703 11418918
0.71123457 0.70381993 1.6226703 11417890
0.69921684 0.67674994 1.5602599 11352356
0.66351461 0.62841064 1.4488127 11221284
0.67775649 0.62841064 1.4488127 11352355
0.69199842 0.62841064 1.4488127 11548962
0.7062403 0.62841064 1.4488127 11286562
0.72048217 0.62841064 1.4488127 11680035
0.7347241 0.62841064 1.4488127 11352355
0.7767055 0.65168512 1.5024725 11221539
0.85479283 0.70381993 1.6226703 11221539
0.87074375 0.70381993 1.6226703 11417635
0.88669467 0.70381993 1.6226703 11024676
0.9811365 0.76502162 1.763772 10696998
0.99847448 0.76502162 1.763772 10565154
1.0619857 0.79979533 1.8439435 10368291
1.0801117 0.79979533 1.8439435 10237476
1.1505349 0.83788085 1.9317503 10827298
1.0678263 0.76502162 1.763772 11155749
1.0399491 0.73314571 1.6902815 11286562
1.2075025 0.83788085 1.9317503 11089955
1.2264916 0.83788085 1.9317503 10892832
1.5385351 1.0350293 2.3862798 10892832
1.5619924 1.0350293 2.3862798 10893089
1.5854496 1.0350293 2.3862798 10827812
1.4395483 0.92607886 2.1350925 10958371
1.4605364 0.92607886 2.1350925 10892835
1.4815243 0.92607886 2.1350925 11090468
1.359416 0.83788085 1.9317503 10892576
1.3157504 0.79979533 1.8439435 10827812
1.3338765 0.79979533 1.8439435 10630435
1.3520025 0.79979533 1.8439435 10564897
1.2057132 0.70381993 1.6226703 10368288
1.0907714 0.62841064 1.4488127 10433826
1.1050134 0.62841064 1.4488127 10564897
1.2053518 0.67674994 1.5602599 10630434
1.2695168 0.70381993 1.6226703 10171681
1.2360268 0.67674994 1.5602599 10040608
1.2513641 0.67674994 1.5602599 9910308
1.1762228 0.62841064 1.4488127 10369317
1.1904647 0.62841064 1.4488127 10434597
1.2493254 0.65168512 1.5024725 10172454
1.3652223 0.70381993 1.6226703 10369062
1.3811733 0.70381993 1.6226703 10369830
1.3971242 0.70381993 1.6226703 10172709
1.4130751 0.70381993 1.6226703 10303782
1.429026 0.70381993 1.6226703 10172453
1.5051843 0.73314571 1.6902815 9778466
1.5217998 0.73314571 1.6902815 10041892
1.5384154 0.73314571 1.6902815 10237987
1.6963974 0.79979533 1.8439435 10173480
1.7961674 0.83788085 1.9317503 9976101
2.1176829 0.97752768 2.2537088 9976102
2.2657096 1.0350293 2.3862798 9844517
2.2891667 1.0350293 2.3862798 9975845
2.4571631 1.0997186 2.5354223 9778722
3.0548756 1.3534999 3.1205199 10041381
3.0855503 1.3534999 3.1205199 9712931
2.0255466 0.87977493 2.028338 9647395
1.9480809 0.83788085 1.9317503 9581604
1.9670701 0.83788085 1.9317503 9647139
1.8133585 0.76502162 1.763772 9647139
1.8306965 0.76502162 1.763772 9516579
1.8480344 0.76502162 1.763772 9844774
1.8653724 0.76502162 1.763772 10237735
1.8042641 0.73314571 1.6902815 10107432
1.7480445 0.70381993 1.6226703 10370345
1.7639954 0.70381993 1.6226703 10304550
1.7799463 0.70381993 1.6226703 10172964
1.8707262 0.73314571 1.6902815 10239016
1.8873417 0.73314571 1.6902815 10305323
1.9039574 0.73314571 1.6902815 10370859
1.0475852 0.39989766 0.92197174 10239532
1.0566483 0.39989766 0.92197174 9977645
1.0657113 0.39989766 0.92197174 10108203
0 0 0 10108203
0 0 0 10174252
0 0 0 10173739
0 0 0 9976617
0 0 0 9976361
0 0 0 9780266
0 0 0 9583403
0 0 0 7681064
0 0 0 6171682
0 0 0 5909795
0 0 0 6041380
0 0 0 5778209
0 0 0 5712162
0 0 0 4924960
0 0 0 4858143
0 0 0 6172204
-0.79369611 0.29498804 0.66502881 7157290
-0.84239805 0.31568897 0.71169752 7877669
-0.76803088 0.29023018 0.65430254 8532514
-0.77408433 0.29498804 0.66502881 8926243
-0.76754707 0.29498804 0.66502881 8860450
-0.74873543 0.29023018 0.65430254 9320228
-0.74230361 0.29023018 0.65430254 9253921
-0.74793524 0.29498804 0.66502881 9122336
-0.79342592 0.31568897 0.71169752 9188129
-0.83012044 0.33322725 0.75123626 9253668
0 0 0 9318690
0 0 0 9056289
0 0 0 9122336
-0.815687 0.33951452 0.76541048 9121569
-0.80816299 0.33951452 0.76541048 9253155
-0.80063897 0.33951452 0.76541048 9187616
-0.79311496 0.33951452 0.76541048 9319202
-0.771043 0.33322725 0.75123626 9384225
-0.77806687 0.33951452 0.76541048 9580829
-0.77054286 0.33951452 0.76541048 9712672
-0.79294121 0.35282883 0.79542661 9909024
-0.7851221 0.35282883 0.79542661 9974815
-0.77730304 0.35282883 0.79542661 10105888
-0.75468624 0.34604368 0.78012997 10171939
-0.7470175 0.34604368 0.78012997 10172196
-0.76892269 0.35988542 0.81133515 10631464
-0.74602669 0.35282883 0.79542661 10565669
-0.75297177 0.35988542 0.81133515 10565668
-0.76020032 0.36723003 0.82789302 10565411
-0.75206214 0.36723003 0.82789302 10565667
-0.70100522 0.34604368 0.78012997 10696740
-0.68025464 0.33951452 0.76541048 10434083
-0.68566781 0.34604368 0.78012997 10434341
-0.67799908 0.34604368 0.78012997 10499361
-0.68347406 0.35282883 0.79542661 10106402
-0.70323277 0.36723003 0.82789302 10368288
-0.70957565 0.37488064 0.84514076 10433825
-0.7012679 0.37488064 0.84514076 10368289
-0.69296008 0.37488064 0.84514076 10499361
-0.68465233 0.37488064 0.84514076 10565154
0 0 0 10630948
0 0 0 10828326
0 0 0 10762019
0 0 0 10827556
0 0 0 10958883
0 0 0 10959652
0 0 0 11090468
0 0 0 11090981
-1.9516237 1.199618 2.7044504 11156261
-1.9250387 1.199618 2.7044504 11024932
-1.8984538 1.199618 2.7044504 10828323
-2.005574 1.285305 2.8976254 11287845
-1.8452841 1.199618 2.7044504 11353123
-1.8186992 1.199618 2.7044504 11156517
-1.6801074 1.1246419 2.5354223 11090981
-1.5578202 1.0584865 2.3862798 10959652
-1.534363 1.0584865 2.3862798 11090468
-1.5109057 1.0584865 2.3862798 11222054
-1.4874486 1.0584865 2.3862798 10959138
-1.3826585 0.99968177 2.2537088 11089955
-1.2888989 0.9470669 2.1350925 11221540
-1.0037627 0.74976128 1.6902815 11156261
-0.69680977 0.52924323 1.1931399 11156259
-0.51761687 0.39987269 0.90148348 11156002
-0.47695804 0.37488064 0.84514076 11286819
-0.459086 0.36723003 0.82789302 11155746
-0.45094779 0.36723003 0.82789302 11418150
-0.43395334 0.35988542 0.81133515 11221541
-0.40186593 0.33951452 0.76541048 11090468
-0.39434192 0.33951452 0.76541048 11024675
-0.37275177 0.32716855 0.73757738 11548964
-0.35267678 0.31568897 0.71169752 11549222
-0.32301316 0.29498804 0.66502881 11352097
-0.3164759 0.29498804 0.66502881 11417378
-0.27803317 0.26462162 0.59656996 11483171
-0.24351951 0.23676673 0.53377312 11483169
-0.23517805 0.23369183 0.52684098 11548449
-0.22137423 0.22492839 0.50708449 11221797
-0.21638957 0.22492839 0.50708449 11352098
-0.21682553 0.23069578 0.52008665 11548451
-0.21171306 0.23069578 0.52008665 11155490
-0.21203743 0.23676673 0.53377312 11154976
-0.18709609 0.2142175 0.48293757 11285792
-0.18234879 0.2142175 0.48293757 11286049
-0.1776015 0.2142175 0.48293757 11286049
-0.1728542 0.2142175 0.48293757 11351585
-0.1681069 0.2142175 0.48293757 11220771
-0.1633596 0.2142175 0.48293757 11286562
-0.1605233 0.21679845 0.48875612 11417121
-0.16570078 0.23069578 0.52008665 10827042
-0.16267386 0.23369183 0.52684098 11155233
-0.15749499 0.23369183 0.52684098 10957855
-0.15231612 0.23369183 0.52684098 10957854
-0.14713725 0.23369183 0.52684098 11023650
-0.14574394 0.23992361 0.5408901 10826526
-0.14042696 0.23992361 0.5408901 10893089
-0.13333222 0.23676673 0.53377312 11154208
-0.12642176 0.23369183 0.52684098 11154978
-0.1212429 0.23369183 0.52684098 11417378
-0.11606403 0.23369183 0.52684098 11285792
-0.11234418 0.23676673 0.53377312 11285791
-0.10999168 0.24316582 0.54819942 11220000
-0.10460285 0.24316582 0.54819942 11220769
-0.097891174 0.23992361 0.5408901 11154976
-0.093825199 0.24316582 0.54819942 11351585
-0.08843638 0.24316582 0.54819942 11024162
-0.083047554 0.24316582 0.54819942 11220769
-0.078722544 0.24649686 0.555709 11351585
-0.073259905 0.24649686 0.555709 11548708
-0.067797258 0.24649686 0.555709 11613983
-0.059874035 0.23676673 0.53377312 11155489
-0.054627024 0.23676673 0.53377312 11614242
-0.050714605 0.24316582 0.54819942 11810848
-0.051601656 0.27683493 0.62410396 11680290
0 0 0 11679778
0 0 0 11744801
0 0 0 11679778
0 0 0 11680034
0 0 0 11680033
0 0 0 11811619
0 0 0 11679521
0 0 0 11745056
0 0 0 11154976
0 0 0 11614241
0 0 0 11745828
0 0 0 11877154
0 0 0 11745828
0.148581 1.199618 2.7044504 11548963
0.16421801 1.1246419 2.5354223 11614498
0.18914132 1.1246419 2.5354223 11680291
0.21406464 1.1246419 2.5354223 11352098
0.25492048 1.199618 2.7044504 11613985
0.28150535 1.199618 2.7044504 11614497
0.35548872 1.3841747 3.1205199 11614242
0.38616356 1.3841747 3.1205199 11614757
0.41683844 1.3841747 3.1205199 12008740
0.36360452 1.1246419 2.5354223 11483171
0.28256571 0.8179214 1.8439435 11680035
0.28761819 0.7823596 1.763772 11746595
0.30495614 0.7823596 1.763772 11549216
0.30886519 0.74976128 1.6902815 12008486
0.32548073 0.74976128 1.6902815 12073507
0.34209627 0.74976128 1.6902815 11942692
0.37430799 0.7823596 1.763772 12008741
0.39164594 0.7823596 1.763772 11548963
0.40898389 0.7823596 1.763772 11746598
0.44570011 0.8179214 1.8439435 11811875
0.46382618 0.8179214 1.8439435 12074533
0.5049023 0.85687 1.9317503 12008740
0.45840508 0.74976128 1.6902815 11811618
0.47502062 0.74976128 1.6902815 11746340
0.47197074 0.71977085 1.6226703 11745826
0.43564433 0.64265251 1.4488127 12074277
0.38172162 0.54528093 1.2292956 11877412
0.4061121 0.56232095 1.2677112 12074018
0.41857377 0.56232095 1.2677112 12074531
0.43103543 0.56232095 1.2677112 12074019
0.44349706 0.56232095 1.2677112 12074531
0.45595872 0.56232095 1.2677112 11877414
0.46842039 0.56232095 1.2677112 11811878
0.48088205 0.56232095 1.2677112 11746084
0.49334371 0.56232095 1.2677112 11811621
0.52212167 0.58046037 1.3086051 11746341
0.55281812 0.59980899 1.3522252 11549732
0.62901175 0.66645449 1.5024725 11352355
0.79009503 0.8179214 1.8439435 11156003
0.68387938 0.69208735 1.5602599 11221539
0.58643991 0.58046037 1.3086051 11286308
0.64063483 0.6204921 1.3988537 11156261
0.65438563 0.6204921 1.3988537 11024675
0.69199842 0.64265251 1.4488127 11286821
0.7062403 0.64265251 1.4488127 11352868
0.72048217 0.64265251 1.4488127 11417378
0.7347241 0.64265251 1.4488127 11417379
0.74896598 0.64265251 1.4488127 11352355
0.76320785 0.64265251 1.4488127 11482914
0.80624425 0.66645449 1.5024725 11483428
0.8525911 0.69208735 1.5602599 11286564
0.90264559 0.71977085 1.6226703 11089955
0.91859657 0.71977085 1.6226703 11418150
0.9734869 0.74976128 1.6902815 11090212
0.99010247 0.74976128 1.6902815 10893349
1.006718 0.74976128 1.6902815 10762534
0.98240024 0.71977085 1.6226703 11154978
0.99835116 0.71977085 1.6226703 10827039
1.0565646 0.74976128 1.6902815 11024418
1.2264916 0.85687 1.9317503 11024162
1.307755 0.89971358 2.028338 10565154
1.3276936 0.89971358 2.028338 10368288
1.4185603 0.9470669 2.1350925 11024675
1.3024484 0.85687 1.9317503 10761762
1.4605364 0.9470669 2.1350925 10958885
1.3404268 0.85687 1.9317503 10958882
1.2976243 0.8179214 1.8439435 10696740
1.072093 0.66645449 1.5024725 10630433
1.3338765 0.8179214 1.8439435 10761249
1.1897622 0.71977085 1.6226703 10499104
1.2057132 0.71977085 1.6226703 10695456
1.0531586 0.6204921 1.3988537 10892578
1.0669094 0.6204921 1.3988537 10564897
1.1192552 0.64265251 1.4488127 10565156
1.1754786 0.66645449 1.5024725 10303267
1.1902479 0.66645449 1.5024725 10237987
1.2513641 0.69208735 1.5602599 10303268
1.1762228 0.64265251 1.4488127 9844001
1.1904647 0.64265251 1.4488127 10041380
1.2047065 0.64265251 1.4488127 10237989
1.3127139 0.69208735 1.5602599 10304039
1.3811733 0.71977085 1.6226703 10041380
1.3971242 0.71977085 1.6226703 10041126
1.4130751 0.71977085 1.6226703 10434855
1.429026 0.71977085 1.6226703 10304297
1.4449769 0.71977085 1.6226703 10106919
1.5217998 0.74976128 1.6902815 10106917
1.5384154 0.74976128 1.6902815 9844515
1.5550309 0.74976128 1.6902815 10041639
1.6399789 0.7823596 1.763772 9845028
1.6573169 0.7823596 1.763772 10435368
1.7507756 0.8179214 1.8439435 10172964
1.9457918 0.89971358 2.028338 10304551
1.9657305 0.89971358 2.028338 10107172
2.4820864 1.1246419 2.5354223 9975331
2.0056078 0.89971358 2.028338 9779239
1.9290917 0.85687 1.9317503 9516067
1.7786826 0.7823596 1.763772 9516324
1.7211864 0.74976128 1.6902815 9450788
1.7378019 0.74976128 1.6902815 9581089
1.7544174 0.74976128 1.6902815 9843749
1.7710329 0.74976128 1.6902815 9647395
1.7876486 0.74976128 1.6902815 9974817
1.7320936 0.71977085 1.6226703 9778981
1.680812 0.69208735 1.5602599 9910567
1.7639954 0.71977085 1.6226703 9975845
1.7799463 0.71977085 1.6226703 10172965
1.7958972 0.71977085 1.6226703 10305066
1.8873417 0.74976128 1.6902815 10370859
1.8277991 0.71977085 1.6226703 10239273
1.4868952 0.58046037 1.3086051 10239274
1.0566483 0.4089607 0.92197174 9976873
1.1436901 0.43888465 0.98943311 10043436
1.1534163 0.43888465 0.98943311 10043179
0 0 0 10502703
0 0 0 10240043
0 0 0 9977130
0 0 0 9911337
0 0 0 9845803
0 0 0 9451560
0 0 0 8993324
0 0 0 7944235
0 0 0 6500390
0 0 0 5910311
0 0 0 6237732
0 0 0 5843748
0 0 0 5580578
0 0 0 8664615
0 0 0 8992295
-0.84939408 0.322685 0.71169752 8926244
-0.87303066 0.33441898 0.73757738 9122852
-0.82099855 0.31712145 0.69942683 8991266
-0.7869857 0.30655071 0.67611259 9122593
-0.76754707 0.30152532 0.66502881 9319458
-0.74873543 0.296662 0.65430254 9253922
-0.74230361 0.296662 0.65430254 9253410
-0.74793524 0.30152532 0.66502881 9122082
-0.83750516 0.34061193 0.75123626 9121823
0 0 0 9187616
0 0 0 9318432
-0.89855021 0.37536824 0.82789302 9122082
-0.83904207 0.35371238 0.78012997 9253922
-0.815687 0.34703854 0.76541048 9449505
-0.80816299 0.34703854 0.76541048 9449505
-0.78581238 0.34061193 0.75123626 9450016
-0.79311496 0.34703854 0.76541048 9712675
-0.78559089 0.34703854 0.76541048 9581346
-0.77806687 0.34703854 0.76541048 9515296
-0.78536105 0.35371238 0.78012997 9581089
-0.79294121 0.36064792 0.79542661 9778208
-0.7851221 0.36064792 0.79542661 10106404
-0.8090297 0.37536824 0.82789302 10237474
-0.80089146 0.37536824 0.82789302 10237989
-0.77689815 0.36786088 0.81133515 10368805
-0.76892269 0.36786088 0.81133515 10499619
-0.74602669 0.36064792 0.79542661 10696998
-0.75297177 0.36786088 0.81133515 10433825
-0.74499631 0.36786088 0.81133515 10434083
-0.75206214 0.37536824 0.82789302 10565154
-0.71475041 0.36064792 0.79542661 10565151
-0.69333649 0.35371238 0.78012997 10368288
-0.68566781 0.35371238 0.78012997 10499874
-0.69129318 0.36064792 0.79542661 10302752
-0.69714355 0.36786088 0.81133515 10237217
-0.6891681 0.36786088 0.81133515 10368290
-0.69509453 0.37536824 0.82789302 10433570
-0.7012679 0.3831884 0.84514076 10237474
-0.69296008 0.3831884 0.84514076 10565155
-0.68465233 0.3831884 0.84514076 10762533
0 0 0 10762533
0 0 0 10696994
0 0 0 10828580
0 0 0 10828067
0 0 0 11155746
0 0 0 10762787
0 0 0 11024675
0 0 0 11024675
-2.2518735 1.4148495 3.1205199 11090214
-2.0625415 1.3137888 2.8976254 10959397
-2.0340579 1.3137888 2.8976254 10894119
-2.1598489 1.4148495 3.1205199 10893861
-2.1291742 1.4148495 3.1205199 11091238
-2.7280493 1.8393044 4.0566759 11156261
-2.9868577 2.0436716 4.5074177 11025443
-1.5578202 1.0819438 2.3862798 11024930
-1.534363 1.0819438 2.3862798 11287332
-1.5109057 1.0819438 2.3862798 11024675
-1.4874486 1.0819438 2.3862798 10893605
-1.4639913 1.0819438 2.3862798 11090211
-1.2888989 0.96805495 2.1350925 11221539
-0.75282204 0.57478261 1.2677112 11352098
-0.5778423 0.44861084 0.98943311 11090468
-0.51761687 0.40873429 0.90148348 11090981
-0.47695804 0.3831884 0.84514076 11090467
-0.459086 0.37536824 0.82789302 11352612
-0.4419288 0.36786088 0.81133515 11090466
-0.43395334 0.36786088 0.81133515 11221794
-0.43467131 0.37536824 0.82789302 11155748
-0.4265331 0.37536824 0.82789302 11156004
-0.41839486 0.37536824 0.82789302 11286562
-0.36550137 0.33441898 0.73757738 11614242
-0.32839671 0.30655071 0.67611259 11548962
-0.32175046 0.30655071 0.67611259 11351585
-0.30993864 0.30152532 0.66502881 11352354
-0.24351951 0.24201374 0.53377312 11352355
-0.2382725 0.24201374 0.53377312 11286562
-0.22999917 0.2388707 0.52684098 11089698
-0.2248203 0.2388707 0.52684098 11417378
-0.21964143 0.2388707 0.52684098 11221026
-0.21171306 0.23580827 0.52008665 11089441
-0.20928369 0.2388707 0.52684098 11352099
-0.20410483 0.2388707 0.52684098 11220769
0 0 0 11220769
-0.18417934 0.22707461 0.50082415 10958368
0 0 0 11089696
-0.17433308 0.22707461 0.50082415 11220770
-0.16734399 0.22430542 0.49471655 11351585
-0.1730316 0.2388707 0.52684098 11417380
-0.16785273 0.2388707 0.52684098 11088929
-0.16267386 0.2388707 0.52684098 10958367
-0.15749499 0.2388707 0.52684098 10958369
-0.15231612 0.2388707 0.52684098 10564383
-0.14713725 0.2388707 0.52684098 10760990
-0.27326989 0.45982611 1.014169 10826782
-0.23936415 0.41802371 0.92197174 11023391
-0.13333222 0.24201374 0.53377312 10892574
-0.12642176 0.2388707 0.52684098 11351587
-0.1212429 0.2388707 0.52684098 11417378
-0.11606403 0.2388707 0.52684098 11219999
-0.17787828 0.3831884 0.84514076 11089697
-0.16610989 0.37536824 0.82789302 10957599
-0.12094705 0.2873913 0.63385558 11351587
-0.097891174 0.24524058 0.5408901 11154719
-0.092574202 0.24524058 0.5408901 11286306
-0.08843638 0.24855465 0.54819942 11417377
-0.08418519 0.2519595 0.555709 11548192
-0.078722544 0.2519595 0.555709 11417378
-0.074277401 0.25545895 0.56342721 11286562
-0.068738893 0.25545895 0.56342721 11482657
-0.062334612 0.2519595 0.555709 11482913
-0.056871969 0.2519595 0.555709 11352354
-0.057736624 0.28296992 0.62410396 11417121
0 0 0 11679778
0 0 0 11745314
0 0 0 11942693
0 0 0 11942693
0 0 0 11811361
0 0 0 11745314
0 0 0 11680035
0 0 0 11876641
0 0 0 11745568
0 0 0 11614242
0 0 0 11745314
0 0 0 11614755
0 0 0 11745568
0 0 0 11745316
0 0 0 11680035
0.17516586 1.2262028 2.7044504 11811363
0.20175074 1.2262028 2.7044504 11548962
0.2283356 1.2262028 2.7044504 11221539
0.25492048 1.2262028 2.7044504 11548962
0.30161285 1.3137888 2.8976254 11548449
0.35548872 1.4148495 3.1205199 11418916
0.50201267 1.8393044 4.0566759 11548451
0.45157495 1.5327536 3.380563 12007973
0.48480603 1.5327536 3.380563 11613728
0.38852784 1.1495652 2.5354223 11548707
0.28761819 0.79969752 1.763772 11811875
0.30495614 0.79969752 1.763772 11548959
0.30886519 0.76637679 1.6902815 11680033
0.32548073 0.76637679 1.6902815 12008741
0.34209627 0.76637679 1.6902815 12008483
0.35871181 0.76637679 1.6902815 12007969
0.39164594 0.79969752 1.763772 11811621
0.40898389 0.79969752 1.763772 11812388
0.42632186 0.79969752 1.763772 11484963
0.44365981 0.79969752 1.763772 11877668
0.44178954 0.76637679 1.6902815 11811621
0.45840508 0.76637679 1.6902815 11812134
0.47502062 0.76637679 1.6902815 11549217
0.47197074 0.73572177 1.6226703 11680032
0.45177931 0.68122387 1.5024725 11811621
0.38172162 0.55736494 1.2292956 11877414
0.39380565 0.55736494 1.2292956 11877414
0.40588969 0.55736494 1.2292956 11746596
0.43103543 0.57478261 1.2677112 12074275
0.44349706 0.57478261 1.2677112 12008997
0.47066709 0.59332401 1.3086051 11812133
0.48353073 0.59332401 1.3086051 11745570
0.49639437 0.59332401 1.3086051 11548707
0.49334371 0.57478261 1.2677112 11680037
0.50580537 0.57478261 1.2677112 11614757
0.51826704 0.57478261 1.2677112 11680805
0.54784894 0.59332401 1.3086051 11352869
0.56071264 0.59332401 1.3086051 10762273
0.63503081 0.65689439 1.4488127 10893859
0.58643991 0.59332401 1.3086051 11089955
0.64063483 0.63424289 1.3988537 11089953
0.65438563 0.63424289 1.3988537 10565153
0.69199842 0.65689439 1.4488127 10696996
0.7062403 0.65689439 1.4488127 11024673
0.72048217 0.65689439 1.4488127 11155746
0.7347241 0.65689439 1.4488127 11287332
0.74896598 0.65689439 1.4488127 11155490
0.76320785 0.65689439 1.4488127 11220770
0.75064117 0.63424289 1.3988537 11417378
0.76439196 0.63424289 1.3988537 11089440
0.80593354 0.65689439 1.4488127 11417635
0.88326591 0.70742476 1.5602599 11220770
0.93454748 0.73572177 1.6226703 11352357
0.99010247 0.76637679 1.6902815 11286564
1.006718 0.76637679 1.6902815 11155748
1.1695241 0.8758592 1.9317503 11024164
0.99835116 0.73572177 1.6226703 10958882
1.0565646 0.76637679 1.6902815 11024421
1.0731802 0.76637679 1.6902815 10827042
1.2454808 0.8758592 1.9317503 10762533
1.3276936 0.91965222 2.028338 10434081
1.2834592 0.8758592 1.9317503 10368545
1.1891921 0.79969752 1.763772 10827812
1.3214376 0.8758592 1.9317503 10893860
1.3404268 0.8758592 1.9317503 10893859
1.2976243 0.83604741 1.8439435 10827809
1.072093 0.68122387 1.5024725 10630432
1.0868623 0.68122387 1.5024725 10499363
1.2393357 0.76637679 1.6902815 10893607
1.2559512 0.76637679 1.6902815 10761506
1.174677 0.70742476 1.5602599 10695456
1.0669094 0.63424289 1.3988537 10433568
1.1607091 0.68122387 1.5024725 10499874
1.1754786 0.68122387 1.5024725 10368290
1.1902479 0.68122387 1.5024725 10237476
1.2050173 0.68122387 1.5024725 10302753
1.1762228 0.65689439 1.4488127 10171681
1.1904647 0.65689439 1.4488127 10106146
1.2047065 0.65689439 1.4488127 10106403
1.3127139 0.70742476 1.5602599 10237476
1.3280512 0.70742476 1.5602599 10106660
1.3971242 0.73572177 1.6226703 10041125
1.4130751 0.73572177 1.6226703 10171683
1.429026 0.73572177 1.6226703 10106403
1.5051843 0.76637679 1.6902815 10238505
1.5217998 0.76637679 1.6902815 10106406
1.5384154 0.76637679 1.6902815 10041380
1.622641 0.79969752 1.763772 9844260
1.6399789 0.79969752 1.763772 9778722
1.6573169 0.79969752 1.763772 10041895
1.6746548 0.79969752 1.763772 10237990
1.9457918 0.91965222 2.028338 10107173
1.9657305 0.91965222 2.028338 9778981
1.9856691 0.91965222 2.028338 9975845
1.9101025 0.8758592 1.9317503 9713186
1.9290917 0.8758592 1.9317503 9713189
1.7786826 0.79969752 1.763772 9713189
1.7960205 0.79969752 1.763772 9844517
1.7378019 0.76637679 1.6902815 9844261
1.7544174 0.76637679 1.6902815 9844005
1.7710329 0.76637679 1.6902815 9975592
1.7161427 0.73572177 1.6226703 9844262
1.7320936 0.73572177 1.6226703 9647652
1.7480445 0.73572177 1.6226703 9648165
1.7639954 0.73572177 1.6226703 9713959
1.7799463 0.73572177 1.6226703 9779752
1.7958972 0.73572177 1.6226703 9910822
1.7421618 0.70742476 1.5602599 9976614
1.7574992 0.70742476 1.5602599 10305579
1.5894396 0.63424289 1.3988537 10305578
1.1339639 0.44861084 0.98943311 10502186
1.1436901 0.44861084 0.98943311 10239532
1.2125659 0.47161654 1.0401733 10043436
0 0 0 10108716
0 0 0 9977643
0 0 0 10108973
0 0 0 10173993
0 0 0 9977386
0 0 0 9977643
0 0 0 9583400
0 0 0 9387307
0 0 0 7485482
0 0 0 5909282
0 0 0 5384480
0 0 0 5975076
0 0 0 6040611
0 0 0 8926498
0 0 0 8992036
-0.89658266 0.34799662 0.75123626 8991266
-0.88919795 0.34799662 0.75123626 9122336
-0.82099855 0.32399684 0.69942683 8991009
-0.81412315 0.32399684 0.69942683 9383967
-0.78033948 0.31319693 0.67611259 9319202
-0.76100981 0.30806258 0.66502881 9253409
-0.75447249 0.30806258 0.66502881 9187873
-0.84488982 0.34799662 0.75123626 9121825
-0.88677013 0.368467 0.79542661 9253410
0 0 0 9253407
-0.90668839 0.38350648 0.82789302 9253152
-0.84671074 0.36138111 0.78012997 9384481
-0.89041197 0.38350648 0.82789302 9581089
-0.88227373 0.38350648 0.82789302 9581604
-0.80816299 0.35456258 0.76541048 9712675
-0.80063897 0.35456258 0.76541048 9778468
-0.79311496 0.35456258 0.76541048 9974819
-0.80069846 0.36138111 0.78012997 9712675
-0.79302979 0.36138111 0.78012997 9581089
-0.80076027 0.368467 0.79542661 10040867
-0.80880004 0.37583634 0.81133515 10040354
-0.81716794 0.38350648 0.82789302 10303268
-0.8090297 0.38350648 0.82789302 10434083
-0.80089146 0.38350648 0.82789302 10433827
-0.77689815 0.37583634 0.81133515 10433827
-0.76892269 0.37583634 0.81133515 10434083
-0.76094723 0.37583634 0.81133515 10630947
-0.75297177 0.37583634 0.81133515 10237472
-0.74499631 0.37583634 0.81133515 10368288
-0.73702085 0.37583634 0.81133515 10630433
-0.71475041 0.368467 0.79542661 10761503
-0.70693129 0.368467 0.79542661 10499613
-0.71309447 0.37583634 0.81133515 10499616
-0.70511901 0.37583634 0.81133515 10236702
-0.711371 0.38350648 0.82789302 10434083
-0.70323277 0.38350648 0.82789302 10368546
-0.70957565 0.39149618 0.84514076 10368545
-0.7012679 0.39149618 0.84514076 10565411
-0.69296008 0.39149618 0.84514076 10630948
-0.71441984 0.40851775 0.88188601 10433822
-0.72143424 0.41759592 0.90148348 10762533
0 0 0 10893605
0 0 0 10827554
0 0 0 10828066
0 0 0 10827296
0 0 0 10958883
0 0 0 10762019
0 0 0 10762533
-2.2518735 1.4455245 3.1205199 10959397
-2.2211988 1.4455245 3.1205199 11024677
-2.1905239 1.4455245 3.1205199 11090214
-2.8078039 1.8791817 4.0566759 11090211
-2.7679265 1.8791817 4.0566759 11090468
-3.0311658 2.0879798 4.5074177 11090470
-3.3602147 2.3489771 5.0708447 11025188
-3.3103681 2.3489771 5.0708447 10959650
-1.7389446 1.2527877 2.7044504 11221539
-1.5109057 1.105401 2.3862798 11156260
-1.5804141 1.1744885 2.5354223 11353125
-1.4639913 1.105401 2.3862798 11221540
-1.440534 1.105401 2.3862798 11221539
-0.75282204 0.58724427 1.2677112 11286562
-0.52647847 0.41759592 0.90148348 10959395
-0.51761687 0.41759592 0.90148348 11287075
-0.47695804 0.39149618 0.84514076 11352355
-0.46865028 0.39149618 0.84514076 11287076
-0.4419288 0.37583634 0.81133515 11155746
-0.43395334 0.37583634 0.81133515 11286564
-0.43467131 0.38350648 0.82789302 11286564
-0.4265331 0.38350648 0.82789302 11352355
-0.41839486 0.38350648 0.82789302 11352355
-0.41025665 0.38350648 0.82789302 11483170
-0.35825095 0.34166938 0.73757738 11221026
-0.32175046 0.31319693 0.67611259 11156259
-0.27400371 0.27234516 0.587924 11155746
-0.24351951 0.24726075 0.53377312 11483171
-0.23517805 0.24404956 0.52684098 11155747
-0.22999917 0.24404956 0.52684098 11089697
-0.22193801 0.24092074 0.52008665 11417378
-0.21682553 0.24092074 0.52008665 11154976
-0.20387183 0.23199773 0.50082415 11351583
-0.19415477 0.22640744 0.48875612 11351841
-0.18935026 0.22640744 0.48875612 11220770
-0.19892596 0.24404956 0.52684098 11286562
-0.18417934 0.23199773 0.50082415 11351585
0 0 0 11089440
0 0 0 11090468
0 0 0 11417378
-0.16654293 0.23489772 0.50708449 11154978
-0.16155827 0.23489772 0.50708449 11023648
-0.15464059 0.23199773 0.50082415 10957856
-0.14971747 0.23199773 0.50082415 11220769
-0.15231612 0.24404956 0.52684098 11023390
-0.25749019 0.42708674 0.92197174 10827042
-0.28765252 0.4945215 1.0675462 10695967
-0.23936415 0.42708674 0.92197174 10892575
-0.13160063 0.24404956 0.52684098 11155491
-0.12480098 0.24092074 0.52008665 11088927
-0.11817346 0.2378711 0.51350325 11286049
-0.11759119 0.24726075 0.53377312 11023392
-0.18166292 0.39982587 0.86312246 11286562
-0.17317837 0.39982587 0.86312246 11155233
-0.14885791 0.36138111 0.78012997 11352098
-0.097891174 0.25055757 0.5408901 11351070
-0.092574202 0.25055757 0.5408901 11023390
-0.087257229 0.25055757 0.5408901 11416606
-0.08418519 0.25742215 0.555709 11548193
-0.078722544 0.25742215 0.555709 11548193
-0.073259905 0.25742215 0.555709 11285792
-0.076141536 0.28910488 0.62410396 11482656
-0.062334612 0.25742215 0.555709 11286562
-0.06486959 0.29362214 0.63385558 11352355
-0.058638759 0.29362214 0.63385558 11351585
0 0 0 11286306
0 0 0 11221539
0 0 0 11482914
0 0 0 11548449
-0.039977621 0.42708674 0.92197174 11680035
0 0 0 11745568
0 0 0 11942434
0 0 0 11680035
0 0 0 11680289
0 0 0 11614755
0 0 0 11745568
0 0 0 11876900
0 0 0 11876641
0 0 0 11680035
0 0 0 11679778
0.17516586 1.2527877 2.7044504 11679778
0.20175074 1.2527877 2.7044504 11811620
0.2283356 1.2527877 2.7044504 11351584
0.29413903 1.4455245 3.1205199 11156002
0.35188168 1.5659847 3.380563 11221795
0.5134837 2.0879798 4.5074177 11483169
0.55779183 2.0879798 4.5074177 11417891
0.54188997 1.8791817 4.0566759 11615012
0.48480603 1.5659847 3.380563 11548706
0.47818813 1.4455245 3.1205199 11483169
0.44101456 1.2527877 2.7044504 11680549
0.46759942 1.2527877 2.7044504 11614497
0.46329778 1.1744885 2.5354223 11745568
0.37197798 0.89484841 1.9317503 11745568
0.34209627 0.78299236 1.6902815 12008482
0.39132199 0.85417348 1.8439435 11877155
0.40944803 0.85417348 1.8439435 11811107
0.42757407 0.85417348 1.8439435 11746341
0.42632186 0.8170355 1.763772 11549474
0.44365981 0.8170355 1.763772 11811622
0.5049023 0.89484841 1.9317503 11745829
0.52389151 0.89484841 1.9317503 11811364
0.47502062 0.78299236 1.6902815 11811875
0.47197074 0.75167269 1.6226703 11812134
0.48792166 0.75167269 1.6226703 11812134
0.39365044 0.58724427 1.2677112 11614755
0.4061121 0.58724427 1.2677112 11943719
0.41857377 0.58724427 1.2677112 11812132
0.43103543 0.58724427 1.2677112 11811876
0.45780343 0.60618764 1.3086051 12008740
0.50312686 0.64799368 1.3988537 11942434
0.51687765 0.64799368 1.3988537 11548449
0.49639437 0.60618764 1.3086051 11614757
0.49334371 0.58724427 1.2677112 11483685
0.50580537 0.58724427 1.2677112 11483685
0.50256193 0.56944895 1.2292956 11352612
0.51464599 0.56944895 1.2292956 11745314
0.56071264 0.60618764 1.3086051 10499361
0.61313319 0.64799368 1.3988537 9777694
0.64927274 0.67113632 1.4488127 10368802
0.68808925 0.69599324 1.5024725 11155746
0.75908732 0.75167269 1.6226703 11089955
0.77503824 0.75167269 1.6226703 11090468
0.79098916 0.75167269 1.6226703 10565156
0.80694008 0.75167269 1.6226703 11090467
0.79124135 0.72276223 1.5602599 11024418
0.74896598 0.67113632 1.4488127 10958882
0.76320785 0.67113632 1.4488127 11089955
0.77744979 0.67113632 1.4488127 10958628
0.79169166 0.67113632 1.4488127 11089955
0.835783 0.69599324 1.5024725 11286564
0.88326591 0.72276223 1.5602599 11483173
0.93454748 0.75167269 1.6226703 11286564
0.99010247 0.78299236 1.6902815 10892576
1.006718 0.78299236 1.6902815 11286564
1.1695241 0.89484841 1.9317503 11024420
1.0399491 0.78299236 1.6902815 11024675
1.2075025 0.89484841 1.9317503 11024162
1.2264916 0.89484841 1.9317503 11221026
1.2454808 0.89484841 1.9317503 10893090
1.26447 0.89484841 1.9317503 10696228
1.2834592 0.89484841 1.9317503 10827811
1.2432462 0.85417348 1.8439435 10828322
1.3214376 0.89484841 1.9317503 10630687
1.4074482 0.93959087 2.028338 10630946
1.4273869 0.93959087 2.028338 10826783
1.2061045 0.78299236 1.6902815 10565151
1.22272 0.78299236 1.6902815 10499618
1.2393357 0.78299236 1.6902815 10629665
1.2559512 0.78299236 1.6902815 10368292
1.174677 0.72276223 1.5602599 10433570
1.1459398 0.69599324 1.5024725 10499104
1.1607091 0.69599324 1.5024725 10236704
1.1754786 0.69599324 1.5024725 10106661
1.1902479 0.69599324 1.5024725 10237476
1.3014187 0.75167269 1.6226703 10106660
1.3173696 0.75167269 1.6226703 10302498
1.3333205 0.75167269 1.6226703 10171939
1.3492714 0.75167269 1.6226703 9975587
1.3652223 0.75167269 1.6226703 10040867
1.3811733 0.75167269 1.6226703 10106403
1.3971242 0.75167269 1.6226703 10237988
1.4719532 0.78299236 1.6902815 9975332
2.1015089 1.105401 2.3862798 10040869
2.1249661 1.105401 2.3862798 9712419
2.1484234 1.105401 2.3862798 9581091
1.6782713 0.85417348 1.8439435 9844261
1.6963974 0.85417348 1.8439435 9844262
1.7145234 0.85417348 1.8439435 9844262
1.7326494 0.85417348 1.8439435 9975590
1.9258533 0.93959087 2.028338 9844774
2.2891667 1.105401 2.3862798 9910053
1.9657305 0.93959087 2.028338 9778468
1.8911134 0.89484841 1.9317503 9712677
1.9101025 0.89484841 1.9317503 9647397
1.8414057 0.85417348 1.8439435 9647653
1.8595318 0.85417348 1.8439435 9647652
1.7960205 0.8170355 1.763772 9778981
1.7378019 0.78299236 1.6902815 9910054
1.7544174 0.78299236 1.6902815 10172712
1.7001917 0.75167269 1.6226703 10041893
1.7161427 0.75167269 1.6226703 10042148
1.7320936 0.75167269 1.6226703 10107173
1.8208796 0.78299236 1.6902815 10106661
1.8374952 0.78299236 1.6902815 9976103
1.8541107 0.78299236 1.6902815 9844518
1.7958972 0.75167269 1.6226703 10239019
1.7421618 0.72276223 1.5602599 10107946
1.7574992 0.72276223 1.5602599 10107431
1.7728366 0.72276223 1.5602599 10108200
1.4997588 0.60618764 1.3086051 10370341
1.3397514 0.53690904 1.1590502 10174763
1.3136131 0.52199495 1.1268544 9977901
1.4451164 0.56944895 1.2292956 9912109
0 0 0 10109229
0 0 0 10306352
0 0 0 10240302
0 0 0 10174508
0 0 0 10173993
0 0 0 10305579
0 0 0 10304554
0 0 0 9255980
0 0 0 7222056
0 0 0 5908768
0 0 0 5515553
0 0 0 5778722
0 0 0 8991266
0 0 0 8991523
-0.96830922 0.3838118 0.81133515 8925986
0 0 0 9056801
-0.89845121 0.36208659 0.76541048 9253409
-0.8909272 0.36208659 0.76541048 9384223
-0.88340318 0.36208659 0.76541048 9384223
-0.87587917 0.36208659 0.76541048 9253409
-0.8683551 0.36208659 0.76541048 9384225
-0.86083108 0.36208659 0.76541048 9187616
-0.86971688 0.36904982 0.78012997 9122336
-0.86204821 0.36904982 0.78012997 9253408
-0.85437948 0.36904982 0.78012997 9449761
-0.88057917 0.3838118 0.81133515 9581347
-0.89041197 0.39164469 0.82789302 9515809
-0.88227373 0.39164469 0.82789302 9581602
-0.8566528 0.3838118 0.81133515 9515553
-0.80063897 0.36208659 0.76541048 9777954
-0.80836719 0.36904982 0.78012997 9909027
-0.80069846 0.36904982 0.78012997 9777953
-0.80857933 0.37628609 0.79542661 9844002
-0.8167755 0.3838118 0.81133515 10172451
-0.80880004 0.3838118 0.81133515 10237474
-0.81716794 0.39164469 0.82789302 10434339
-0.8090297 0.39164469 0.82789302 10500133
-0.80089146 0.39164469 0.82789302 10171681
-0.77689815 0.3838118 0.81133515 10499361
-0.76892269 0.3838118 0.81133515 10433824
-0.7764768 0.39164469 0.82789302 10368803
-0.75297177 0.3838118 0.81133515 10237474
-0.73038858 0.37628609 0.79542661 10368290
-0.72256947 0.37628609 0.79542661 10368290
-0.71475041 0.37628609 0.79542661 10302496
-0.72106993 0.3838118 0.81133515 10301982
-0.72764742 0.39164469 0.82789302 10499615
-0.71950924 0.39164469 0.82789302 10433825
-0.711371 0.39164469 0.82789302 10237216
-0.70323277 0.39164469 0.82789302 10237474
-0.70957565 0.39980394 0.84514076 10303265
-0.7012679 0.39980394 0.84514076 10369061
-0.7230888 0.41718674 0.88188601 10565669
-0.73029584 0.42645755 0.90148348 10434083
0 0 0 10499621
0 0 0 10565666
0 0 0 10696997
0 0 0 10499615
0 0 0 10565154
0 0 0 10630432
0 0 0 10959140
0 0 0 11024675
-2.4395297 1.5992157 3.380563 11024421
-2.4062984 1.5992157 3.380563 10827812
-2.847681 1.919059 4.0566759 11024934
-3.119782 2.132288 4.5074177 11024675
-3.0754738 2.132288 4.5074177 11090468
-3.4100614 2.3988237 5.0708447 11089955
-3.3602147 2.3988237 5.0708447 10893861
-3.3103681 2.3988237 5.0708447 10828323
-2.8982413 2.132288 4.5074177 10959652
-1.8346713 1.3707564 2.8976254 10959652
-1.6857749 1.2793726 2.7044504 11156003
-1.6591901 1.2793726 2.7044504 11024161
-1.440534 1.1288582 2.3862798 11090211
-0.83070016 0.66174448 1.3988537 11089955
-0.52647847 0.42645755 0.90148348 10958882
-0.49559063 0.40831041 0.86312246 10827296
-0.46722424 0.39164469 0.82789302 11220769
-0.459086 0.39164469 0.82789302 11220769
-0.4419288 0.3838118 0.81133515 11089440
-0.43395334 0.3838118 0.81133515 11155748
-0.42597789 0.3838118 0.81133515 11221283
-0.4265331 0.39164469 0.82789302 11089953
-0.41002697 0.3838118 0.81133515 11221538
-0.39416814 0.37628609 0.79542661 11418148
-0.36488524 0.35538131 0.75123626 11287077
-0.32175046 0.31984314 0.67611259 11352355
-0.27008939 0.2741513 0.57952511 11155746
-0.24351951 0.25250778 0.53377312 11155748
-0.22356433 0.23692086 0.50082415 11286562
-0.21337274 0.23121193 0.48875612 11286562
-0.21371807 0.23692086 0.50082415 11220514
-0.20376375 0.23121193 0.48875612 10958369
-0.19895926 0.23121193 0.48875612 10893089
-0.19415477 0.23121193 0.48875612 11089955
-0.18709609 0.2284594 0.48293757 11220770
-0.18234879 0.2284594 0.48293757 11154207
-0.1776015 0.2284594 0.48293757 11416864
-0.1792562 0.23692086 0.50082415 11351585
-0.17433308 0.23692086 0.50082415 11286305
-0.17152759 0.23988238 0.50708449 11351587
-0.16248091 0.23403159 0.49471655 11351587
-0.15761781 0.23403159 0.49471655 11023908
-0.15464059 0.23692086 0.50082415 11220258
-0.14971747 0.23692086 0.50082415 11088927
0 0 0 10760990
0 0 0 10564640
0 0 0 10695710
-0.23936415 0.43614978 0.92197174 10826786
-0.13160063 0.24922843 0.52684098 10827039
-0.12322122 0.24291886 0.51350325 10958882
-0.11817346 0.24291886 0.51350325 10760990
-0.11606403 0.24922843 0.52684098 11023392
-0.17787828 0.39980394 0.84514076 11417378
-0.16957051 0.39980394 0.84514076 11351840
-0.12094705 0.29985297 0.63385558 11155232
-0.096603133 0.25250778 0.53377312 11285535
-0.091356121 0.25250778 0.53377312 11351585
-0.087257229 0.25587454 0.5408901 11547935
-0.083047554 0.2593323 0.54819942 11613728
-0.077658728 0.2593323 0.54819942 11548449
-0.074277401 0.266536 0.56342721 11417378
-0.071727529 0.27812448 0.587924 11482913
-0.065948211 0.27812448 0.587924 11351584
-0.06486959 0.29985297 0.63385558 11417120
0 0 0 11351585
0 0 0 11286562
0 0 0 11417635
0 0 0 11351585
-0.044953924 0.39980394 0.84514076 11417891
-0.036646154 0.39980394 0.84514076 11155489
0 0 0 11811107
0 0 0 11876641
0 0 0 11680289
0 0 0 11811875
0 0 0 11548449
0 0 0 11483423
0 0 0 11811361
0 0 0 11876639
0 0 0 11482655
0 0 0 11745572
0 0 0 11548964
0.2161615 1.3707564 2.8976254 11483427
0.26346418 1.4761993 3.1205199 11417889
0.42486748 2.132288 4.5074177 11417377
0.46917561 2.132288 4.5074177 11286818
0.5134837 2.132288 4.5074177 11483427
0.55779183 2.132288 4.5074177 11287332
1.0837799 3.8381181 8.1133518 11287074
1.1635345 3.8381181 8.1133518 11287332
1.2432891 3.8381181 8.1133518 11548962
0.50886297 1.4761993 3.1205199 11352355
0.53953785 1.4761993 3.1205199 11483941
0.57021266 1.4761993 3.1205199 11548706
0.52076918 1.2793726 2.7044504 11614752
0.34209627 0.79960787 1.6902815 11943721
0.39132199 0.87229955 1.8439435 11680548
0.40944803 0.87229955 1.8439435 11615268
0.42757407 0.87229955 1.8439435 11680806
0.44570011 0.87229955 1.8439435 11549217
0.60024565 1.1288582 2.3862798 12074277
0.62370288 1.1288582 2.3862798 11679778
0.55008614 0.95952952 2.028338 11877413
0.47502062 0.79960787 1.6902815 12008740
0.49163616 0.79960787 1.6902815 11877154
0.48792166 0.7676236 1.6226703 11812134
0.50387257 0.7676236 1.6226703 11812133
0.4061121 0.59970593 1.2677112 11812133
0.41857377 0.59970593 1.2677112 12009254
0.43103543 0.59970593 1.2677112 11614757
0.45780343 0.61905128 1.3086051 11352355
0.48635596 0.63968629 1.3522252 11811364
0.49964839 0.63968629 1.3522252 11680549
0.51294082 0.63968629 1.3522252 11614502
0.49334371 0.59970593 1.2677112 11417122
0.50580537 0.59970593 1.2677112 11548707
0.50256193 0.58153301 1.2292956 11483171
0.51464599 0.58153301 1.2292956 11745828
0.54319036 0.59970593 1.2677112 11220769
0.59269542 0.63968629 1.3522252 10695968
0.67331988 0.71076262 1.5024725 10762019
0.71455425 0.73809963 1.5602599 11155746
0.75908732 0.7676236 1.6226703 11615269
0.77503824 0.7676236 1.6226703 11155746
0.79098916 0.7676236 1.6226703 11287076
0.80694008 0.7676236 1.6226703 11155748
0.822891 0.7676236 1.6226703 10828066
0.80657881 0.73809963 1.5602599 10762533
0.82191622 0.73809963 1.5602599 10893602
0.83725363 0.73809963 1.5602599 11024420
0.88669467 0.7676236 1.6226703 10958628
0.94025582 0.79960787 1.6902815 10958882
0.88326591 0.73809963 1.5602599 10959652
0.9734869 0.79960787 1.6902815 11024418
1.0331504 0.83437347 1.763772 11154978
1.1505349 0.91383761 1.9317503 10892576
1.1695241 0.91383761 1.9317503 10958883
1.1885133 0.91383761 1.9317503 11024674
1.2075025 0.91383761 1.9317503 10958367
1.2264916 0.91383761 1.9317503 11286562
1.2454808 0.91383761 1.9317503 11483173
1.26447 0.91383761 1.9317503 11155235
1.2834592 0.91383761 1.9317503 11024163
1.3024484 0.91383761 1.9317503 10892832
1.3875096 0.95952952 2.028338 10696480
1.4074482 0.95952952 2.028338 10958882
1.4273869 0.95952952 2.028338 10893347
1.5235004 1.0100311 2.1350925 10893089
1.3973943 0.91383761 1.9317503 10827555
1.3520025 0.87229955 1.8439435 10367777
1.2559512 0.79960787 1.6902815 10433826
1.174677 0.73809963 1.5602599 10433828
1.1050134 0.68537819 1.4488127 10367777
1.1192552 0.68537819 1.4488127 10106403
1.1754786 0.71076262 1.5024725 10040867
1.3390288 0.79960787 1.6902815 10106661
1.3556443 0.79960787 1.6902815 9975587
1.3173696 0.7676236 1.6226703 9844261
1.3333205 0.7676236 1.6226703 10041124
1.3492714 0.7676236 1.6226703 10303269
1.3652223 0.7676236 1.6226703 10499876
1.4387221 0.79960787 1.6902815 9844515
1.9404503 1.066144 2.2537088 10106403
2.3551252 1.2793726 2.7044504 9843747
2.5518322 1.3707564 2.8976254 9778724
2.5803158 1.3707564 2.8976254 9647395
2.4348798 1.2793726 2.7044504 9647139
2.6372836 1.3707564 2.8976254 9712675
2.3325465 1.1994119 2.5354223 9778468
2.2187951 1.1288582 2.3862798 9975587
3.1765239 1.5992157 3.380563 9975333
3.2097552 1.5992157 3.380563 9582117
3.2429862 1.5992157 3.380563 9516581
2.312624 1.1288582 2.3862798 9778981
2.3360813 1.1288582 2.3862798 9712419
1.9101025 0.91383761 1.9317503 9515298
1.9290917 0.91383761 1.9317503 9581604
1.9480809 0.91383761 1.9317503 9647397
1.8776579 0.87229955 1.8439435 9713445
1.8957839 0.87229955 1.8439435 9713188
1.6842408 0.7676236 1.6226703 9844776
1.7001917 0.7676236 1.6226703 10041894
1.7161427 0.7676236 1.6226703 10304551
1.7320936 0.7676236 1.6226703 10107944
1.8208796 0.79960787 1.6902815 9779751
1.8374952 0.79960787 1.6902815 9910054
1.8541107 0.79960787 1.6902815 10239276
1.7958972 0.7676236 1.6226703 10173737
1.7421618 0.73809963 1.5602599 10304552
1.7574992 0.73809963 1.5602599 10107946
1.7728366 0.73809963 1.5602599 10369833
1.788174 0.73809963 1.5602599 10107943
1.6746891 0.68537819 1.4488127 9910819
1.688931 0.68537819 1.4488127 10173993
1.7031729 0.68537819 1.4488127 10174250
1.7174147 0.68537819 1.4488127 9977644
0 0 0 10108974
0 0 0 10174765
0 0 0 10502704
0 0 0 10173996
0 0 0 10239019
0 0 0 10172714
0 0 0 9975594
0 0 0 8991784
0 0 0 7483686
0 0 0 5449762
0 0 0 5514524
0 0 0 8794914
0 0 0 8991268
0 0 0 9187363
0 0 0 9253155
0 0 0 9252897
0 0 0 9318433
-0.88340318 0.36961061 0.76541048 9384225
-0.87587917 0.36961061 0.76541048 9384223
-0.8683551 0.36961061 0.76541048 9123106
-0.87738562 0.37671852 0.78012997 9122849
-0.86971688 0.37671852 0.78012997 9253921
-0.86204821 0.37671852 0.78012997 9253409
-0.88855463 0.39178726 0.81133515 9581091
-0.89855021 0.39978293 0.82789302 9319202
-0.89041197 0.39978293 0.82789302 9449761
-0.88227373 0.39978293 0.82789302 9646368
-0.8566528 0.39178726 0.81133515 9580829
-0.83203655 0.38410515 0.79542661 9975074
-0.8242175 0.38410515 0.79542661 9843489
-0.81639844 0.38410515 0.79542661 9974817
-0.80857933 0.38410515 0.79542661 10237987
-0.83344436 0.39978293 0.82789302 10172194
-0.82530618 0.39978293 0.82789302 10171683
-0.81716794 0.39978293 0.82789302 10303782
-0.8090297 0.39978293 0.82789302 10434083
-0.80089146 0.39978293 0.82789302 10368288
-0.79275328 0.39978293 0.82789302 10499361
-0.78461504 0.39978293 0.82789302 10433570
-0.7764768 0.39978293 0.82789302 10368290
-0.76833856 0.39978293 0.82789302 10302497
-0.76020032 0.39978293 0.82789302 10171682
-0.72256947 0.38410515 0.79542661 10369318
-0.71475041 0.38410515 0.79542661 10303267
-0.72106993 0.39178726 0.81133515 10303265
-0.72764742 0.39978293 0.82789302 10434080
-0.71950924 0.39978293 0.82789302 10302497
-0.711371 0.39978293 0.82789302 10434083
-0.70323277 0.39978293 0.82789302 10696996
-0.70957565 0.40811172 0.84514076 10434081
-0.73175776 0.4258557 0.88188601 10369060
0 0 0 10368290
0 0 0 10696226
0 0 0 10630947
0 0 0 11090468
0 0 0 10565408
0 0 0 10696742
0 0 0 10630947
0 0 0 10893605
0 0 0 10893605
-2.4727607 1.6324469 3.380563 11024418
-2.4395297 1.6324469 3.380563 10959397
-3.2083981 2.1765959 4.5074177 11024675
-3.1640902 2.1765959 4.5074177 11024676
-3.119782 2.1765959 4.5074177 10958628
-2.7679265 1.9589363 4.0566759 10827554
-3.4100614 2.4486704 5.0708447 10762016
-3.8402452 2.7984803 5.7952509 10762533
-3.7832778 2.7984803 5.7952509 10893859
-3.72631 2.7984803 5.7952509 11025189
-3.2106748 2.4486704 5.0708447 11090468
-2.8096251 2.1765959 4.5074177 10828580
-1.6591901 1.3059574 2.7044504 10828580
-1.5305674 1.2243352 2.5354223 10827552
-0.83070016 0.67549527 1.3988537 10827809
-0.59228837 0.48973408 1.014169 11090212
-0.47536245 0.39978293 0.82789302 11352355
-0.46722424 0.39978293 0.82789302 11089953
-0.459086 0.39978293 0.82789302 10959139
-0.41691396 0.36961061 0.76541048 11286820
-0.41726285 0.37671852 0.78012997 11221539
-0.42597789 0.39178726 0.81133515 11154976
-0.41800243 0.39178726 0.81133515 11221539
-0.40198722 0.38410515 0.79542661 11090211
-0.38658801 0.37671852 0.78012997 11352099
-0.28556234 0.28390381 0.587924 11220771
