# .PCD v0.7 - Point Cloud Data file format
VERSION 0.7
FIELDS x y z rgb
SIZE 4 4 4 4
TYPE F F F U
COUNT 1 1 1 1
WIDTH 1303
HEIGHT 1
VIEWPOINT 0 0 0 1 0 0 0
POINTS 1303
DATA ascii
-0.47861254 0.29236269 0.78012997 11616295
-0.47094384 0.29236269 0.78012997 11550504
-0.46327513 0.29236269 0.78012997 11615783
-0.44701004 0.2868464 0.76541048 11353125
-0.43948603 0.2868464 0.76541048 11877927
-0.42396274 0.28153443 0.75123626 11483169
-0.40900388 0.27641562 0.73757738 11812136
-0.39457929 0.27147964 0.72440636 11746087
-0.38066086 0.26671684 0.71169752 11352612
-0.34916222 0.24922721 0.66502881 11746340
-0.32154033 0.23389015 0.62410396 11614755
-0.29712099 0.2203313 0.587924 11811621
-0.25772533 0.19490846 0.52008665 11812134
-0.24325682 0.18768962 0.50082415 11680550
-0.23833369 0.18768962 0.50082415 11877157
-0.22778623 0.18316698 0.48875612 11680548
-0.22032718 0.18098642 0.48293757 11811361
-0.2081461 0.17474551 0.46628457 11417890
-0.20835221 0.17885718 0.47725597 11482656
-0.20366076 0.17885718 0.47725597 11220771
-0.19218627 0.17275976 0.46098587 11352611
-0.18765475 0.17275976 0.46098587 11613986
-0.18106568 0.17081864 0.45580626 11745568
-0.17658508 0.17081864 0.45580626 11614496
-0.17210448 0.17081864 0.45580626 11680034
-0.16762388 0.17081864 0.45580626 11680548
-0.16314329 0.17081864 0.45580626 11614242
-0.15866269 0.17081864 0.45580626 11615010
-0.15593417 0.17275976 0.46098587 11680035
-0.15140265 0.17275976 0.46098587 11614496
-0.15028675 0.17677744 0.47170648 11483167
-0.14564985 0.17677744 0.47170648 11418148
-0.14267194 0.17885718 0.47725597 11548964
0 0 0 11482658
0 0 0 11614242
0 0 0 11548449
-0.1726561 0.24922721 0.66502881 11679777
-0.15589614 0.23389015 0.62410396 11416863
-0.14529069 0.22690836 0.605474 11286562
-0.13933885 0.22690836 0.605474 11548449
-0.13540803 0.23034634 0.61464781 11811107
-0.1399698 0.24922721 0.66502881 11548962
-0.13795567 0.25767559 0.68757218 11679521
0 0 0 11680036
0 0 0 11745572
0 0 0 11548707
0 0 0 11548707
0 0 0 11351840
0 0 0 11614499
0 0 0 11417378
-0.06598933 0.20270479 0.5408901 11745568
-0.060672358 0.20270479 0.5408901 11549216
-0.055355381 0.20270479 0.5408901 11942434
-0.050714605 0.20544404 0.54819942 11876387
-0.045325778 0.20544404 0.54819942 11810594
-0.045466688 0.23389015 0.62410396 11876900
-0.10652339 0.63345248 1.6902815 11746082
-0.10275183 0.72394568 1.9317503 11745568
-0.087950774 0.76014298 2.028338 12335650
-0.068012118 0.76014298 2.028338 12008227
-0.048073467 0.76014298 2.028338 11942693
-0.028134815 0.76014298 2.028338 11680548
-0.0081961621 0.76014298 2.028338 11746082
0.012360516 0.80015051 2.1350925 11811621
0 0 0 11483169
0 0 0 11811621
0 0 0 11549732
0 0 0 12008740
0 0 0 11877152
0.1313744 0.76014298 2.028338 12008740
0.13755733 0.69103903 1.8439435 12139813
0.14891453 0.66099387 1.763772 11877154
0.16625248 0.66099387 1.763772 11942177
0.16890322 0.60811436 1.6226703 12140069
0.22006443 0.72394568 1.9317503 12139813
0.25100634 0.76014298 2.028338 12270370
0.30104998 0.84460336 2.2537088 12598821
0.32320404 0.84460336 2.2537088 12270627
0.3453581 0.84460336 2.2537088 12336421
0.36751217 0.84460336 2.2537088 12271141
0.38966623 0.84460336 2.2537088 12074276
0.41182026 0.84460336 2.2537088 12009000
0.43397433 0.84460336 2.2537088 12205352
0.48295945 0.89428586 2.3862798 12271397
0.50641668 0.89428586 2.3862798 12337705
0.56299102 0.95017874 2.5354223 12206117
0.58791435 0.95017874 2.5354223 12074531
0.57678843 0.89428586 2.3862798 12205604
0.51020885 0.76014298 2.028338 12336420
0.5049023 0.72394568 1.9317503 12402726
0.50007826 0.69103903 1.8439435 12599079
0.47502062 0.63345248 1.6902815 12533797
0.49163616 0.63345248 1.6902815 12401443
0.40660137 0.50676197 1.3522252 12402213
0.4198938 0.50676197 1.3522252 12206119
0.43318623 0.50676197 1.3522252 11943717
0.43207613 0.49041483 1.3086051 12205606
0.43103543 0.47508937 1.2677112 12271912
0.44349706 0.47508937 1.2677112 12009766
0.45595872 0.47508937 1.2677112 11812131
0.68133873 0.69103903 1.8439435 12074018
0.66905326 0.66099387 1.763772 12074790
0.68639123 0.66099387 1.763772 12205605
0.70372921 0.66099387 1.763772 12073768
0.72106713 0.66099387 1.763772 12139813
0.77196896 0.69103903 1.8439435 12008998
0.86910456 0.76014298 2.028338 12008996
0.80822104 0.69103903 1.8439435 11943461
0.82634711 0.69103903 1.8439435 11811621
0.77410042 0.63345248 1.6902815 11812133
0.82509488 0.66099387 1.763772 11483939
0.84243286 0.66099387 1.763772 12074021
0.85977083 0.66099387 1.763772 11745829
0.84056258 0.63345248 1.6902815 11680036
0.85717809 0.63345248 1.6902815 11548966
0.91178471 0.66099387 1.763772 11352611
1.0176105 0.72394568 1.9317503 11352355
1.0365998 0.72394568 1.9317503 11090468
1.0555888 0.72394568 1.9317503 11221540
1.074578 0.72394568 1.9317503 11221539
1.0438597 0.69103903 1.8439435 11287332
1.0619857 0.69103903 1.8439435 11352357
1.0801117 0.69103903 1.8439435 11549734
1.0982379 0.69103903 1.8439435 11352868
1.1163639 0.69103903 1.8439435 11287332
1.1344899 0.69103903 1.8439435 11548964
1.1526159 0.69103903 1.8439435 11286563
1.170742 0.69103903 1.8439435 11746345
1.188868 0.69103903 1.8439435 11549477
1.1545161 0.66099387 1.763772 11286308
1.1230268 0.63345248 1.6902815 11286562
1.0940567 0.60811436 1.6226703 10828580
1.1100076 0.60811436 1.6226703 10893859
1.1259586 0.60811436 1.6226703 10959396
1.1419095 0.60811436 1.6226703 10828326
1.2061045 0.63345248 1.6902815 10828326
1.22272 0.63345248 1.6902815 10762533
1.2393357 0.63345248 1.6902815 10762533
1.2057132 0.60811436 1.6226703 10893602
1.2216641 0.60811436 1.6226703 10761249
1.237615 0.60811436 1.6226703 10761503
1.3625716 0.66099387 1.763772 10696740
1.3799095 0.66099387 1.763772 10500901
1.3390288 0.63345248 1.6902815 10500902
1.3556443 0.63345248 1.6902815 10303524
1.3173696 0.60811436 1.6226703 10566697
1.3333205 0.60811436 1.6226703 10238758
1.3492714 0.60811436 1.6226703 10107173
1.3652223 0.60811436 1.6226703 10303781
1.3811733 0.60811436 1.6226703 10303269
1.2044173 0.5242365 1.3988537 10369320
1.2181681 0.5242365 1.3988537 10303780
1.429026 0.60811436 1.6226703 10107430
1.4449769 0.60811436 1.6226703 9845032
1.5217998 0.63345248 1.6902815 9976101
1.5384154 0.63345248 1.6902815 10239019
1.5550309 0.63345248 1.6902815 10042152
1.6399789 0.66099387 1.763772 10436395
1.588262 0.63345248 1.6902815 10370346
1.6746548 0.66099387 1.763772 10238757
1.5566334 0.60811436 1.6226703 10304550
1.5725844 0.60811436 1.6226703 10239019
1.5274378 0.58472538 1.5602599 10173226
1.5427752 0.58472538 1.5602599 9976360
1.2659665 0.47508937 1.2677112 10042407
1.2396878 0.46069267 1.2292956 10042153
1.2517718 0.46069267 1.2292956 9976360
1.1916356 0.43436742 1.1590502 9976873
1.2030292 0.43436742 1.1590502 9911081
1.2144227 0.43436742 1.1590502 9845546
1.2618695 0.44714293 1.1931399 10042407
1.312192 0.46069267 1.2292956 9845798
1.3242761 0.46069267 1.2292956 10042923
1.3363601 0.46069267 1.2292956 10239532
1.308784 0.44714293 1.1931399 10305579
1.2827837 0.43436742 1.1590502 10240556
1.2242217 0.41088808 1.0963988 10437937
1.2349994 0.41088808 1.0963988 10437679
1.245777 0.41088808 1.0963988 10436907
1.2234875 0.40007526 1.0675462 10371372
1.3397514 0.43436742 1.1590502 10371372
0 0 0 10044460
0 0 0 9650219
0 0 0 8338732
0 0 0 6565668
0 0 0 5777953
0 0 0 6107944
0 0 0 6435108
0 0 0 5975589
0 0 0 5451043
0 0 0 5517864
0 0 0 5583400
0 0 0 5780008
0 0 0 7026732
0 0 0 8994858
0 0 0 1838610
0 0 0 1838354
-0.84939408 0.27371287 0.71169752 2102040
-0.84239805 0.27371287 0.71169752 4272952
-0.86578023 0.28366604 0.73757738 5190449
-0.85852987 0.28366604 0.73757738 4860713
-0.85127944 0.28366604 0.73757738 2626067
-0.84402901 0.28366604 0.73757738 1707024
-0.8683551 0.29437041 0.76541048 1575695
-0.86083108 0.29437041 0.76541048 1772817
-0.85330707 0.29437041 0.76541048 1969939
-0.84578305 0.29437041 0.76541048 1904146
-0.83825904 0.29437041 0.76541048 1970454
-0.83073503 0.29437041 0.76541048 2167833
-0.82321101 0.29437041 0.76541048 2431005
-0.815687 0.29437041 0.76541048 2431004
-0.79319704 0.28891912 0.75123626 2102293
-0.78581238 0.28891912 0.75123626 2167826
-0.77842766 0.28891912 0.75123626 3154210
-0.78559089 0.29437041 0.76541048 3811113
-0.79302979 0.30003139 0.78012997 3941671
-0.80076027 0.30591437 0.79542661 4203555
-0.77769232 0.30003139 0.78012997 4006431
-0.77002364 0.30003139 0.78012997 3810594
-0.74797082 0.29437041 0.76541048 3942181
-0.75468624 0.30003139 0.78012997 4270115
-0.76166487 0.30591437 0.79542661 5712417
-0.75384581 0.30591437 0.79542661 7548708
-0.70458078 0.28891912 0.75123626 8730154
-0.69719613 0.28891912 0.75123626 9648426
-0.70282668 0.29437041 0.76541048 10107173
-0.70867395 0.30003139 0.78012997 10500904
-0.70100522 0.30003139 0.78012997 10369316
-0.69333649 0.30003139 0.78012997 10697510
-0.67273062 0.29437041 0.76541048 10697253
-0.67799908 0.30003139 0.78012997 10762531
-0.67033035 0.30003139 0.78012997 10894119
-0.67565501 0.30591437 0.79542661 10894119
-0.69509453 0.31840068 0.82789302 11156518
-0.7012679 0.32503399 0.84514076 10894117
-0.69296008 0.32503399 0.84514076 10762786
-0.73029584 0.34670293 0.90148348 11156259
-0.73783046 0.35458255 0.92197174 10959652
-0.76347065 0.37146744 0.96587515 11090726
-0.77236569 0.38052762 0.98943311 11091239
-0.76263952 0.38052762 0.98943311 11090725
-0.75291336 0.38052762 0.98943311 11156261
-0.82353175 0.42166573 1.0963988 11090979
0 0 0 11222054
0 0 0 11024934
0 0 0 11222312
0 0 0 11550504
0 0 0 11353638
0 0 0 11221540
0 0 0 11353125
0 0 0 11483939
0 0 0 11746343
-1.8916389 1.1144023 2.8976254 11548964
-0.59282207 0.35458255 0.92197174 11222052
-0.55837822 0.33916593 0.88188601 11287331
-0.49581617 0.30591437 0.79542661 11287074
-0.47861254 0.30003139 0.78012997 11680548
-0.47094384 0.30003139 0.78012997 11418403
-0.46327513 0.30003139 0.78012997 11484711
-0.4556064 0.30003139 0.78012997 11353381
-0.43948603 0.29437041 0.76541048 11156260
-0.43196198 0.29437041 0.76541048 11549735
-0.40170023 0.27860057 0.72440636 11418146
-0.38765687 0.27371287 0.71169752 11614755
-0.38066086 0.27371287 0.71169752 11418403
-0.35498157 0.2600272 0.67611259 11418146
-0.34262493 0.25576445 0.66502881 11352353
-0.31540537 0.24002512 0.62410396 11745828
-0.2610724 0.2026186 0.52684098 11680548
-0.24325682 0.19261274 0.50082415 11745828
-0.23833369 0.19261274 0.50082415 11548706
-0.22778623 0.18797147 0.48875612 11943205
-0.22032718 0.18573372 0.48293757 11876900
-0.21557988 0.18573372 0.48293757 11352355
-0.20835221 0.18354861 0.47725597 11090210
-0.20366076 0.18354861 0.47725597 11024162
-0.1989693 0.18354861 0.47725597 11024161
-0.19201882 0.18141434 0.47170648 11417634
-0.18738192 0.18141434 0.47170648 11548703
-0.18274502 0.18141434 0.47170648 11548449
-0.17210448 0.17529924 0.45580626 11745314
-0.16762388 0.17529924 0.45580626 11417377
-0.16314329 0.17529924 0.45580626 11483171
-0.16046567 0.17729127 0.46098587 11614498
-0.15772651 0.17932911 0.46628457 11876900
-0.15314291 0.17932911 0.46628457 11614243
-0.15205483 0.18354861 0.47725597 11548963
-0.15657361 0.19502042 0.50708449 11614755
0 0 0 11417378
0 0 0 11417376
0 0 0 11351585
0 0 0 11417120
-0.1726561 0.25576445 0.66502881 11352097
-0.15833202 0.2437755 0.63385558 11155233
-0.14749205 0.23638836 0.61464781 11351585
-0.14145005 0.23638836 0.61464781 11548964
-0.13963954 0.2437755 0.63385558 11745055
-0.1399698 0.25576445 0.66502881 11614242
0 0 0 11483171
0 0 0 11679521
0 0 0 11679521
0 0 0 11614242
0 0 0 11745828
0 0 0 11680550
0 0 0 11811361
-0.073259905 0.21372099 0.555709 11417374
-0.06598933 0.20802177 0.5408901 11614496
-0.060672358 0.20802177 0.5408901 11352097
-0.056871969 0.21372099 0.555709 11549221
-0.050714605 0.21083286 0.54819942 11548707
-0.04594668 0.21372099 0.555709 11483171
-0.095333375 0.50327849 1.3086051 11811108
-0.15038598 0.91774309 2.3862798 11614242
-0.12692873 0.91774309 2.3862798 11745568
-0.097723082 0.86675739 2.2537088 12270111
-0.068012118 0.78008169 2.028338 12008740
-0.048073467 0.78008169 2.028338 11746341
-0.028134815 0.78008169 2.028338 12204836
-0.0086275386 0.82113856 2.1350925 11942947
0.012360516 0.82113856 2.1350925 12008740
0 0 0 11876639
0 0 0 11811875
0 0 0 11811875
0 0 0 11614242
0 0 0 12139813
0.1313744 0.78008169 2.028338 11745314
0.14410767 0.74293488 1.9317503 11418404
0.14891453 0.67833185 1.763772 11811618
0.17380941 0.7091651 1.8439435 11943461
0.20107524 0.74293488 1.9317503 12270884
0.22006443 0.74293488 1.9317503 12008741
0.25100634 0.78008169 2.028338 12139299
0.31875879 0.91774309 2.3862798 11942948
0.32320404 0.86675739 2.2537088 12008740
0.3453581 0.86675739 2.2537088 12008739
0.36751217 0.86675739 2.2537088 11942693
0.41258773 0.91774309 2.3862798 11745825
0.41182026 0.86675739 2.2537088 11877154
0.43397433 0.86675739 2.2537088 12139813
0.45612839 0.86675739 2.2537088 12336420
0.50641668 0.91774309 2.3862798 12402213
0.52987391 0.91774309 2.3862798 12598309
0.55333114 0.91774309 2.3862798 12205606
0.57678843 0.91774309 2.3862798 12271141
0.60024565 0.91774309 2.3862798 12337190
0.53014749 0.78008169 2.028338 12336678
0.47833574 0.67833185 1.763772 12271653
0.47502062 0.65006799 1.6902815 12468776
0.47197074 0.62406528 1.6226703 12271397
0.39348519 0.50327849 1.3086051 12336420
0.40634885 0.50327849 1.3086051 12205604
0.43318623 0.5200544 1.3522252 12140326
0.43207613 0.50327849 1.3086051 12140068
0.43103543 0.487551 1.2677112 12140069
0.44349706 0.487551 1.2677112 12140324
0.58362716 0.62406528 1.6226703 12140326
0.62456053 0.65006799 1.6902815 12074788
0.64117604 0.65006799 1.6902815 11681059
0.65779161 0.65006799 1.6902815 11550502
0.67440712 0.65006799 1.6902815 12009000
0.72106713 0.67833185 1.763772 11943205
0.77196896 0.7091651 1.8439435 11943461
0.82771862 0.74293488 1.9317503 11942693
0.84670776 0.74293488 1.9317503 11942693
0.82634711 0.7091651 1.8439435 12008484
0.80775696 0.67833185 1.763772 12008740
0.82509488 0.67833185 1.763772 11877669
0.84243286 0.67833185 1.763772 11745315
0.79098916 0.62406528 1.6226703 11810594
0.80694008 0.62406528 1.6226703 11680035
0.85717809 0.65006799 1.6902815 11811621
0.95322943 0.7091651 1.8439435 11680548
0.9713555 0.7091651 1.8439435 11548706
0.98948157 0.7091651 1.8439435 11352613
1.0555888 0.74293488 1.9317503 10894373
1.074578 0.74293488 1.9317503 10959396
1.0438597 0.7091651 1.8439435 11286562
1.0619857 0.7091651 1.8439435 11090212
1.0801117 0.7091651 1.8439435 11024675
1.1505349 0.74293488 1.9317503 11089953
1.1163639 0.7091651 1.8439435 11089953
1.0851643 0.67833185 1.763772 11154978
1.1025022 0.67833185 1.763772 11221285
1.1198401 0.67833185 1.763772 11090213
1.188868 0.7091651 1.8439435 11417635
1.2069941 0.7091651 1.8439435 11286564
1.2834592 0.74293488 1.9317503 11352357
1.1891921 0.67833185 1.763772 11418919
1.1562579 0.65006799 1.6902815 11221541
1.1259586 0.62406528 1.6226703 11155746
1.1419095 0.62406528 1.6226703 10958625
1.1578604 0.62406528 1.6226703 11221541
1.22272 0.65006799 1.6902815 11155748
1.1897622 0.62406528 1.6226703 10892833
1.2559512 0.65006799 1.6902815 10499615
1.2216641 0.62406528 1.6226703 10499874
1.2891822 0.65006799 1.6902815 10499363
1.3625716 0.67833185 1.763772 10237474
1.3799095 0.67833185 1.763772 10237987
1.3390288 0.65006799 1.6902815 10500133
1.3556443 0.65006799 1.6902815 10500646
1.37226 0.65006799 1.6902815 10370345
1.3333205 0.62406528 1.6226703 10238245
1.405491 0.65006799 1.6902815 10303524
1.3652223 0.62406528 1.6226703 10303780
1.4387221 0.65006799 1.6902815 10501161
1.2474322 0.55720115 1.4488127 10565926
1.4130751 0.62406528 1.6226703 10303781
1.429026 0.62406528 1.6226703 10237732
1.5051843 0.65006799 1.6902815 9975335
1.5217998 0.65006799 1.6902815 10172196
1.605303 0.67833185 1.763772 9909796
1.7771782 0.74293488 1.9317503 9844003
1.7961674 0.74293488 1.9317503 9910312
1.8151566 0.74293488 1.9317503 9976106
1.9258533 0.78008169 2.028338 10042153
1.9457918 0.78008169 2.028338 10041894
2.312624 0.91774309 2.3862798 10173480
1.5885353 0.62406528 1.6226703 9778720
1.2535049 0.487551 1.2677112 10041640
1.2276038 0.47277671 1.2292956 10041637
1.2396878 0.47277671 1.2292956 10173738
1.2517718 0.47277671 1.2292956 9844774
1.2638559 0.47277671 1.2292956 10041640
1.2759399 0.47277671 1.2292956 10369575
1.2880239 0.47277671 1.2292956 10041896
1.300108 0.47277671 1.2292956 10042410
1.2735982 0.45887154 1.1931399 10043175
1.2486032 0.44576094 1.1590502 10173993
1.3363601 0.47277671 1.2292956 10370859
1.3484441 0.47277671 1.2292956 10305324
1.2471509 0.4333787 1.1268544 10305066
1.2242217 0.42166573 1.0963988 9977130
1.2349994 0.42166573 1.0963988 10436911
1.2129934 0.41056928 1.0675462 10568497
1.192116 0.40004188 1.0401733 10371372
1.2339815 0.41056928 1.0675462 10502700
0 0 0 10305837
0 0 0 10043180
0 0 0 9780779
0 0 0 8402983
0 0 0 6172196
0 0 0 5910311
0 0 0 6501157
0 0 0 6303778
0 0 0 5712930
0 0 0 5319203
0 0 0 5385252
0 0 0 5516838
0 0 0 5779495
0 0 0 6764074
0 0 0 1641235
0 0 0 1970454
-0.82060111 0.27119333 0.68757218 2166800
-0.82787395 0.27586904 0.69942683 2758677
-0.82099855 0.27586904 0.69942683 2166541
-0.82840604 0.28070888 0.71169752 2101010
-0.82141 0.28070888 0.71169752 2429975
-0.81441402 0.28070888 0.71169752 2759710
-0.80741799 0.28070888 0.71169752 2431002
-0.80042195 0.28070888 0.71169752 1970708
-0.80759424 0.28572151 0.72440636 1642256
-0.80047327 0.28572151 0.72440636 1839637
-0.82273579 0.29630381 0.75123626 1971994
-0.83073503 0.30189443 0.76541048 3220002
-0.80796641 0.29630381 0.75123626 4204580
-0.80058169 0.29630381 0.75123626 4466978
-0.77877522 0.29091644 0.73757738 4269599
-0.78581238 0.29630381 0.75123626 3810072
-0.79311496 0.30189443 0.76541048 3547417
-0.84972084 0.32653889 0.82789302 4204838
0 0 0 4138788
0 0 0 4270629
-0.84249997 0.33334178 0.84514076 5452588
-0.83419222 0.33334178 0.84514076 7419177
-0.74797082 0.30189443 0.76541048 9057574
-0.74044681 0.30189443 0.76541048 9844776
-0.76166487 0.31373343 0.79542661 10041640
-0.75384581 0.31373343 0.79542661 10106915
-0.7316801 0.30770013 0.78012997 10435109
-0.71035069 0.30189443 0.76541048 10435366
-0.70282668 0.30189443 0.76541048 10566437
-0.69530267 0.30189443 0.76541048 10631973
-0.68777865 0.30189443 0.76541048 10697251
-0.69333649 0.30770013 0.78012997 10696996
-0.68566781 0.30770013 0.78012997 10499874
-0.67799908 0.30770013 0.78012997 10762533
-0.67033035 0.30770013 0.78012997 10959398
-0.67565501 0.31373343 0.79542661 10828324
-0.68119264 0.3200081 0.81133515 10959396
-0.68695635 0.32653889 0.82789302 10828066
-0.69296008 0.33334178 0.84514076 10893857
-0.73029584 0.35556456 0.90148348 10959652
-0.73783046 0.36364558 0.92197174 11156261
-0.7457155 0.37210247 0.94341296 11090214
-0.77236569 0.39025378 0.98943311 11090468
-0.76263952 0.39025378 0.98943311 11024673
-0.7717362 0.40001017 1.014169 10894374
-0.89619631 0.47060016 1.1931399 11222054
0 0 0 11222054
0 0 0 10894630
0 0 0 11025957
0 0 0 11221795
0 0 0 11418148
0 0 0 11287334
0 0 0 11352355
0 0 0 11484197
0 0 0 11287333
0 0 0 11287075
-0.59282207 0.36364558 0.92197174 11221537
-0.55837822 0.34783489 0.88188601 11483941
-0.49581617 0.31373343 0.79542661 11418661
-0.47861254 0.30770013 0.78012997 11287332
-0.47094384 0.30770013 0.78012997 11287331
-0.46327513 0.30770013 0.78012997 11353125
-0.4556064 0.30770013 0.78012997 11222566
-0.4479377 0.30770013 0.78012997 11025702
-0.43196198 0.30189443 0.76541048 11484711
-0.39465287 0.28070888 0.71169752 11615012
-0.368274 0.26667342 0.67611259 11418146
-0.36162779 0.26667342 0.67611259 11680548
-0.34916222 0.26230174 0.66502881 11614755
-0.34262493 0.26230174 0.66502881 11680292
-0.32033357 0.25000635 0.63385558 11680548
-0.2610724 0.20779747 0.52684098 11746084
-0.24029027 0.19512689 0.49471655 11680292
-0.23542719 0.19512689 0.49471655 11418146
-0.22778623 0.19277598 0.48875612 11352353
-0.22298174 0.19277598 0.48875612 11614500
-0.21817723 0.19277598 0.48875612 11680550
-0.21083258 0.19048101 0.48293757 11418147
-0.20608528 0.19048101 0.48293757 11417376
-0.20133798 0.19048101 0.48293757 11352355
-0.19659069 0.19048101 0.48293757 11352355
-0.18958642 0.18824007 0.47725597 11221024
-0.18274502 0.18605123 0.47170648 11548450
-0.17406021 0.18182279 0.46098587 11614243
-0.16952871 0.18182279 0.46098587 11220511
-0.16314329 0.17977984 0.45580626 11548705
-0.16046567 0.18182279 0.46098587 11614242
-0.15956055 0.18605123 0.47170648 11745314
-0.15492365 0.18605123 0.47170648 11482658
-0.16155827 0.20000508 0.50708449 11745315
0 0 0 11680034
0 0 0 11614242
0 0 0 11417378
0 0 0 11483171
0 0 0 11286562
-0.16456285 0.25000635 0.63385558 11286047
-0.15833202 0.25000635 0.63385558 11286562
-0.15210119 0.25000635 0.63385558 11417635
-0.14587036 0.25000635 0.63385558 11549218
-0.13963954 0.25000635 0.63385558 11417889
-0.13340871 0.25000635 0.63385558 11482656
0 0 0 11614242
0 0 0 11417376
0 0 0 11482656
0 0 0 11745314
0 0 0 11876900
0 0 0 11548707
-0.077658728 0.21622169 0.54819942 11548448
-0.072269902 0.21622169 0.54819942 11548960
-0.066881076 0.21622169 0.54819942 11483937
-0.062334612 0.21918364 0.555709 11548703
-0.056871969 0.21918364 0.555709 11483425
-0.051409323 0.21918364 0.555709 11286562
-0.048610255 0.23188993 0.587924 11418146
-0.18470842 1.0000254 2.5354223 11483170
-0.15978509 1.0000254 2.5354223 11614239
-0.13486178 1.0000254 2.5354223 11483425
-0.1034715 0.94120032 2.3862798 11483167
-0.080014259 0.94120032 2.3862798 11548706
-0.050603651 0.84212661 2.1350925 11613985
-0.029615594 0.84212661 2.1350925 11745569
-0.0086275386 0.84212661 2.1350925 11680546
0 0 0 12073763
0 0 0 11811618
0 0 0 12008226
0 0 0 11745569
0 0 0 11745569
0 0 0 11548449
0.1313744 0.80002034 2.028338 11417890
0.14410767 0.76192403 1.9317503 11614498
0.16309686 0.76192403 1.9317503 11811878
0.18208605 0.76192403 1.9317503 11877156
0.20107524 0.76192403 1.9317503 11942692
0.25674185 0.88891149 2.2537088 11811619
0.29530156 0.94120032 2.3862798 12008227
0.31875879 0.94120032 2.3862798 11876899
0.32320404 0.88891149 2.2537088 11942947
0.3453581 0.88891149 2.2537088 12008482
0.3891305 0.94120032 2.3862798 12008227
0.41258773 0.94120032 2.3862798 12074533
0.43604496 0.94120032 2.3862798 12401443
0.45950222 0.94120032 2.3862798 12074279
0.48295945 0.94120032 2.3862798 12139811
0.50641668 0.94120032 2.3862798 12205606
0.52987391 0.94120032 2.3862798 12598822
0.55333114 0.94120032 2.3862798 12205603
0.57678843 0.94120032 2.3862798 12271655
0.60024565 0.94120032 2.3862798 12534312
0.46099776 0.69566977 1.763772 12271654
0.47833574 0.69566977 1.763772 12206117
0.47502062 0.66668355 1.6902815 12337190
0.38062155 0.51614213 1.3086051 12206117
0.39348519 0.51614213 1.3086051 12074531
0.40634885 0.51614213 1.3086051 11942949
0.41921249 0.51614213 1.3086051 12008998
0.43207613 0.51614213 1.3086051 12271397
0.44493979 0.51614213 1.3086051 12205606
0.45780343 0.51614213 1.3086051 12336420
0.58362716 0.6400162 1.6226703 12009254
0.62456053 0.66668355 1.6902815 12271397
0.64117604 0.66668355 1.6902815 12205604
0.65779161 0.66668355 1.6902815 12008740
0.70372921 0.69566977 1.763772 12074533
0.7897402 0.76192403 1.9317503 12008740
0.80872941 0.76192403 1.9317503 12140072
0.82771862 0.76192403 1.9317503 11615527
0.80822104 0.72729117 1.8439435 11483941
0.82634711 0.72729117 1.8439435 11548962
0.77410042 0.66668355 1.6902815 11483683
0.79071593 0.66668355 1.6902815 11876641
0.8073315 0.66668355 1.6902815 11614756
0.79098916 0.6400162 1.6226703 11549732
0.84056258 0.66668355 1.6902815 11680035
0.89444673 0.69566977 1.763772 11943461
0.91178471 0.69566977 1.763772 11680035
0.9713555 0.72729117 1.8439435 11483171
0.98948157 0.72729117 1.8439435 11352355
1.0555888 0.76192403 1.9317503 11680548
1.0257336 0.72729117 1.8439435 11352100
1.0438597 0.72729117 1.8439435 11089954
1.0619857 0.72729117 1.8439435 11352356
1.1315457 0.76192403 1.9317503 10828066
1.1505349 0.76192403 1.9317503 10762018
1.1163639 0.72729117 1.8439435 10630947
1.0851643 0.69566977 1.763772 10696740
1.1025022 0.69566977 1.763772 10696740
1.1198401 0.69566977 1.763772 10959140
1.1371782 0.69566977 1.763772 10827812
1.26447 0.76192403 1.9317503 10959652
1.2834592 0.76192403 1.9317503 11090210
1.3024484 0.76192403 1.9317503 10893346
1.20653 0.69566977 1.763772 10958626
1.2238679 0.69566977 1.763772 10958882
1.189489 0.66668355 1.6902815 10959140
1.1578604 0.6400162 1.6226703 11089955
1.1738113 0.6400162 1.6226703 11089953
1.1897622 0.6400162 1.6226703 10892834
1.2057132 0.6400162 1.6226703 10762019
1.2216641 0.6400162 1.6226703 10893091
1.2891822 0.66668355 1.6902815 10630690
1.3625716 0.69566977 1.763772 10433568
1.3799095 0.69566977 1.763772 10434083
1.3972476 0.69566977 1.763772 10237990
1.4145855 0.69566977 1.763772 9975588
1.37226 0.66668355 1.6902815 10238757
1.3888755 0.66668355 1.6902815 10172964
1.405491 0.66668355 1.6902815 10370086
1.4221066 0.66668355 1.6902815 10500645
1.4387221 0.66668355 1.6902815 10238501
1.3971242 0.6400162 1.6226703 10369062
1.4130751 0.6400162 1.6226703 10238759
1.4885688 0.66668355 1.6902815 10304552
1.6420193 0.72729117 1.8439435 10304039
1.6601453 0.72729117 1.8439435 10303782
1.758189 0.76192403 1.9317503 10041894
1.6963974 0.72729117 1.8439435 10041894
1.7961674 0.76192403 1.9317503 10172712
1.8151566 0.76192403 1.9317503 10172454
2.2657096 0.94120032 2.3862798 10040356
2.2891667 0.94120032 2.3862798 9844005
2.312624 0.94120032 2.3862798 9778725
2.3360813 0.94120032 2.3862798 9713444
1.2535049 0.5000127 1.2677112 9647395
1.1914978 0.47060016 1.1931399 9778981
1.2032264 0.47060016 1.1931399 9778468
1.2517718 0.48486075 1.2292956 10173226
1.2638559 0.48486075 1.2292956 9976102
1.2759399 0.48486075 1.2292956 10237992
1.3282747 0.5000127 1.2677112 10041640
1.300108 0.48486075 1.2292956 10042407
1.312192 0.48486075 1.2292956 10041894
1.3242761 0.48486075 1.2292956 10107944
1.3363601 0.48486075 1.2292956 10042407
1.390583 0.5000127 1.2677112 10370859
1.2827837 0.45715445 1.1590502 10304812
1.1324052 0.40001017 1.014169 10502960
1.1145116 0.39025378 0.98943311 10437167
1.1242378 0.39025378 0.98943311 10108459
1.1339639 0.39025378 0.98943311 10043436
1.2339815 0.4210633 1.0675462 10043436
0 0 0 10240045
0 0 0 10108716
0 0 0 9911850
0 0 0 9125416
0 0 0 7419943
0 0 0 6041123
0 0 0 6369573
0 0 0 6435366
0 0 0 6106661
0 0 0 5449762
0 0 0 4990498
0 0 0 4859425
0 0 0 5056287
0 0 0 5385249
0 0 0 2035990
0 0 0 1970967
-0.79369611 0.268839 0.66502881 2300701
-0.80027813 0.27331963 0.67611259 1906714
-0.79363191 0.27331963 0.67611259 1774614
-0.7869857 0.27331963 0.67611259 1839893
-0.78033948 0.27331963 0.67611259 2824730
-0.78680676 0.27795219 0.68757218 3941409
-0.78004789 0.27795219 0.68757218 4861738
-0.78662151 0.28274444 0.69942683 4861738
-0.77974612 0.28274444 0.69942683 4795942
-0.77287072 0.28274444 0.69942683 4532513
-0.77943391 0.28770489 0.71169752 4269601
-0.83073503 0.30941844 0.76541048 3745054
-0.85549384 0.32155252 0.79542661 3613216
-0.86462826 0.32798356 0.81133515 3876131
0 0 0 4663075
-0.86599725 0.33467713 0.82789302 5384478
-0.85785908 0.33467713 0.82789302 6303524
-0.84972084 0.33467713 0.82789302 7222827
0 0 0 8009514
-0.85080779 0.34164953 0.84514076 9188646
-0.84249997 0.34164953 0.84514076 9976101
-0.81716794 0.33467713 0.82789302 9910308
-0.77730304 0.32155252 0.79542661 9778722
-0.75468624 0.31536883 0.78012997 9910052
-0.7470175 0.31536883 0.78012997 10106915
-0.73934877 0.31536883 0.78012997 10172194
-0.7316801 0.31536883 0.78012997 10303523
-0.72401136 0.31536883 0.78012997 10303780
-0.70282668 0.30941844 0.76541048 10500133
-0.69530267 0.30941844 0.76541048 10762535
-0.68777865 0.30941844 0.76541048 10434081
-0.69333649 0.31536883 0.78012997 10565154
-0.68566781 0.31536883 0.78012997 10368546
-0.67799908 0.31536883 0.78012997 10500646
-0.67033035 0.31536883 0.78012997 10696998
-0.66266167 0.31536883 0.78012997 10828581
-0.66783589 0.32155252 0.79542661 10893857
-0.67321718 0.32798356 0.81133515 11025187
-0.67881811 0.33467713 0.82789302 11156260
-0.73029584 0.3644262 0.90148348 11090209
-0.73783046 0.37270859 0.92197174 11156260
-0.7457155 0.38137624 0.94341296 11025188
-0.77236569 0.39997998 0.98943311 11222054
-0.76263952 0.39997998 0.98943311 11222054
-0.90792495 0.48232877 1.1931399 11287334
0 0 0 11221541
0 0 0 11091238
0 0 0 11156261
0 0 0 11222052
0 0 0 11222052
0 0 0 11353125
0 0 0 11418917
0 0 0 11221537
0 0 0 11222052
0 0 0 11419431
-2.0371497 1.2614753 3.1205199 11418661
-1.863155 1.1713699 2.8976254 11221541
-0.5707866 0.3644262 0.90148348 11221284
-0.50573248 0.32798356 0.81133515 11353125
-0.48799708 0.32155252 0.79542661 11287332
-0.47094384 0.31536883 0.78012997 11287332
-0.46327513 0.31536883 0.78012997 11484454
-0.4556064 0.31536883 0.78012997 11353125
-0.4479377 0.31536883 0.78012997 11288362
-0.43196198 0.30941844 0.76541048 11483939
-0.368774 0.268839 0.66502881 11681063
-0.3563942 0.26450288 0.65430254 11811621
-0.35569948 0.268839 0.66502881 11614756
-0.34916222 0.268839 0.66502881 11614757
-0.34262493 0.268839 0.66502881 11417376
-0.31540537 0.25229505 0.62410396 11352355
-0.25128222 0.20498975 0.50708449 11352354
-0.23739521 0.19758047 0.48875612 11483426
-0.23259072 0.19758047 0.48875612 11614757
-0.22778623 0.19758047 0.48875612 11483941
-0.22570102 0.19998999 0.49471655 11614498
-0.22356433 0.20245899 0.50082415 11483169
-0.21864119 0.20245899 0.50082415 11286819
-0.21111175 0.19998999 0.49471655 11352611
-0.20624867 0.19998999 0.49471655 11352355
-0.19659069 0.19522831 0.48293757 11352355
-0.19184339 0.19522831 0.48293757 11155489
-0.18489496 0.19293152 0.47725597 11221282
-0.17606091 0.18849631 0.46628457 11286562
-0.16952871 0.18635429 0.46098587 11286818
-0.16499719 0.18635429 0.46098587 11351842
-0.16046567 0.18635429 0.46098587 11482658
-0.15956055 0.19068812 0.47170648 11416863
-0.15492365 0.19068812 0.47170648 11417378
-0.15956371 0.20245899 0.50082415 11483169
0 0 0 11417633
0 0 0 11417376
0 0 0 11482658
0 0 0 11548449
0 0 0 11351585
-0.16203111 0.25229505 0.62410396 11285792
-0.15833202 0.25623718 0.63385558 11155748
-0.15210119 0.25623718 0.63385558 11286306
-0.15304431 0.268839 0.66502881 11155489
-0.13963954 0.25623718 0.63385558 11220767
-0.13340871 0.25623718 0.63385558 11417377
-0.1252213 0.25229505 0.62410396 11483169
-0.12689526 0.268839 0.66502881 11286562
-0.12236396 0.27331963 0.67611259 11614242
-0.14464718 0.34164953 0.84514076 11942947
0 0 0 11548449
-0.12803164 0.34164953 0.84514076 11614242
-0.077658728 0.22161052 0.54819942 11614499
-0.073259905 0.22464629 0.555709 11680289
-0.067797258 0.22464629 0.555709 11745568
-0.0650061 0.23427399 0.57952511 11942947
-0.060168892 0.23766924 0.587924 11877154
-0.056013145 0.24476387 0.605474 11482656
-0.088265993 0.43155733 1.0675462 11745568
-0.18470842 1.0249487 2.5354223 11548962
-0.15978509 1.0249487 2.5354223 11483171
-0.14385256 1.0932785 2.7044504 11483170
-0.11726769 1.0932785 2.7044504 11417378
-0.090682819 1.0932785 2.7044504 11286817
-0.056557018 0.96465755 2.3862798 12008483
-0.029615594 0.86311466 2.1350925 11811618
-0.0091068465 0.91106552 2.2537088 11811361
0 0 0 11548448
0 0 0 11745568
0 0 0 11811361
0 0 0 11877154
0 0 0 11745568
0 0 0 12074018
0.1313744 0.81995898 2.028338 11613985
0.15131307 0.81995898 2.028338 11745829
0.17125171 0.81995898 2.028338 11614242
0.19119038 0.81995898 2.028338 11810848
0.24838707 0.96465755 2.3862798 11811618
0.28883457 1.0249487 2.5354223 11811877
0.3137579 1.0249487 2.5354223 11877155
0.31875879 0.96465755 2.3862798 11483170
0.32320404 0.91106552 2.2537088 11483169
0.36567327 0.96465755 2.3862798 11615525
0.3891305 0.96465755 2.3862798 12008740
0.41258773 0.96465755 2.3862798 11746082
0.43604496 0.96465755 2.3862798 12074276
0.45950222 0.96465755 2.3862798 12140068
0.48295945 0.96465755 2.3862798 12336166
0.47828245 0.91106552 2.2537088 12337190
0.50043648 0.91106552 2.2537088 12336422
0.52259058 0.91106552 2.2537088 12336679
0.54474461 0.91106552 2.2537088 12270627
0.60024565 0.96465755 2.3862798 12402724
0.46099776 0.71300775 1.763772 12205604
0.45840508 0.68329906 1.6902815 12402985
0.47502062 0.68329906 1.6902815 12337703
0.47197074 0.65596712 1.6226703 12599846
0.42062211 0.56548887 1.3988537 12272167
0.4198938 0.54663926 1.3522252 12009768
0.43318623 0.54663926 1.3522252 12074020
0.44647866 0.54663926 1.3522252 11943207
0.4597711 0.54663926 1.3522252 12008740
0.56767625 0.65596712 1.6226703 12205606
0.58362716 0.65596712 1.6226703 12140582
0.62456053 0.68329906 1.6902815 12139812
0.64117604 0.68329906 1.6902815 12205347
0.68639123 0.71300775 1.763772 12140326
0.73571688 0.74541718 1.8439435 12074275
0.75384295 0.74541718 1.8439435 12204835
0.80872941 0.78091323 1.9317503 12008740
0.79009503 0.74541718 1.8439435 11811361
0.80822104 0.74541718 1.8439435 11746086
0.75748485 0.68329906 1.6902815 11746340
0.77410042 0.68329906 1.6902815 11680548
0.79071593 0.68329906 1.6902815 11811620
0.77503824 0.65596712 1.6226703 11549732
0.89885128 0.74541718 1.8439435 11484710
0.87710875 0.71300775 1.763772 11943207
0.89444673 0.71300775 1.763772 11483939
0.91178471 0.71300775 1.763772 11418148
0.9713555 0.74541718 1.8439435 11549220
0.98948157 0.74541718 1.8439435 11418148
1.0076076 0.74541718 1.8439435 11418148
1.0257336 0.74541718 1.8439435 11483169
1.0438597 0.74541718 1.8439435 11352357
1.0619857 0.74541718 1.8439435 11417380
1.1315457 0.78091323 1.9317503 11287332
1.1505349 0.78091323 1.9317503 11155235
1.0678263 0.71300775 1.763772 11352613
1.0851643 0.71300775 1.763772 11155749
1.0565646 0.68329906 1.6902815 10828066
1.0731802 0.68329906 1.6902815 10696738
1.0897957 0.68329906 1.6902815 10696739
1.26447 0.78091323 1.9317503 10237216
1.2834592 0.78091323 1.9317503 10630944
1.3024484 0.78091323 1.9317503 10434083
1.3214376 0.78091323 1.9317503 10499620
1.3404268 0.78091323 1.9317503 10565153
1.189489 0.68329906 1.6902815 10958882
1.1578604 0.65596712 1.6226703 10695971
1.1738113 0.65596712 1.6226703 10958882
1.1897622 0.65596712 1.6226703 10958882
1.2057132 0.65596712 1.6226703 11286821
1.2216641 0.65596712 1.6226703 11024421
1.2891822 0.68329906 1.6902815 10761760
1.3057978 0.68329906 1.6902815 10565154
1.3799095 0.71300775 1.763772 10434085
1.3972476 0.71300775 1.763772 10499623
1.4145855 0.71300775 1.763772 10369062
1.4319234 0.71300775 1.763772 10172196
1.3888755 0.68329906 1.6902815 10171939
1.405491 0.68329906 1.6902815 10237988
1.3652223 0.65596712 1.6226703 10631204
1.4387221 0.68329906 1.6902815 10237987
1.3971242 0.65596712 1.6226703 10501677
1.4719532 0.68329906 1.6902815 10500134
1.5532892 0.71300775 1.763772 10107173
1.8062212 0.81995898 2.028338 10369061
1.6601453 0.74541718 1.8439435 10369573
1.758189 0.78091323 1.9317503 10107172
1.6963974 0.74541718 1.8439435 10107430
1.9852377 0.86311466 2.1350925 10237222
2.2422523 0.96465755 2.3862798 10107687
2.2657096 0.96465755 2.3862798 10172194
2.2891667 0.96465755 2.3862798 9910056
2.312624 0.96465755 2.3862798 9778726
2.3360813 0.96465755 2.3862798 9778467
1.3831778 0.56548887 1.3988537 9779235
1.2659665 0.51247436 1.2677112 9713700
1.2396878 0.49694479 1.2292956 9779238
1.2517718 0.49694479 1.2292956 9778981
1.2638559 0.49694479 1.2292956 10041124
1.3158131 0.51247436 1.2677112 9844771
1.3282747 0.51247436 1.2677112 9844518
1.3407364 0.51247436 1.2677112 9844518
1.3531981 0.51247436 1.2677112 10041126
1.3656597 0.51247436 1.2677112 9975847
1.3781214 0.51247436 1.2677112 10370861
1.8541107 0.68329906 1.6902815 10107687
1.4483042 0.52900577 1.3086051 10436138
1.1324052 0.40997949 1.014169 10633774
1.0385222 0.37270859 0.92197174 10568752
1.0475852 0.37270859 0.92197174 10503985
1.0566483 0.37270859 0.92197174 10569522
0 0 0 10372655
0 0 0 10175276
0 0 0 10175022
0 0 0 10240302
0 0 0 9781291
0 0 0 8077101
0 0 0 6895145
0 0 0 6434854
0 0 0 6500646
0 0 0 6631976
0 0 0 5712162
0 0 0 5122082
0 0 0 4727838
0 0 0 5122595
0 0 0 5188645
0 0 0 1904145
0 0 0 2035989
-0.79369611 0.27537626 0.66502881 3678241
-0.78715885 0.27537626 0.66502881 4730927
-0.79363191 0.27996585 0.67611259 5058859
-0.7869857 0.27996585 0.67611259 5255463
-0.78033948 0.27996585 0.67611259 5255463
-0.77369326 0.27996585 0.67611259 4993061
-0.78004789 0.28471106 0.68757218 5058596
-0.78662151 0.28961986 0.69942683 5123875
-0.77974612 0.28961986 0.69942683 4992802
-0.78642994 0.29470092 0.71169752 4530714
-0.83825904 0.31694248 0.76541048 4532260
-0.95715123 0.36517286 0.88188601 5058087
0 0 0 6893864
0 0 0 8467234
0 0 0 8926500
-1.1468612 0.45399868 1.0963988 9057313
-0.85785908 0.34281534 0.82789302 9384737
-0.78559089 0.31694248 0.76541048 9384993
-0.77806687 0.31694248 0.76541048 9319713
-0.77054286 0.31694248 0.76541048 9778722
-0.76301885 0.31694248 0.76541048 9778468
-0.77002364 0.32303753 0.78012997 9909795
-0.76235491 0.32303753 0.78012997 9975587
-0.74044681 0.31694248 0.76541048 10041380
-0.7470175 0.32303753 0.78012997 9909538
-0.73934877 0.32303753 0.78012997 10237732
-0.7316801 0.32303753 0.78012997 10237474
-0.72401136 0.32303753 0.78012997 10303266
-0.71634263 0.32303753 0.78012997 10369058
-0.70867395 0.32303753 0.78012997 10631460
-0.68777865 0.31694248 0.76541048 10499876
-0.69333649 0.32303753 0.78012997 10893859
-0.68566781 0.32303753 0.78012997 10566437
-0.67799908 0.32303753 0.78012997 10565412
-0.67033035 0.32303753 0.78012997 10630690
-0.65015858 0.31694248 0.76541048 10893859
-0.65499294 0.32303753 0.78012997 10828066
-0.67321718 0.33595905 0.81133515 10959398
-0.66524172 0.33595905 0.81133515 10827812
-0.73029584 0.3732878 0.90148348 10893860
-0.75498933 0.39065003 0.94341296 10959652
-0.76347065 0.39995122 0.96587515 10696994
-0.81197423 0.43071672 1.0401733 10959909
-0.91965353 0.49405739 1.1931399 10893858
-1.0644637 0.57923973 1.3988537 10828323
-1.0882384 0.59992683 1.4488127 11156259
0 0 0 11156260
0 0 0 11090468
0 0 0 11090727
0 0 0 11222054
0 0 0 11287330
0 0 0 11287845
0 0 0 11418147
0 0 0 11287075
0 0 0 11221798
-2.0371497 1.2921501 3.1205199 11221539
-1.863155 1.1998537 2.8976254 11155746
-0.53511244 0.34995732 0.84514076 11352355
-0.51605356 0.34281534 0.82789302 11615270
-0.50791538 0.34281534 0.82789302 11287332
-0.48978159 0.33595905 0.81133515 11483939
-0.48180613 0.33595905 0.81133515 11418403
-0.4556064 0.32303753 0.78012997 11221539
-0.4479377 0.32303753 0.78012997 11353125
-0.4088212 0.29996341 0.72440636 11287332
-0.368774 0.27537626 0.66502881 11418918
-0.3563942 0.2709347 0.65430254 11548449
-0.34996238 0.2709347 0.65430254 11156516
-0.34916222 0.27537626 0.66502881 11222054
-0.3265644 0.26246798 0.63385558 11615525
-0.31540537 0.25843003 0.62410396 11353123
-0.26450756 0.22102568 0.53377312 11614755
-0.24029027 0.20485307 0.49471655 11614499
-0.23259072 0.20238496 0.48875612 11614499
-0.2305641 0.20485307 0.49471655 11483171
-0.22570102 0.20485307 0.49471655 11614499
-0.22356433 0.20738211 0.50082415 11483171
-0.21864119 0.20738211 0.50082415 11483171
-0.21371807 0.20738211 0.50082415 11548963
-0.20879495 0.20738211 0.50082415 11614242
-0.20138559 0.20485307 0.49471655 11417377
-0.19184339 0.19997561 0.48293757 11614242
-0.18274502 0.19532502 0.47170648 11155233
-0.17606091 0.1930799 0.46628457 11155746
-0.16952871 0.19088581 0.46098587 10958369
-0.16499719 0.19088581 0.46098587 10827296
-0.16046567 0.19088581 0.46098587 11286562
-0.15593417 0.19088581 0.46098587 11351583
-0.15492365 0.19532502 0.47170648 11417378
-0.15956371 0.20738211 0.50082415 11417378
-0.15657361 0.20997441 0.50708449 11548449
-0.15158895 0.20997441 0.50708449 11483424
0 0 0 11417633
0 0 0 11417377
0 0 0 11679521
-0.16203111 0.25843003 0.62410396 11548449
-0.15589614 0.25843003 0.62410396 11351585
-0.15210119 0.26246798 0.63385558 11483427
-0.15304431 0.27537626 0.66502881 11352097
-0.14650705 0.27537626 0.66502881 11416863
-0.13771221 0.2709347 0.65430254 11154976
-0.1252213 0.25843003 0.62410396 11155746
-0.11908633 0.25843003 0.62410396 11285791
-0.11295135 0.25843003 0.62410396 11416864
-0.11571775 0.27996585 0.67611259 11351327
-0.092173129 0.23659088 0.57136279 11482914
-0.085354432 0.23330489 0.56342721 11482913
-0.079815917 0.23330489 0.56342721 11482656
0 0 0 11810849
0 0 0 11877409
0 0 0 11745056
-0.068059899 0.27537626 0.66502881 11745568
-0.098760016 0.44205135 1.0675462 11942693
-0.093169659 0.46660978 1.1268544 11942180
0 0 0 11679521
0 0 0 11548964
0 0 0 11811361
0 0 0 11352353
0 0 0 11221539
0 0 0 11548449
0 0 0 12008740
0 0 0 11876641
0 0 0 11811621
0 0 0 11876900
0 0 0 11614242
0 0 0 11811361
0 0 0 12139813
0.11143576 0.83989763 2.028338 12007973
0.1313744 0.83989763 2.028338 12139043
0.15131307 0.83989763 2.028338 11679777
0.17125171 0.83989763 2.028338 11745828
0.19119038 0.83989763 2.028338 11942436
0.26391128 1.0498719 2.5354223 11942693
0.28883457 1.0498719 2.5354223 12074276
0.3137579 1.0498719 2.5354223 11746338
0.30104998 0.93321955 2.2537088 11811876
0.32320404 0.93321955 2.2537088 11287332
0.3453581 0.93321955 2.2537088 11877925
0.3891305 0.98811477 2.3862798 11614755
0.41258773 0.98811477 2.3862798 11746853
0.43604496 0.98811477 2.3862798 11877669
0.45950222 0.98811477 2.3862798 12008227
0.48295945 0.98811477 2.3862798 12008482
0.50641668 0.98811477 2.3862798 12139813
0.50043648 0.93321955 2.2537088 12074020
0.55333114 0.98811477 2.3862798 12074276
0.54474461 0.93321955 2.2537088 12074533
0.60024565 0.98811477 2.3862798 12401443
0.44178954 0.69991463 1.6902815 12139813
0.45840508 0.69991463 1.6902815 12402213
0.47502062 0.69991463 1.6902815 12140070
0.39330891 0.5599317 1.3522252 12336677
0.39348519 0.5418694 1.3086051 12271397
0.4198938 0.5599317 1.3522252 12533799
0.43318623 0.5599317 1.3522252 12337190
0.43207613 0.5418694 1.3086051 12074793
0.44493979 0.5418694 1.3086051 12139813
0.45780343 0.5418694 1.3086051 12008997
0.58362716 0.67191809 1.6226703 12008997
0.62456053 0.69991463 1.6902815 12074533
0.64117604 0.69991463 1.6902815 12336674
0.71759081 0.76354325 1.8439435 11942693
0.70372921 0.73034573 1.763772 11876899
0.69102269 0.69991463 1.6902815 12074533
0.73840511 0.73034573 1.763772 11811618
0.75574309 0.73034573 1.763772 11876900
0.773081 0.73034573 1.763772 11746086
0.72718549 0.67191809 1.6226703 11746082
0.64063483 0.57923973 1.3988537 11745830
0.65438563 0.57923973 1.3988537 11418917
0.717628 0.62214637 1.5024725 11353125
0.89885128 0.76354325 1.8439435 11352612
0.80694008 0.67191809 1.6226703 11221284
0.822891 0.67191809 1.6226703 11483171
0.87379366 0.69991463 1.6902815 11548964
0.89040917 0.69991463 1.6902815 11286564
0.98948157 0.76354325 1.8439435 10565409
1.0076076 0.76354325 1.8439435 10828064
1.074578 0.79990244 1.9317503 11155746
1.0935673 0.79990244 1.9317503 11221282
1.1125565 0.79990244 1.9317503 11089698
1.1315457 0.79990244 1.9317503 11155748
1.1505349 0.79990244 1.9317503 11352357
1.1163639 0.76354325 1.8439435 11089955
1.0851643 0.73034573 1.763772 11024160
1.0565646 0.69991463 1.6902815 11352356
1.0731802 0.69991463 1.6902815 11024673
1.0897957 0.69991463 1.6902815 11024678
1.1064112 0.69991463 1.6902815 11155748
1.171854 0.73034573 1.763772 10630947
1.2432462 0.76354325 1.8439435 10695969
1.2613722 0.76354325 1.8439435 10499619
1.2238679 0.73034573 1.763772 10433569
1.189489 0.69991463 1.6902815 10565156
1.1133273 0.64607507 1.5602599 10630946
1.1738113 0.67191809 1.6226703 10696993
1.1897622 0.67191809 1.6226703 10696226
1.2057132 0.67191809 1.6226703 10630433
1.2216641 0.67191809 1.6226703 10696226
1.2891822 0.69991463 1.6902815 10499361
1.3057978 0.69991463 1.6902815 10630948
1.3224133 0.69991463 1.6902815 10434085
1.3972476 0.73034573 1.763772 10565671
1.3556443 0.69991463 1.6902815 10697255
1.37226 0.69991463 1.6902815 10369061
1.3888755 0.69991463 1.6902815 10303267
1.405491 0.69991463 1.6902815 10368292
1.3652223 0.67191809 1.6226703 10237476
1.3811733 0.67191809 1.6226703 10237990
1.4553376 0.69991463 1.6902815 10237476
1.4719532 0.69991463 1.6902815 10368292
1.5532892 0.73034573 1.763772 9778468
1.8062212 0.83989763 2.028338 9844518
1.6601453 0.76354325 1.8439435 9975845
1.6782713 0.76354325 1.8439435 9975331
1.6963974 0.76354325 1.8439435 10172453
2.2187951 0.98811477 2.3862798 10107173
2.2422523 0.98811477 2.3862798 10369829
2.2657096 0.98811477 2.3862798 10107173
2.2891667 0.98811477 2.3862798 10237989
2.312624 0.98811477 2.3862798 10369573
2.3360813 0.98811477 2.3862798 9976103
1.6713398 0.69991463 1.6902815 9910310
1.3969285 0.57923973 1.3988537 9713956
1.2032264 0.49405739 1.1931399 9845028
1.2517718 0.50902879 1.2292956 9845028
1.3033514 0.52493596 1.2677112 9778980
1.3158131 0.52493596 1.2677112 9647908
1.3282747 0.52493596 1.2677112 9648422
1.3407364 0.52493596 1.2677112 9582631
1.3531981 0.52493596 1.2677112 9910568
1.3656597 0.52493596 1.2677112 9975847
1.3363601 0.50902879 1.2292956 9910567
1.4354405 0.5418694 1.3086051 9910567
1.2827837 0.47994149 1.1590502 10173993
1.1614412 0.43071672 1.0401733 10173480
1.0385222 0.38177162 0.92197174 10239786
1.0475852 0.38177162 0.92197174 10043690
1.0566483 0.38177162 0.92197174 10241069
0 0 0 10503985
0 0 0 10438194
0 0 0 10438196
0 0 0 10503474
0 0 0 10437165
0 0 0 9781292
0 0 0 8469289
0 0 0 6828325
0 0 0 6172454
0 0 0 6434597
0 0 0 6040868
0 0 0 5910053
0 0 0 4990495
0 0 0 5122338
0 0 0 5451045
0 0 0 1904145
0 0 0 2101525
-0.79369611 0.28191352 0.66502881 3153441
-0.78715885 0.28191352 0.66502881 5059626
-0.79363191 0.28661206 0.67611259 5190438
-0.77408433 0.28191352 0.66502881 5123105
-0.78033948 0.28661206 0.67611259 5057312
-0.77369326 0.28661206 0.67611259 5844772
-0.76704705 0.28661206 0.67611259 6107173
-0.77328902 0.29146993 0.68757218 6435621
-0.77974612 0.29649526 0.69942683 6829351
-0.80047327 0.30708435 0.72440636 7550247
0 0 0 8467493
0 0 0 8992036
0 0 0 9123364
0 0 0 9253920
-1.1576389 0.46477634 1.0963988 9319457
-0.86599725 0.35095358 0.82789302 9056802
-0.79311496 0.3244665 0.76541048 9581604
-0.78559089 0.3244665 0.76541048 9515811
-0.77806687 0.3244665 0.76541048 9581346
-0.77054286 0.3244665 0.76541048 9581345
-0.72214288 0.30708435 0.72440636 9975333
-0.71502191 0.30708435 0.72440636 9909282
-0.74797082 0.3244665 0.76541048 9843746
-0.74044681 0.3244665 0.76541048 9778209
-0.7470175 0.33070627 0.78012997 9844002
-0.73934877 0.33070627 0.78012997 10106403
-0.7316801 0.33070627 0.78012997 10303267
-0.72401136 0.33070627 0.78012997 10696740
-0.71634263 0.33070627 0.78012997 10696738
-0.70867395 0.33070627 0.78012997 10565667
-0.70100522 0.33070627 0.78012997 10565154
-0.68025464 0.3244665 0.76541048 10499617
-0.67273062 0.3244665 0.76541048 10434337
-0.67799908 0.33070627 0.78012997 10303265
-0.67033035 0.33070627 0.78012997 10631460
-0.65015858 0.3244665 0.76541048 10696994
-0.65499294 0.33070627 0.78012997 10762017
-0.66001683 0.33719069 0.79542661 11090725
-0.75595647 0.39083466 0.92197174 10958626
0 0 0 10828580
0 0 0 10893859
-0.86664236 0.46477634 1.0963988 11024931
-0.93138218 0.505786 1.1931399 11090981
-1.042274 0.57322413 1.3522252 11090466
-1.0644637 0.59299052 1.3988537 10893859
-1.0882384 0.6141687 1.4488127 10828324
-1.5827317 0.90509075 2.1350925 11156261
0 0 0 11156261
0 0 0 11025448
0 0 0 11156518
0 0 0 10828323
0 0 0 11025702
0 0 0 11287845
0 0 0 11287332
0 0 0 11090723
-2.0371497 1.3228251 3.1205199 10959650
-1.863155 1.2283374 2.8976254 11090468
-0.53511244 0.3582651 0.84514076 11156259
-0.51605356 0.35095358 0.82789302 11287334
-0.49775705 0.34393451 0.81133515 11352355
-0.48978159 0.34393451 0.81133515 11156261
-0.48180613 0.34393451 0.81133515 11221539
-0.4556064 0.33070627 0.78012997 11287334
-0.41594213 0.30708435 0.72440636 11155748
-0.40164891 0.30169693 0.71169752 11155747
-0.368774 0.28191352 0.66502881 11746343
-0.3563942 0.27736652 0.65430254 11287332
-0.33902606 0.26869881 0.63385558 10959652
-0.33279523 0.26869881 0.63385558 11221540
-0.3265644 0.26869881 0.63385558 11287076
-0.31540537 0.26456499 0.62410396 11614756
-0.26450756 0.22627269 0.53377312 11287330
-0.24629754 0.21495907 0.50708449 11352353
-0.23833369 0.21230523 0.50082415 11417633
-0.2305641 0.20971616 0.49471655 11483940
-0.22570102 0.20971616 0.49471655 11220769
-0.22083794 0.20971616 0.49471655 11483171
-0.21864119 0.21230523 0.50082415 11286562
-0.21371807 0.21230523 0.50082415 11483169
-0.20879495 0.21230523 0.50082415 11286305
-0.20642024 0.21495907 0.50708449 11418148
-0.1965225 0.20971616 0.49471655 11220769
