# .PCD v0.7 - Point Cloud Data file format
VERSION 0.7
FIELDS x y z rgb
SIZE 4 4 4 4
TYPE F F F U
COUNT 1 1 1 1
WIDTH 1280
HEIGHT 1
VIEWPOINT 0 0 0 1 0 0 0
POINTS 1280
DATA ascii
-2.7679265 -0.3938247 4.0566759 13141333
-1.8186992 -0.26254976 2.7044504 13075542
-1.7921144 -0.26254976 2.7044504 13206873
-1.7655295 -0.26254976 2.7044504 13009750
-1.863155 -0.28130332 2.8976254 13075543
-1.9757999 -0.30294207 3.1205199 13207385
-1.8061875 -0.28130332 2.8976254 13075799
-1.7777036 -0.28130332 2.8976254 13469274
-1.7492199 -0.28130332 2.8976254 13535321
-1.8531005 -0.30294207 3.1205199 13338715
-1.8224256 -0.30294207 3.1205199 13798489
-1.7917508 -0.30294207 3.1205199 13798232
-1.761076 -0.30294207 3.1205199 13995100
0 0 0 14060889
0 0 0 13865311
0 0 0 14258782
0 0 0 14258270
0 0 0 14126938
0 0 0 14324316
0 0 0 14324060
0 0 0 14324830
-0.25401354 -0.051819038 0.53377312 14324574
-0.24876653 -0.051819038 0.53377312 14324830
-0.25010112 -0.053219549 0.54819942 14652254
-0.24471229 -0.053219549 0.54819942 14193244
-0.22999917 -0.05114606 0.52684098 14521182
-0.20856825 -0.047448758 0.48875612 14783581
-0.20133798 -0.046883889 0.48293757 14782556
-0.19659069 -0.046883889 0.48293757 14258267
-0.19184339 -0.046883889 0.48293757 14520923
-0.20679042 -0.051819038 0.53377312 13931097
0 0 0 13929557
0 0 0 11234894
0 0 0 6112830
0 0 0 6046522
-0.20480905 -0.058779802 0.605474 5980992
-0.19309324 -0.057076037 0.587924 5785153
-0.18731391 -0.057076037 0.587924 5915453
-0.1815346 -0.057076037 0.587924 5783862
-0.186571 -0.060588412 0.62410396 2630179
-0.18043603 -0.060588412 0.62410396 4335141
-0.17430106 -0.060588412 0.62410396 3612703
-0.16816609 -0.060588412 0.62410396 2626584
-0.16203111 -0.060588412 0.62410396 2232341
-0.15589614 -0.060588412 0.62410396 2493972
-0.14976117 -0.060588412 0.62410396 2559505
-0.14587036 -0.061535105 0.63385558 2756369
-0.13749124 -0.060588412 0.62410396 2953491
-0.13340871 -0.061535105 0.63385558 3084562
-0.12919657 -0.062511854 0.64391679 3150355
-0.12484857 -0.063520111 0.65430254 3347219
-0.12035801 -0.064561419 0.66502881 3544341
-0.11382074 -0.064561419 0.66502881 3676181
-0.10907153 -0.065637439 0.67611259 3807254
-0.10595722 -0.067900807 0.69942683 4135701
-0.099081822 -0.067900807 0.69942683 4267033
-0.093824089 -0.06909205 0.71169752 4333080
-0.08533103 -0.067900807 0.69942683 4463639
-0.078455634 -0.067900807 0.69942683 4463637
-0.071580231 -0.067900807 0.69942683 4398359
-0.064704835 -0.067900807 0.69942683 4398359
-0.058843996 -0.06909205 0.71169752 4398105
0 0 0 4267546
0 0 0 4070168
0 0 0 1836809
0 0 0 852489
0 0 0 655880
0 0 0 984075
0 0 0 1378573
0 0 0 1509645
0 0 0 2165771
0 0 0 4859160
0 0 0 5517088
0 0 0 4793627
0 0 0 5581598
0 0 0 4990746
0 0 0 5647391
0 0 0 5843741
0.85625857 -0.98456168 10.141689 1509641
0.76476151 -0.78764939 8.1133518 1509902
0.8445161 -0.78764939 8.1133518 1641488
0.77022552 -0.65637445 6.761126 1509902
0.71716088 -0.56260663 5.7952509 1444110
0.67736244 -0.49228084 5.0708447 9067332
0.64640808 -0.437583 4.5074177 9921092
0.69071621 -0.437583 4.5074177 10512968
0.73502433 -0.437583 4.5074177 11038792
0.77933246 -0.437583 4.5074177 12090449
0.92659557 -0.49228084 5.0708447 12944214
0.97644222 -0.49228084 5.0708447 13076313
0.82103109 -0.3938247 4.0566759 13469528
0.86090839 -0.3938247 4.0566759 13470555
0.90078574 -0.3938247 4.0566759 13667677
1.0451812 -0.437583 4.5074177 13668447
1.0894892 -0.437583 4.5074177 13865054
0.78493661 -0.30294207 3.1205199 13930847
0.81561148 -0.30294207 3.1205199 14127198
0.73344809 -0.26254976 2.7044504 14061920
1.1400496 -0.3938247 4.0566759 14061662
1.4749085 -0.49228084 5.0708447 14062434
1.5247551 -0.49228084 5.0708447 14192735
1.5746018 -0.49228084 5.0708447 14258528
1.4439542 -0.437583 4.5074177 14455650
1.3394361 -0.3938247 4.0566759 14259042
1.0610102 -0.30294207 3.1205199 14389344
0.88699412 -0.24614042 2.5354223 14390625
0.85827523 -0.23166157 2.3862798 14062431
0.88173252 -0.23166157 2.3862798 14456419
0.90518975 -0.23166157 2.3862798 14390626
1.1276428 -0.28130332 2.8976254 14389856
1.1561265 -0.28130332 2.8976254 13996382
1.1846102 -0.28130332 2.8976254 14126684
1.1322211 -0.26254976 2.7044504 14127456
0.96567178 -0.2187915 2.2537088 13798491
0.98782581 -0.2187915 2.2537088 13799261
1.0099798 -0.2187915 2.2537088 13799262
0.97781104 -0.20727615 2.1350925 13930079
0.99879909 -0.20727615 2.1350925 13995868
1.0197872 -0.20727615 2.1350925 13601885
1.0407752 -0.20727615 2.1350925 6958622
1.0617633 -0.20727615 2.1350925 1247247
1.0286138 -0.19691235 2.028338 1312783
1.0485525 -0.19691235 2.028338 984845
1.0684911 -0.19691235 2.028338 1181454
1.0884298 -0.19691235 2.028338 1115918
1.1083684 -0.19691235 2.028338 1246990
1.1283071 -0.19691235 2.028338 1050381
1.1482457 -0.19691235 2.028338 1181454
1.2296677 -0.20727615 2.1350925 1049868
1.188123 -0.19691235 2.028338 918796
1.2716439 -0.20727615 2.1350925 919054
1.2926319 -0.20727615 2.1350925 1050125
1.247939 -0.19691235 2.028338 853261
1.2678777 -0.19691235 2.028338 919054
1.2878163 -0.19691235 2.028338 984077
1.307755 -0.19691235 2.028338 919054
1.3276936 -0.19691235 2.028338 919054
1.3476323 -0.19691235 2.028338 1049868
1.3024484 -0.18753555 1.9317503 984075
1.3214376 -0.18753555 1.9317503 853003
1.4074482 -0.19691235 2.028338 853259
1.4273869 -0.19691235 2.028338 787722
1.3784052 -0.18753555 1.9317503 853004
1.3973943 -0.18753555 1.9317503 918283
1.4163835 -0.18753555 1.9317503 721673
1.4353727 -0.18753555 1.9317503 918282
1.4543619 -0.18753555 1.9317503 787466
1.4733511 -0.18753555 1.9317503 918282
1.4923403 -0.18753555 1.9317503 1115145
1.5113295 -0.18753555 1.9317503 853259
1.5303187 -0.18753555 1.9317503 2627092
1.4788848 -0.17901121 1.8439435 10513480
1.568297 -0.18753555 1.9317503 11104333
1.5872862 -0.18753555 1.9317503 11104335
1.6865894 -0.19691235 2.028338 10841677
1.7065281 -0.19691235 2.028338 10777171
1.7264667 -0.19691235 2.028338 10711375
1.8383213 -0.20727615 2.1350925 11104336
1.8593093 -0.20727615 2.1350925 10841679
1.8802974 -0.20727615 2.1350925 10907729
1.9012855 -0.20727615 2.1350925 10842705
1.9222735 -0.20727615 2.1350925 10776401
1.9432616 -0.20727615 2.1350925 10776401
1.9642496 -0.20727615 2.1350925 10710606
2.0955288 -0.2187915 2.2537088 10907472
2.2422523 -0.23166157 2.3862798 10907987
2.2657096 -0.23166157 2.3862798 10710095
2.2891667 -0.23166157 2.3862798 10579537
2.312624 -0.23166157 2.3862798 10514515
2.3360813 -0.23166157 2.3862798 10317647
2.3595386 -0.23166157 2.3862798 10448978
2.3829956 -0.23166157 2.3862798 10644817
2.4064529 -0.23166157 2.3862798 10644815
2.2949152 -0.2187915 2.2537088 10514260
2.3170693 -0.2187915 2.2537088 10317137
2.2161064 -0.20727615 2.1350925 10579538
2.3613775 -0.2187915 2.2537088 10644561
2.3835316 -0.2187915 2.2537088 10381901
3.093024 -0.28130332 2.8976254 10710605
3.361624 -0.30294207 3.1205199 10578252
3.6749904 -0.32818723 3.380563 10250316
3.7082214 -0.32818723 3.380563 10512973
3.7414525 -0.32818723 3.380563 10381388
3.7746835 -0.32818723 3.380563 10644045
3.8079147 -0.32818723 3.380563 10841680
3.5456731 -0.30294207 3.1205199 10579792
2.5829182 -0.2187915 2.2537088 10579536
2.605072 -0.2187915 2.2537088 10906447
2.488951 -0.20727615 2.1350925 10447952
2.3844423 -0.19691235 2.028338 10316368
2.2898865 -0.18753555 1.9317503 8542017
2.3088756 -0.18753555 1.9317503 8344890
2.3278649 -0.18753555 1.9317503 10382156
2.7379966 -0.2187915 2.2537088 10776144
0 0 0 10776145
0 0 0 10907476
0 0 0 10972754
0 0 0 10710868
0 0 0 10644816
0 0 0 10776144
0 0 0 10907474
0 0 0 10775888
0 0 0 7621171
0 0 0 7949366
-2.8479683 -0.20820433 2.3862798 7883570
-3.4297633 -0.25281954 2.8976254 7753011
-3.6629167 -0.27226722 3.1205199 7555634
-3.9349284 -0.29495612 3.380563 7292205
-3.9016974 -0.29495612 3.380563 6963755
-3.8684664 -0.29495612 3.380563 7029548
-3.8352351 -0.29495612 3.380563 7488814
-4.5624051 -0.35394737 4.0566759 7817265
-4.5225282 -0.35394737 4.0566759 7686447
-4.4826508 -0.35394737 4.0566759 7818292
-4.0388846 -0.32177034 3.687887 8080951
-4.0026326 -0.32177034 3.687887 8607036
-4.3630185 -0.35394737 4.0566759 8935482
-4.3231416 -0.35394737 4.0566759 8542774
-4.7591825 -0.39327487 4.5074177 4992795
-4.7148743 -0.39327487 4.5074177 2626064
-4.6705661 -0.39327487 4.5074177 7229255
-3.78512 -0.32177034 3.687887 10579539
-3.7488678 -0.32177034 3.687887 10578760
-3.4032311 -0.29495612 3.380563 10578761
-3.6763637 -0.32177034 3.687887 10710347
-3.6401114 -0.32177034 3.687887 10907212
-3.9642456 -0.35394737 4.0566759 10841676
-4.9054604 -0.44243422 5.0708447 10907981
-4.8556137 -0.44243422 5.0708447 10776138
-4.2717929 -0.39327487 4.5074177 11104333
-4.2274847 -0.39327487 4.5074177 11235662
-3.1373823 -0.29495612 3.380563 11367248
-7.4499636 -0.70789474 8.1133518 11432271
-4.6063805 -0.44243422 5.0708447 11301712
-4.5565338 -0.44243422 5.0708447 11433293
-4.5066872 -0.44243422 5.0708447 11236173
-4.4568405 -0.44243422 5.0708447 11433549
-3.9173281 -0.39327487 4.5074177 11629390
-3.1688342 -0.32177034 3.687887 11498574
-2.8715336 -0.29495612 3.380563 11499087
-2.8383026 -0.29495612 3.380563 11761746
-2.8050716 -0.29495612 3.380563 11564623
-2.5586221 -0.27226722 3.1205199 11761744
-2.5279472 -0.27226722 3.1205199 11892557
-2.4972725 -0.27226722 3.1205199 11893074
-2.4665976 -0.27226722 3.1205199 11958095
-2.638916 -0.29495612 3.380563 12287059
-2.605685 -0.29495612 3.380563 12089679
-2.572454 -0.29495612 3.380563 12418644
-2.3438981 -0.27226722 3.1205199 12418130
-2.3132234 -0.27226722 3.1205199 12287060
-2.4727607 -0.29495612 3.380563 12550230
-2.9274356 -0.35394737 4.0566759 12747096
-2.8875585 -0.35394737 4.0566759 12550484
-3.1640902 -0.39327487 4.5074177 12483924
-3.119782 -0.39327487 4.5074177 12943958
-3.0754738 -0.39327487 4.5074177 12747093
-2.7280493 -0.35394737 4.0566759 12550741
-2.2401431 -0.29495612 3.380563 13075543
-2.0371497 -0.27226722 3.1205199 13207126
-2.0064747 -0.27226722 3.1205199 13075797
-1.9757999 -0.27226722 3.1205199 13076567
-1.9451251 -0.27226722 3.1205199 12879190
-1.7777036 -0.25281954 2.8976254 13142360
-1.7492199 -0.25281954 2.8976254 13470298
-1.7207361 -0.25281954 2.8976254 13338969
-1.9742943 -0.29495612 3.380563 13666390
-1.9410633 -0.29495612 3.380563 13470296
-2.2893987 -0.35394737 4.0566759 13536089
0 0 0 13798489
0 0 0 13995098
0 0 0 14127198
0 0 0 14126683
0 0 0 13864025
0 0 0 14061404
0 0 0 14061405
-0.25926057 -0.046572022 0.53377312 14127710
-0.25401354 -0.046572022 0.53377312 14127195
-0.24876653 -0.046572022 0.53377312 14389854
-0.25010112 -0.047830723 0.54819942 14193503
-0.24471229 -0.047830723 0.54819942 14192732
-0.22417642 -0.044803463 0.51350325 14390626
-0.20856825 -0.042644262 0.48875612 14521181
-0.20133798 -0.042136591 0.48293757 14192731
-0.19659069 -0.042136591 0.48293757 14192988
-0.19415477 -0.042644262 0.48875612 14390110
-0.20679042 -0.046572022 0.53377312 14258524
0 0 0 13601364
0 0 0 11038031
0 0 0 6243899
0 0 0 5981242
0 0 0 5915453
-0.22205722 -0.058991224 0.67611259 5259063
-0.20515335 -0.056182124 0.64391679 2627093
-0.19882362 -0.056182124 0.64391679 1575439
-0.19249389 -0.056182124 0.64391679 1641231
-0.18616416 -0.056182124 0.64391679 4531750
-0.18273498 -0.057088286 0.65430254 4269089
-0.17630315 -0.057088286 0.65430254 3744032
-0.16987133 -0.057088286 0.65430254 3217691
-0.16084523 -0.056182124 0.64391679 2887956
-0.15210119 -0.055304278 0.63385558 2888211
-0.14818577 -0.056182124 0.64391679 2821648
-0.13963954 -0.055304278 0.63385558 2888466
-0.1355263 -0.056182124 0.64391679 3347221
-0.13128039 -0.057088286 0.65430254 3216659
-0.12484857 -0.057088286 0.65430254 3347733
-0.12035801 -0.058024161 0.66502881 3478548
-0.11382074 -0.058024161 0.66502881 3740691
-0.10728347 -0.058024161 0.66502881 3741974
-0.10242531 -0.058991224 0.67611259 4003861
-0.099081822 -0.061025407 0.69942683 4135701
-0.092206426 -0.061025407 0.69942683 4070421
-0.08533103 -0.061025407 0.69942683 4266519
-0.078455634 -0.061025407 0.69942683 4266519
-0.071580231 -0.061025407 0.69942683 4267033
-0.063608147 -0.05999108 0.68757218 4464152
-0.05782944 -0.061025407 0.69942683 4464150
-0.051847976 -0.06209603 0.71169752 4595736
-0.044851959 -0.06209603 0.71169752 4135963
0 0 0 1048581
0 0 0 721672
0 0 0 918282
0 0 0 786953
0 0 0 983560
0 0 0 918282
0 0 0 1246473
0 0 0 1444109
0 0 0 2035215
0 0 0 2888723
0 0 0 4530455
0 0 0 4662554
0 0 0 5516577
0 0 0 5778207
0 0 0 1509895
0.95595181 -0.88486844 10.141689 1575695
0.8445161 -0.70789474 8.1133518 1379086
0.92427069 -0.70789474 8.1133518 1509903
0.83668768 -0.58991224 6.761126 1378317
0.67736244 -0.44243422 5.0708447 8345407
0.64640808 -0.39327487 4.5074177 9461827
0.69071621 -0.39327487 4.5074177 9857094
0.73502433 -0.39327487 4.5074177 10906954
0.70139921 -0.35394737 4.0566759 12023633
0.82364053 -0.39327487 4.5074177 12813142
0.71013975 -0.32177034 3.687887 13009750
0.63156235 -0.27226722 3.1205199 13076569
0.61493456 -0.25281954 2.8976254 13601625
0.64341831 -0.25281954 2.8976254 13929566
0.62710863 -0.23596489 2.7044504 13995100
0.6536935 -0.23596489 2.7044504 13864798
0.68027836 -0.23596489 2.7044504 13930590
0.70686322 -0.23596489 2.7044504 13930848
0.73344809 -0.23596489 2.7044504 14192479
0.76003295 -0.23596489 2.7044504 14258271
0.84280485 -0.25281954 2.8976254 14127455
1.355338 -0.39327487 4.5074177 14192478
1.2596815 -0.35394737 4.0566759 14324065
0.99966061 -0.27226722 3.1205199 14324063
1.0303354 -0.27226722 3.1205199 14324319
0.81136078 -0.20820433 2.3862798 14258781
0.88699412 -0.22121711 2.5354223 14192478
0.91191745 -0.22121711 2.5354223 14259298
0.93684077 -0.22121711 2.5354223 13865056
0.90518975 -0.20820433 2.3862798 13931104
0.87705553 -0.19663744 2.2537088 13733727
0.95210421 -0.20820433 2.3862798 13864798
1.1056362 -0.23596489 2.7044504 13799263
1.1322211 -0.23596489 2.7044504 14126686
0.96567178 -0.19663744 2.2537088 13930079
0.93583494 -0.18628809 2.1350925 13601885
0.95682299 -0.18628809 2.1350925 13667677
0.92892057 -0.17697369 2.028338 13601884
0.94885921 -0.17697369 2.028338 13731676
1.0197872 -0.18628809 2.1350925 13207899
1.0407752 -0.18628809 2.1350925 7287328
1.0617633 -0.18628809 2.1350925 1181454
1.0827513 -0.18628809 2.1350925 1181710
1.0485525 -0.17697369 2.028338 1050640
1.0684911 -0.17697369 2.028338 1181454
1.0884298 -0.17697369 2.028338 1115917
1.1083684 -0.17697369 2.028338 1115661
1.1283071 -0.17697369 2.028338 1050383
1.1482457 -0.17697369 2.028338 984075
1.1681844 -0.17697369 2.028338 918796
1.2506558 -0.18628809 2.1350925 984075
1.2716439 -0.18628809 2.1350925 984075
1.2926319 -0.18628809 2.1350925 722188
1.247939 -0.17697369 2.028338 918284
1.2678777 -0.17697369 2.028338 1115661
1.2878163 -0.17697369 2.028338 984075
1.307755 -0.17697369 2.028338 787468
1.3276936 -0.17697369 2.028338 722188
1.2834592 -0.16854636 1.9317503 853259
1.3024484 -0.16854636 1.9317503 787466
1.3214376 -0.16854636 1.9317503 787467
1.3404268 -0.16854636 1.9317503 918282
1.359416 -0.16854636 1.9317503 787466
1.3784052 -0.16854636 1.9317503 721675
1.3973943 -0.16854636 1.9317503 656395
1.4163835 -0.16854636 1.9317503 852489
1.4353727 -0.16854636 1.9317503 852490
1.4543619 -0.16854636 1.9317503 852490
1.4733511 -0.16854636 1.9317503 918538
1.4923403 -0.16854636 1.9317503 918282
1.5113295 -0.16854636 1.9317503 983562
1.5303187 -0.16854636 1.9317503 2692624
1.4788848 -0.16088517 1.8439435 10578757
1.4970108 -0.16088517 1.8439435 10907726
1.515137 -0.16088517 1.8439435 10907472
1.533263 -0.16088517 1.8439435 10907728
1.551389 -0.16088517 1.8439435 10842190
1.5695151 -0.16088517 1.8439435 10907985
1.7464054 -0.17697369 2.028338 10973778
1.766344 -0.17697369 2.028338 10907727
1.7012215 -0.16854636 1.9317503 10644560
1.7202107 -0.16854636 1.9317503 10383185
1.82616 -0.17697369 2.028338 10579277
1.8460985 -0.17697369 2.028338 10645071
1.9642496 -0.18628809 2.1350925 10448464
2.0955288 -0.19663744 2.2537088 10645073
2.1176829 -0.19663744 2.2537088 10776400
2.1398368 -0.19663744 2.2537088 10645327
2.0482018 -0.18628809 2.1350925 10710865
2.184145 -0.19663744 2.2537088 10645587
2.2062991 -0.19663744 2.2537088 10448976
2.2284532 -0.19663744 2.2537088 10383440
2.3829956 -0.20820433 2.3862798 10317649
2.2727613 -0.19663744 2.2537088 10185550
2.2949152 -0.19663744 2.2537088 10512975
2.3170693 -0.19663744 2.2537088 10382159
2.2161064 -0.18628809 2.1350925 10251343
2.2370944 -0.18628809 2.1350925 10382159
2.3835316 -0.19663744 2.2537088 10447436
2.5471964 -0.20820433 2.3862798 10120524
3.1215079 -0.25281954 2.8976254 10251595
3.3922989 -0.27226722 3.1205199 10513742
3.4229739 -0.27226722 3.1205199 10381387
3.4536486 -0.27226722 3.1205199 10381389
3.4843235 -0.27226722 3.1205199 10643789
3.5149984 -0.27226722 3.1205199 10512972
2.5607641 -0.19663744 2.2537088 10710608
2.446975 -0.18628809 2.1350925 10644044
2.467963 -0.18628809 2.1350925 10645585
2.3645036 -0.17697369 2.028338 10514769
2.2708972 -0.16854636 1.9317503 10381643
2.1858006 -0.16088517 1.8439435 9134154
2.2039268 -0.16088517 1.8439435 8411199
2.3278649 -0.16854636 1.9317503 10316363
0 0 0 10710607
0 0 0 10710608
0 0 0 10907474
0 0 0 10841681
0 0 0 10710606
0 0 0 10710608
0 0 0 10644815
0 0 0 10644815
0 0 0 10512716
0 0 0 6702128
0 0 0 7292466
-3.4582472 -0.22433576 2.8976254 6898476
-3.6935916 -0.24159236 3.1205199 7030061
-3.9681594 -0.26172504 3.380563 6701355
-3.9349284 -0.26172504 3.380563 4465938
-4.2563972 -0.28551823 3.687887 2230791
-4.2201452 -0.28551823 3.687887 1378830
-4.1838932 -0.28551823 3.687887 1444364
-3.8020041 -0.26172504 3.380563 1509386
-4.1113887 -0.28551823 3.687887 1509386
-4.0751367 -0.28551823 3.687887 1771530
-4.0388846 -0.28551823 3.687887 2558731
-4.0026326 -0.28551823 3.687887 5912105
-4.3630185 -0.31407008 4.0566759 7950133
-4.8034906 -0.34896675 4.5074177 5845530
-4.7591825 -0.34896675 4.5074177 2493192
-4.7148743 -0.34896675 4.5074177 1707026
-4.6705661 -0.34896675 4.5074177 2495255
-4.1636324 -0.31407008 4.0566759 7688516
-3.4364622 -0.26172504 3.380563 10250054
-3.4032311 -0.26172504 3.380563 10316102
-3.6763637 -0.28551823 3.687887 10447688
-3.6401114 -0.28551823 3.687887 10381895
-3.6038594 -0.28551823 3.687887 10644810
-3.9243684 -0.31407008 4.0566759 10644552
-4.3161011 -0.34896675 4.5074177 10776396
-4.2717929 -0.34896675 4.5074177 10841418
-4.2274847 -0.34896675 4.5074177 10973516
-4.7060738 -0.39258757 5.0708447 11038797
-7.4499636 -0.62814015 8.1133518 11169867
-4.0945606 -0.34896675 4.5074177 11169868
-4.0502524 -0.34896675 4.5074177 11301195
-4.0059443 -0.34896675 4.5074177 11235658
-4.4568405 -0.39258757 5.0708447 11301451
-3.9173281 -0.34896675 4.5074177 11169868
-3.8730199 -0.34896675 4.5074177 11235919
-2.8715336 -0.26172504 3.380563 11499086
-2.8383026 -0.26172504 3.380563 11433293
-2.8050716 -0.26172504 3.380563 11695695
-2.5586221 -0.24159236 3.1205199 11826766
-2.5279472 -0.24159236 3.1205199 11499086
-2.4972725 -0.24159236 3.1205199 11892300
-2.4665976 -0.24159236 3.1205199 11761488
-2.638916 -0.26172504 3.380563 11958866
-2.605685 -0.26172504 3.380563 12154961
-2.374573 -0.24159236 3.1205199 12352338
-2.3438981 -0.24159236 3.1205199 12418904
-2.3132234 -0.24159236 3.1205199 12221781
-2.4727607 -0.26172504 3.380563 12484951
-2.9274356 -0.31407008 4.0566759 12222034
-2.8875585 -0.31407008 4.0566759 12352851
-3.1640902 -0.34896675 4.5074177 12418385
-3.119782 -0.34896675 4.5074177 12681301
-3.0754738 -0.34896675 4.5074177 12812119
-3.0311658 -0.34896675 4.5074177 12747350
-2.6881719 -0.31407008 4.0566759 12812371
-2.206912 -0.26172504 3.380563 13009750
-2.1736808 -0.26172504 3.380563 12944985
-1.9757999 -0.24159236 3.1205199 13273174
-1.9451251 -0.24159236 3.1205199 13010007
-1.9144502 -0.24159236 3.1205199 13076567
-1.7492199 -0.22433576 2.8976254 13075797
-1.7207361 -0.22433576 2.8976254 13142360
-1.8224256 -0.24159236 3.1205199 13601367
-1.7917508 -0.24159236 3.1205199 13798491
-1.9078321 -0.26172504 3.380563 13797719
0 0 0 13601112
0 0 0 13601882
0 0 0 13667162
0 0 0 13732958
0 0 0 13995355
0 0 0 14060891
0 0 0 14192477
-0.25926057 -0.041325007 0.53377312 14323292
-0.25401354 -0.041325007 0.53377312 14127195
-0.25548995 -0.042441901 0.54819942 14192475
-0.25352716 -0.043023296 0.555709 14454361
-0.24806452 -0.043023296 0.555709 14193243
-0.22999917 -0.040788319 0.52684098 14257752
-0.22193801 -0.040265393 0.52008665 14061915
-0.20879495 -0.038774081 0.50082415 14258524
-0.20903315 -0.039755702 0.51350325 14258266
-0.21203743 -0.041325007 0.53377312 14126936
0 0 0 13930329
0 0 0 13470294
0 0 0 11497811
0 0 0 5914936
0 0 0 4073506
0 0 0 1903631
-0.22971436 -0.054150008 0.69942683 1707282
-0.21541101 -0.052345008 0.67611259 1509902
-0.20876479 -0.052345008 0.67611259 1378317
-0.20211858 -0.052345008 0.67611259 1509903
-0.19547234 -0.052345008 0.67611259 3940901
-0.18573064 -0.051486894 0.66502881 4137505
-0.17919336 -0.051486894 0.66502881 3874847
-0.1726561 -0.051486894 0.66502881 3152153
-0.16343951 -0.05065646 0.65430254 2625553
-0.1545155 -0.04985239 0.64391679 2559504
-0.14818577 -0.04985239 0.64391679 2757139
-0.14185603 -0.04985239 0.64391679 2888468
-0.13771221 -0.05065646 0.65430254 3216407
-0.13128039 -0.05065646 0.65430254 3281939
-0.12484857 -0.05065646 0.65430254 3216148
-0.11841674 -0.05065646 0.65430254 3544341
-0.11382074 -0.051486894 0.66502881 3544341
-0.10728347 -0.051486894 0.66502881 3544595
-0.10242531 -0.052345008 0.67611259 3610134
-0.099081822 -0.054150008 0.69942683 3872789
-0.092206426 -0.054150008 0.69942683 3872788
-0.08533103 -0.054150008 0.69942683 4267035
-0.078455634 -0.054150008 0.69942683 4135960
-0.071580231 -0.054150008 0.69942683 4398359
-0.064704835 -0.054150008 0.69942683 4463898
-0.05782944 -0.054150008 0.69942683 4464666
-0.050954044 -0.054150008 0.69942683 4792859
-0.044078644 -0.054150008 0.69942683 3544082
-0.037203249 -0.054150008 0.69942683 786953
-0.030859921 -0.055100013 0.71169752 655367
0 0 0 721160
0 0 0 917769
0 0 0 656138
0 0 0 852489
0 0 0 918282
0 0 0 852489
0 0 0 852489
0 0 0 1312266
0 0 0 1312524
0 0 0 1838608
0 0 0 3151120
0 0 0 5253403
0 0 0 1509895
0 0 0 1509645
1.0556451 -0.78517514 10.141689 1444109
1.1553383 -0.78517514 10.141689 1378316
1.2550316 -0.78517514 10.141689 1575439
1.0837799 -0.62814015 8.1133518 8148290
0.64640808 -0.34896675 4.5074177 9199427
0.69071621 -0.34896675 4.5074177 10250056
0.73502433 -0.34896675 4.5074177 10710601
0.77933246 -0.34896675 4.5074177 11630928
0.82364053 -0.34896675 4.5074177 12812370
0.60088754 -0.24159236 3.1205199 12616019
0.58645076 -0.22433576 2.8976254 13076056
0.53806776 -0.19629379 2.5354223 13339482
0.56299102 -0.19629379 2.5354223 13470298
0.58791435 -0.19629379 2.5354223 13601114
0.57678843 -0.1847471 2.3862798 13930334
0.60024565 -0.1847471 2.3862798 14126684
0.62370288 -0.1847471 2.3862798 14061920
0.64716011 -0.1847471 2.3862798 14061406
0.76003295 -0.20938003 2.7044504 13996639
0.78661782 -0.20938003 2.7044504 14062432
0.76237756 -0.19629379 2.5354223 14324063
0.78730088 -0.19629379 2.5354223 13995870
0.81222421 -0.19629379 2.5354223 13995868
0.74413115 -0.17448337 2.2537088 14193502
0.81136078 -0.1847471 2.3862798 14126942
0.83481801 -0.1847471 2.3862798 14258527
0.85827523 -0.1847471 2.3862798 14389601
0.8327474 -0.17448337 2.2537088 13930846
0.85490143 -0.17448337 2.2537088 14257759
0.87705553 -0.17448337 2.2537088 13930848
0.89920956 -0.17448337 2.2537088 13864797
0.97556144 -0.1847471 2.3862798 13799518
0.94351768 -0.17448337 2.2537088 14323552
0.9148469 -0.16530003 2.1350925 13601887
0.93583494 -0.16530003 2.1350925 13732954
0.90898186 -0.15703504 2.028338 13536091
0.92892057 -0.15703504 2.028338 13733470
0.94885921 -0.15703504 2.028338 13338969
1.0197872 -0.16530003 2.1350925 13470298
1.0985961 -0.17448337 2.2537088 7420196
1.0617633 -0.16530003 2.1350925 1115661
1.0827513 -0.16530003 2.1350925 1049868
1.1037394 -0.16530003 2.1350925 1115661
1.0684911 -0.15703504 2.028338 1247247
1.0884298 -0.15703504 2.028338 1050640
1.1083684 -0.15703504 2.028338 853259
1.1283071 -0.15703504 2.028338 984329
1.1482457 -0.15703504 2.028338 852744
1.1681844 -0.15703504 2.028338 853259
1.2506558 -0.16530003 2.1350925 853003
1.2080617 -0.15703504 2.028338 918282
1.2280003 -0.15703504 2.028338 1049614
1.1885133 -0.14955717 1.9317503 984076
1.2075025 -0.14955717 1.9317503 852490
1.2878163 -0.15703504 2.028338 984075
1.307755 -0.15703504 2.028338 853259
1.26447 -0.14955717 1.9317503 852489
1.2834592 -0.14955717 1.9317503 787466
1.3024484 -0.14955717 1.9317503 852489
1.3214376 -0.14955717 1.9317503 787467
1.3404268 -0.14955717 1.9317503 918282
1.359416 -0.14955717 1.9317503 786955
1.3784052 -0.14955717 1.9317503 918284
1.3973943 -0.14955717 1.9317503 852489
1.4163835 -0.14955717 1.9317503 787466
1.4353727 -0.14955717 1.9317503 918282
1.4543619 -0.14955717 1.9317503 786698
1.4063807 -0.14275911 1.8439435 786954
1.3057978 -0.13086252 1.6902815 918537
1.3799095 -0.1365522 1.763772 786951
1.5303187 -0.14955717 1.9317503 2298378
1.4788848 -0.14275911 1.8439435 10512706
1.568297 -0.14955717 1.9317503 10841933
1.515137 -0.14275911 1.8439435 10645840
1.533263 -0.14275911 1.8439435 10580047
1.551389 -0.14275911 1.8439435 10514769
1.5695151 -0.14275911 1.8439435 10777425
1.6632431 -0.14955717 1.9317503 10842194
1.6822323 -0.14955717 1.9317503 10973266
1.7012215 -0.14955717 1.9317503 10775886
1.7202107 -0.14955717 1.9317503 10448206
1.7391998 -0.14955717 1.9317503 10513999
1.8460985 -0.15703504 2.028338 10513997
1.8660372 -0.15703504 2.028338 10776401
2.0955288 -0.17448337 2.2537088 10447952
2.1176829 -0.17448337 2.2537088 10645331
2.0272138 -0.16530003 2.1350925 10644817
2.0482018 -0.16530003 2.1350925 10513488
2.184145 -0.17448337 2.2537088 10579025
2.2062991 -0.17448337 2.2537088 10251599
2.111166 -0.16530003 2.1350925 10382673
2.132154 -0.16530003 2.1350925 10513487
2.2727613 -0.17448337 2.2537088 10448464
2.2949152 -0.17448337 2.2537088 10448465
2.3170693 -0.17448337 2.2537088 10382674
2.2161064 -0.16530003 2.1350925 10448206
2.2370944 -0.16530003 2.1350925 10316366
2.3835316 -0.17448337 2.2537088 10316366
2.5471964 -0.1847471 2.3862798 10709841
2.5706537 -0.1847471 2.3862798 10380876
3.3922989 -0.24159236 3.1205199 10315596
3.4229739 -0.24159236 3.1205199 10316368
3.4536486 -0.24159236 3.1205199 10446410
3.4843235 -0.24159236 3.1205199 10381386
3.5149984 -0.24159236 3.1205199 10513487
2.4259868 -0.16530003 2.1350925 10512975
2.446975 -0.16530003 2.1350925 10512974
2.3445649 -0.15703504 2.028338 10514256
2.2519081 -0.14955717 1.9317503 10186317
2.1676745 -0.14275911 1.8439435 10513229
2.1858006 -0.14275911 1.8439435 9067845
2.2039268 -0.14275911 1.8439435 8345920
2.2220528 -0.14275911 1.8439435 10316620
0 0 0 10579280
0 0 0 10710865
0 0 0 10710865
0 0 0 10906961
0 0 0 10579535
0 0 0 10382928
0 0 0 10317136
0 0 0 10513745
0 0 0 10841940
0 0 0 5518881
0 0 0 6174757
-3.7242663 -0.21091752 3.1205199 3480335
-4.0013905 -0.22849396 3.380563 3348238
-3.9681594 -0.22849396 3.380563 3742482
-3.9349284 -0.22849396 3.380563 3809303
-4.2563972 -0.24926613 3.687887 3414039
-4.2201452 -0.24926613 3.687887 3283999
-4.1838932 -0.24926613 3.687887 3283483
-3.8020041 -0.22849396 3.380563 2955034
-3.7687731 -0.22849396 3.380563 3086620
-4.0751367 -0.24926613 3.687887 3283483
-4.0388846 -0.24926613 3.687887 3349021
-4.4028959 -0.27419278 4.0566759 3611936
-4.3630185 -0.27419278 4.0566759 4138272
-4.8034906 -0.30465862 4.5074177 4005912
-4.7591825 -0.30465862 4.5074177 3611414
-4.7148743 -0.30465862 4.5074177 3743257
-4.2035093 -0.27419278 4.0566759 3874587
-4.1636324 -0.27419278 4.0566759 4531492
-3.4364622 -0.22849396 3.380563 5778475
-3.4032311 -0.22849396 3.380563 9331792
-3.3699999 -0.22849396 3.380563 9790789
-3.3367689 -0.22849396 3.380563 10053447
-3.6038594 -0.24926613 3.687887 10119496
-3.5676074 -0.24926613 3.687887 10381640
-3.5313554 -0.24926613 3.687887 10513225
-3.4951031 -0.24926613 3.687887 10710090
-4.2274847 -0.30465862 4.5074177 10513224
-4.183177 -0.30465862 4.5074177 10710602
-4.6562271 -0.34274095 5.0708447 10776138
-4.0945606 -0.30465862 4.5074177 10710343
-4.0502524 -0.30465862 4.5074177 11104074
-3.004458 -0.22849396 3.380563 11169867
-3.9616363 -0.30465862 4.5074177 11104331
-4.4069939 -0.34274095 5.0708447 11169868
-3.8730199 -0.30465862 4.5074177 11235917
-2.8715336 -0.22849396 3.380563 11104331
-2.8383026 -0.22849396 3.380563 11235917
-2.8050716 -0.22849396 3.380563 11433298
-2.5586221 -0.21091752 3.1205199 11564368
-2.5279472 -0.21091752 3.1205199 11433293
-2.4972725 -0.21091752 3.1205199 11630670
-2.4665976 -0.21091752 3.1205199 11761488
-2.4359226 -0.21091752 3.1205199 12024659
-2.4052479 -0.21091752 3.1205199 12024401
-2.374573 -0.21091752 3.1205199 12090193
-2.3438981 -0.21091752 3.1205199 12023886
-2.3132234 -0.21091752 3.1205199 12352595
-2.4727607 -0.22849396 3.380563 12221265
-2.9274356 -0.27419278 4.0566759 12222294
-2.8875585 -0.27419278 4.0566759 12615510
-3.1640902 -0.30465862 4.5074177 12615510
-3.119782 -0.30465862 4.5074177 12484181
-2.7679265 -0.27419278 4.0566759 12681303
-2.7280493 -0.27419278 4.0566759 12681557
-2.2401431 -0.22849396 3.380563 13009493
-2.206912 -0.22849396 3.380563 13141081
-2.0064747 -0.21091752 3.1205199 13010007
-1.9757999 -0.21091752 3.1205199 13272413
-1.9451251 -0.21091752 3.1205199 13141080
-1.9144502 -0.21091752 3.1205199 13206872
-1.8837754 -0.21091752 3.1205199 13470298
-1.7207361 -0.19585197 2.8976254 13404503
-1.6922523 -0.19585197 2.8976254 13404760
-1.7917508 -0.21091752 3.1205199 13404503
-1.9078321 -0.22849396 3.380563 13535319
0 0 0 13732955
0 0 0 13536090
0 0 0 13601625
0 0 0 13864283
0 0 0 14060633
0 0 0 14257499
0 0 0 14126938
-0.25926057 -0.036077995 0.53377312 13864283
-0.25401354 -0.036077995 0.53377312 13995614
-0.25548995 -0.037053075 0.54819942 13995098
-0.25352716 -0.037560653 0.555709 14126938
-0.24471229 -0.037053075 0.54819942 14258526
-0.23302549 -0.036077995 0.53377312 14258522
-0.22777848 -0.036077995 0.53377312 14061145
-0.21964143 -0.035609446 0.52684098 14192731
-0.21728446 -0.036077995 0.53377312 13996122
0 0 0 14062428
0 0 0 14126684
0 0 0 13403731
0 0 0 10383956
0 0 0 1772559
0 0 0 1838610
-0.23658976 -0.047274612 0.69942683 1444880
-0.22971436 -0.047274612 0.69942683 1378317
-0.22283897 -0.047274612 0.69942683 1181708
-0.21230319 -0.04647335 0.68757218 1247501
-0.20554432 -0.04647335 0.68757218 1181454
-0.20221278 -0.047274612 0.69942683 1443855
-0.19202659 -0.04647335 0.68757218 4465956
-0.18217991 -0.045698792 0.67611259 3940640
-0.1755337 -0.045698792 0.67611259 3415068
-0.16611885 -0.044949632 0.66502881 2954519
-0.15700768 -0.044224638 0.65430254 2823191
-0.15057586 -0.044224638 0.65430254 2954262
-0.14414404 -0.044224638 0.65430254 3019796
-0.13771221 -0.044224638 0.65430254 3282455
-0.13128039 -0.044224638 0.65430254 3413784
-0.12484857 -0.044224638 0.65430254 3282453
-0.12035801 -0.044949632 0.66502881 3544341
-0.11382074 -0.044949632 0.66502881 3544341
-0.10907153 -0.045698792 0.67611259 3610388
-0.10242531 -0.045698792 0.67611259 3806484
-0.099081822 -0.047274612 0.69942683 3872790
-0.092206426 -0.047274612 0.69942683 3872790
-0.08533103 -0.047274612 0.69942683 4135449
-0.078455634 -0.047274612 0.69942683 4332312
-0.072836034 -0.048103996 0.71169752 4070167
-0.064704835 -0.047274612 0.69942683 4332826
-0.05782944 -0.047274612 0.69942683 4595223
-0.050954044 -0.047274612 0.69942683 3149576
-0.044078644 -0.047274612 0.69942683 918022
-0.037203249 -0.047274612 0.69942683 721160
-0.030327851 -0.047274612 0.69942683 655880
-0.024290042 -0.048962992 0.72440636 656136
0 0 0 786697
0 0 0 655880
0 0 0 852489
0 0 0 918282
0 0 0 721673
0 0 0 786696
0 0 0 983305
0 0 0 852491
0 0 0 852489
0 0 0 1312524
0 0 0 1904401
0 0 0 2035985
0 0 0 1575438
0 0 0 1313294
1.540451 -0.91397583 13.522252 1312523
1.2550316 -0.68548191 10.141689 1246730
1.0837799 -0.54838556 8.1133518 8148290
0.83109605 -0.39170393 5.7952509 9199170
0.88806361 -0.39170393 5.7952509 9593923
0.73502433 -0.30465862 4.5074177 10644041
0.77933246 -0.30465862 4.5074177 11235659
0.7412765 -0.27419278 4.0566759 12549973
0.60088754 -0.21091752 3.1205199 12878164
0.45612839 -0.15232931 2.2537088 13206871
0.45310968 -0.14431198 2.1350925 13338458
0.52987391 -0.16128986 2.3862798 13666909
0.55333114 -0.16128986 2.3862798 13601884
0.54474461 -0.15232931 2.2537088 13536092
0.5668987 -0.15232931 2.2537088 14126686
0.62370288 -0.16128986 2.3862798 13799006
0.64716011 -0.16128986 2.3862798 14061150
0.67061734 -0.16128986 2.3862798 13864799
0.69407457 -0.16128986 2.3862798 13995614
0.76237756 -0.17137048 2.5354223 14193505
0.69982302 -0.15232931 2.2537088 14258782
0.72197711 -0.15232931 2.2537088 14192478
0.74413115 -0.15232931 2.2537088 14193761
0.81136078 -0.16128986 2.3862798 14258528
0.83481801 -0.16128986 2.3862798 14126686
0.76793051 -0.14431198 2.1350925 14258272
0.78891855 -0.14431198 2.1350925 13995868
0.85490143 -0.15232931 2.2537088 13733467
0.92864698 -0.16128986 2.3862798 13930077
0.95210421 -0.16128986 2.3862798 13864799
0.97556144 -0.16128986 2.3862798 13733472
0.94351768 -0.15232931 2.2537088 13470555
0.9148469 -0.14431198 2.1350925 13601884
0.93583494 -0.14431198 2.1350925 13141851
0.95682299 -0.14431198 2.1350925 12943700
0.92892057 -0.13709639 2.028338 12417615
0.94885921 -0.13709639 2.028338 12089168
1.0197872 -0.14431198 2.1350925 10839875
0.98873651 -0.13709639 2.028338 5712661
1.0086751 -0.13709639 2.028338 1114891
1.0286138 -0.13709639 2.028338 1115661
1.1037394 -0.14431198 2.1350925 853259
1.1247275 -0.14431198 2.1350925 984075
1.0884298 -0.13709639 2.028338 853261
1.1083684 -0.13709639 2.028338 853259
1.1283071 -0.13709639 2.028338 853261
1.2086797 -0.14431198 2.1350925 919053
1.2296677 -0.14431198 2.1350925 852489
1.2506558 -0.14431198 2.1350925 852747
1.2080617 -0.13709639 2.028338 918284
1.2280003 -0.13709639 2.028338 787211
1.1885133 -0.13056798 1.9317503 852747
1.2075025 -0.13056798 1.9317503 852746
1.2264916 -0.13056798 1.9317503 787466
1.2454808 -0.13056798 1.9317503 852745
1.2069941 -0.12463307 1.8439435 918282
1.2251202 -0.12463307 1.8439435 918283
1.3024484 -0.13056798 1.9317503 984075
1.3214376 -0.13056798 1.9317503 722188
1.3404268 -0.13056798 1.9317503 787468
1.359416 -0.13056798 1.9317503 787209
1.4473255 -0.13709639 2.028338 655880
1.3973943 -0.13056798 1.9317503 655880
1.4163835 -0.13056798 1.9317503 656137
1.4353727 -0.13056798 1.9317503 852489
1.4543619 -0.13056798 1.9317503 852491
1.4733511 -0.13056798 1.9317503 721673
1.3057978 -0.11424698 1.6902815 918282
1.3224133 -0.11424698 1.6902815 852489
1.3972476 -0.11921424 1.763772 2035204
1.4788848 -0.12463307 1.8439435 10251329
1.568297 -0.13056798 1.9317503 10776397
1.515137 -0.12463307 1.8439435 10841679
1.4665993 -0.11921424 1.763772 10709837
1.4839373 -0.11921424 1.763772 10579280
1.5695151 -0.12463307 1.8439435 10578766
1.5876411 -0.12463307 1.8439435 10579021
1.6822323 -0.13056798 1.9317503 10644815
1.7012215 -0.13056798 1.9317503 10645328
1.7202107 -0.13056798 1.9317503 10645072
1.7391998 -0.13056798 1.9317503 10644300
1.758189 -0.13056798 1.9317503 10645583
1.8660372 -0.13709639 2.028338 10514769
1.8859758 -0.13709639 2.028338 10709841
2.0062258 -0.14431198 2.1350925 10644304
2.0272138 -0.14431198 2.1350925 10512975
2.0482018 -0.14431198 2.1350925 10448209
2.06919 -0.14431198 2.1350925 10251343
2.090178 -0.14431198 2.1350925 10447182
2.0056078 -0.13709639 2.028338 10447436
2.0255466 -0.13709639 2.028338 10382159
2.1531422 -0.14431198 2.1350925 10448206
2.2949152 -0.15232931 2.2537088 10185550
2.3170693 -0.15232931 2.2537088 10251343
2.3392234 -0.15232931 2.2537088 10251088
2.3613775 -0.15232931 2.2537088 10251598
2.3835316 -0.15232931 2.2537088 10251084
2.5471964 -0.16128986 2.3862798 10512717
2.5706537 -0.16128986 2.3862798 10381645
2.7562428 -0.17137048 2.5354223 10250832
3.4229739 -0.21091752 3.1205199 10052682
3.4536486 -0.21091752 3.1205199 9987659
3.4843235 -0.21091752 3.1205199 10316110
3.5149984 -0.21091752 3.1205199 10447180
2.4259868 -0.14431198 2.1350925 10645071
2.2139297 -0.13056798 1.9317503 10579792
2.2329187 -0.13056798 1.9317503 10579792
2.2519081 -0.13056798 1.9317503 10645585
2.1676745 -0.12463307 1.8439435 10382413
2.1858006 -0.12463307 1.8439435 9395268
2.2039268 -0.12463307 1.8439435 8541756
2.2220528 -0.12463307 1.8439435 10446923
0 0 0 10185293
0 0 0 10316621
0 0 0 10841936
0 0 0 10710095
0 0 0 10578509
0 0 0 10447436
0 0 0 10513229
0 0 0 10381643
0 0 0 10710608
0 0 0 4072724
0 0 0 5058336
-3.7242663 -0.18024266 3.1205199 2823694
-4.0013905 -0.19526288 3.380563 2823698
-4.3289013 -0.21301405 3.687887 3546395
-4.2926493 -0.21301405 3.687887 3743257
-4.2563972 -0.21301405 3.687887 3677464
-4.2201452 -0.21301405 3.687887 3874330
-4.1838932 -0.21301405 3.687887 3874328
-4.1476407 -0.21301405 3.687887 3940121
-3.7687731 -0.19526288 3.380563 3743002
-4.0751367 -0.21301405 3.687887 3874330
-4.0388846 -0.21301405 3.687887 3874329
-4.4028959 -0.23431547 4.0566759 3808535
-4.3630185 -0.23431547 4.0566759 4005657
-4.3231416 -0.23431547 4.0566759 4136986
-4.2832642 -0.23431547 4.0566759 4268315
-4.2433867 -0.23431547 4.0566759 4399643
-4.2035093 -0.23431547 4.0566759 4399643
-4.1636324 -0.23431547 4.0566759 3610899
-3.7488678 -0.21301405 3.687887 3874850
-3.4032311 -0.19526288 3.380563 8543312
-3.3699999 -0.19526288 3.380563 9264702
-3.3367689 -0.19526288 3.380563 9658947
-3.3035378 -0.19526288 3.380563 9723970
-3.5676074 -0.21301405 3.687887 9856069
-3.5313554 -0.21301405 3.687887 10053446
-3.2038445 -0.19526288 3.380563 10118726
-3.4588511 -0.21301405 3.687887 10381639
-4.183177 -0.26035053 4.5074177 10381895
-4.1388688 -0.26035053 4.5074177 10447175
-4.0945606 -0.26035053 4.5074177 10710347
-3.6452272 -0.23431547 4.0566759 11038283
-3.004458 -0.19526288 3.380563 11038538
-2.9712269 -0.19526288 3.380563 10711372
-3.9173281 -0.26035053 4.5074177 10973260
-3.485718 -0.23431547 4.0566759 11038538
-3.1325822 -0.21301405 3.687887 11169868
-2.8383026 -0.19526288 3.380563 11235914
-2.8050716 -0.19526288 3.380563 11104586
-2.7718403 -0.19526288 3.380563 11301454
-2.7386093 -0.19526288 3.380563 11301454
-2.7053783 -0.19526288 3.380563 11498574
-2.6721473 -0.19526288 3.380563 11695694
-2.4359226 -0.18024266 3.1205199 11695693
-2.4052479 -0.18024266 3.1205199 11958095
-2.374573 -0.18024266 3.1205199 11762256
-2.3438981 -0.18024266 3.1205199 11761486
-2.3132234 -0.18024266 3.1205199 12221007
-2.4727607 -0.19526288 3.380563 12155472
-2.9274356 -0.23431547 4.0566759 12418131
-2.8875585 -0.23431547 4.0566759 12286543
-2.847681 -0.23431547 4.0566759 12091221
-2.5525486 -0.21301405 3.687887 12221263
-2.1291742 -0.18024266 3.1205199 12353105
-2.0984993 -0.18024266 3.1205199 12549201
-2.0678244 -0.18024266 3.1205199 12483667
-1.8916389 -0.16736817 2.8976254 13009498
-1.6302607 -0.14644715 2.5354223 12747092
-1.8346713 -0.16736817 2.8976254 12813141
-1.9451251 -0.18024266 3.1205199 13009749
-1.9144502 -0.18024266 3.1205199 13206872
-1.8837754 -0.18024266 3.1205199 12944470
-1.7207361 -0.16736817 2.8976254 13338198
-1.5794355 -0.15621029 2.7044504 13076312
-1.7917508 -0.18024266 3.1205199 13404504
-1.9078321 -0.19526288 3.380563 13338711
0 0 0 13404248
0 0 0 13403991
0 0 0 13535063
0 0 0 13732698
0 0 0 13404504
0 0 0 13797977
0 0 0 13732698
-0.26271737 -0.03124206 0.5408901 13864796
-0.25740039 -0.03124206 0.5408901 13733468
-0.25898981 -0.032098006 0.555709 13995870
-0.25352716 -0.032098006 0.555709 14126938
-0.24806452 -0.032098006 0.555709 13995610
-0.23932347 -0.031664249 0.54819942 13929305
-0.22777848 -0.030830981 0.53377312 14061145
-0.22253147 -0.030830981 0.53377312 14060634
-0.23590884 -0.033473637 0.57952511 13995356
0 0 0 13667673
0 0 0 13666905
0 0 0 9459508
0 0 0 1969681
0 0 0 1444109
-0.23933865 -0.039714485 0.68757218 1312524
-0.23257978 -0.039714485 0.68757218 1181708
-0.22971436 -0.040399216 0.69942683 1378317
-0.22283897 -0.040399216 0.69942683 1378063
-0.21230319 -0.039714485 0.68757218 1378317
-0.20554432 -0.039714485 0.68757218 1247501
-0.20221278 -0.040399216 0.69942683 1313040
-0.19533738 -0.040399216 0.69942683 3481120
-0.18526773 -0.039714485 0.68757218 4072226
-0.1755337 -0.039052572 0.67611259 3677470
-0.16888748 -0.039052572 0.67611259 3349019
-0.15958159 -0.03841237 0.66502881 3217434
-0.15057586 -0.037792817 0.65430254 3151641
-0.14414404 -0.037792817 0.65430254 3217433
-0.13771221 -0.037792817 0.65430254 3347991
-0.13343252 -0.03841237 0.66502881 3479321
-0.12689526 -0.03841237 0.66502881 3347734
-0.12035801 -0.03841237 0.66502881 3412757
-0.11382074 -0.03841237 0.66502881 3412756
-0.10907153 -0.039052572 0.67611259 3610135
-0.10242531 -0.039052572 0.67611259 3741974
-0.097402476 -0.039714485 0.68757218 4004376
-0.092206426 -0.040399216 0.69942683 4003861
-0.08533103 -0.040399216 0.69942683 4135447
-0.079832047 -0.041107975 0.71169752 4267035
-0.072836034 -0.041107975 0.71169752 4464155
-0.065840013 -0.041107975 0.71169752 4463898
-0.05782944 -0.040399216 0.69942683 2558213
-0.050954044 -0.040399216 0.69942683 983305
-0.044078644 -0.040399216 0.69942683 655625
-0.037203249 -0.040399216 0.69942683 720903
-0.030327851 -0.040399216 0.69942683 721160
-0.023452453 -0.040399216 0.69942683 721160
-0.016867884 -0.041107975 0.71169752 721161
0 0 0 655882
0 0 0 852489
0 0 0 852489
0 0 0 786696
0 0 0 852489
0 0 0 655882
0 0 0 721673
0 0 0 852491
0 0 0 852489
0 0 0 1114891
0 0 0 1180938
0.95595181 -0.58578861 10.141689 1707281
1.0556451 -0.58578861 10.141689 1970194
1.1553383 -0.58578861 10.141689 1641231
1.0040253 -0.46863094 8.1133518 1378317
1.0837799 -0.46863094 8.1133518 8083011
1.1635345 -0.46863094 8.1133518 8869694
1.2432891 -0.46863094 8.1133518 9723457
0.94503123 -0.33473635 5.7952509 10381384
0.77933246 -0.26035053 4.5074177 10513481
0.82364053 -0.26035053 4.5074177 11104331
0.71013975 -0.21301405 3.687887 12221265
0.4321216 -0.12332392 2.1350925 13075802
0.40995637 -0.11157878 1.9317503 13009493
0.45039287 -0.11715773 2.028338 13404251
0.52259058 -0.13017526 2.2537088 13470044
0.57678843 -0.13783261 2.3862798 13470299
0.60024565 -0.13783261 2.3862798 13667422
0.62370288 -0.13783261 2.3862798 13995872
0.61120683 -0.13017526 2.2537088 13799518
0.67061734 -0.13783261 2.3862798 13864798
0.65551496 -0.13017526 2.2537088 14061662
0.7175318 -0.13783261 2.3862798 13864796
0.74098909 -0.13783261 2.3862798 13995869
0.76444632 -0.13783261 2.3862798 14060892
0.78790355 -0.13783261 2.3862798 14127199
0.81136078 -0.13783261 2.3862798 14126686
0.78843927 -0.13017526 2.2537088 14192736
0.76793051 -0.12332392 2.1350925 13864540
0.78891855 -0.12332392 2.1350925 13864799
0.85490143 -0.13017526 2.2537088 13995098
0.92864698 -0.13783261 2.3862798 13667675
1.0116107 -0.14644715 2.5354223 13470298
1.0365341 -0.14644715 2.5354223 13732698
0.94351768 -0.13017526 2.2537088 12154184
0.96567178 -0.13017526 2.2537088 1772047
0.98782581 -0.13017526 2.2537088 1838608
1.0099798 -0.13017526 2.2537088 1641488
0.97781104 -0.12332392 2.1350925 1575438
0.99879909 -0.12332392 2.1350925 1641231
1.0197872 -0.12332392 2.1350925 1575438
1.0407752 -0.12332392 2.1350925 1509132
1.0617633 -0.12332392 2.1350925 853259
1.0827513 -0.12332392 2.1350925 1246477
1.1037394 -0.12332392 2.1350925 853259
1.1247275 -0.12332392 2.1350925 853772
1.0884298 -0.11715773 2.028338 1049870
1.1083684 -0.11715773 2.028338 918541
1.1876916 -0.12332392 2.1350925 984075
1.2086797 -0.12332392 2.1350925 918282
1.2296677 -0.12332392 2.1350925 918282
1.2506558 -0.12332392 2.1350925 918282
1.2716439 -0.12332392 2.1350925 787468
1.2926319 -0.12332392 2.1350925 852489
1.247939 -0.11715773 2.028338 918539
1.2678777 -0.11715773 2.028338 852491
1.2878163 -0.11715773 2.028338 787211
1.2454808 -0.11157878 1.9317503 786954
1.26447 -0.11157878 1.9317503 787210
1.2834592 -0.11157878 1.9317503 918539
1.3675709 -0.11715773 2.028338 918283
1.3214376 -0.11157878 1.9317503 786953
1.4074482 -0.11715773 2.028338 655881
1.359416 -0.11157878 1.9317503 721417
1.3784052 -0.11157878 1.9317503 590601
1.3338765 -0.10650703 1.8439435 655880
1.3520025 -0.10650703 1.8439435 590602
1.3701285 -0.10650703 1.8439435 852489
1.5270802 -0.11715773 2.028338 655882
1.4063807 -0.10650703 1.8439435 721673
1.4245067 -0.10650703 1.8439435 787720
1.3224133 -0.09763144 1.6902815 721675
1.3972476 -0.10187628 1.763772 1706242
1.4145855 -0.10187628 1.763772 10118719
1.4970108 -0.10650703 1.8439435 10841163
1.4492614 -0.10187628 1.763772 10513997
1.405491 -0.09763144 1.6902815 10447436
1.4221066 -0.09763144 1.6902815 10644300
1.4387221 -0.09763144 1.6902815 10186063
1.5186132 -0.10187628 1.763772 10514259
1.6057671 -0.10650703 1.8439435 10709838
1.6238931 -0.10650703 1.8439435 10119500
1.7202107 -0.11157878 1.9317503 10119500
1.7391998 -0.11157878 1.9317503 10382413
1.758189 -0.11157878 1.9317503 10382412
1.7771782 -0.11157878 1.9317503 10513486
1.7961674 -0.11157878 1.9317503 10512972
1.8151566 -0.11157878 1.9317503 10644302
1.9258533 -0.11715773 2.028338 10382156
2.0482018 -0.12332392 2.1350925 10447436
2.06919 -0.12332392 2.1350925 10381645
1.9856691 -0.11715773 2.028338 10447182
2.0056078 -0.11715773 2.028338 10447439
2.0255466 -0.11715773 2.028338 10645072
2.1531422 -0.12332392 2.1350925 10382159
2.1741302 -0.12332392 2.1350925 10578768
2.1951182 -0.12332392 2.1350925 10447952
2.3392234 -0.13017526 2.2537088 10382159
2.5002818 -0.13783261 2.3862798 10119757
2.3835316 -0.13017526 2.2537088 10382161
2.5471964 -0.13783261 2.3862798 10119757
2.5706537 -0.13783261 2.3862798 10316366
2.7562428 -0.14644715 2.5354223 10381130
3.4229739 -0.18024266 3.1205199 9987401
3.4536486 -0.18024266 3.1205199 9724999
3.4843235 -0.18024266 3.1205199 9988171
3.2639267 -0.16736817 2.8976254 10250058
2.1949403 -0.11157878 1.9317503 10381387
2.2139297 -0.11157878 1.9317503 10315338
2.1314225 -0.10650703 1.8439435 10315596
2.1495485 -0.10650703 1.8439435 10316364
2.1676745 -0.10650703 1.8439435 10447693
2.1858006 -0.10650703 1.8439435 10316365
2.2039268 -0.10650703 1.8439435 9922893
2.3278649 -0.11157878 1.9317503 10185804
0 0 0 10448207
0 0 0 10513486
0 0 0 10710608
0 0 0 10578767
0 0 0 10644559
0 0 0 10578512
0 0 0 10447954
0 0 0 10316367
0 0 0 10316366
0 0 0 2889743
0 0 0 3546906
-3.7242663 -0.14956781 3.1205199 2363662
-4.0013905 -0.16203178 3.380563 2561042
-4.3289013 -0.17676196 3.687887 3217688
-4.2926493 -0.17676196 3.687887 3414294
-4.2563972 -0.17676196 3.687887 3676697
-4.2201452 -0.17676196 3.687887 3545111
-4.1838932 -0.17676196 3.687887 3414038
-4.1476407 -0.17676196 3.687887 3611417
-4.1113887 -0.17676196 3.687887 3874589
-4.0751367 -0.17676196 3.687887 4072223
-4.4427733 -0.19443816 4.0566759 4269343
-4.4028959 -0.19443816 4.0566759 4269087
-4.3630185 -0.19443816 4.0566759 3939608
-4.3231416 -0.19443816 4.0566759 4070421
-4.2832642 -0.19443816 4.0566759 4004631
-4.2433867 -0.19443816 4.0566759 4005914
-3.821372 -0.17676196 3.687887 4005914
-3.78512 -0.17676196 3.687887 3874070
-3.7488678 -0.17676196 3.687887 3348764
-3.4032311 -0.16203178 3.380563 6900551
-4.0440001 -0.19443816 4.0566759 8607809
-3.6401114 -0.17676196 3.687887 9199171
-3.3035378 -0.16203178 3.380563 9330497
-3.5676074 -0.17676196 3.687887 9593410
-3.5313554 -0.17676196 3.687887 9921605
-3.4951031 -0.17676196 3.687887 9987398
-3.1706135 -0.16203178 3.380563 9855554
-3.4225991 -0.17676196 3.687887 10118984
-3.7249818 -0.19443816 4.0566759 10315845
-4.0945606 -0.2160424 4.5074177 10644041
-4.0502524 -0.2160424 4.5074177 10644296
-3.60535 -0.19443816 4.0566759 10512966
-2.9712269 -0.16203178 3.380563 10645066
-2.9379959 -0.16203178 3.380563 10906954
-2.9047649 -0.16203178 3.380563 10841417
-3.1325822 -0.17676196 3.687887 10841418
-2.8383026 -0.16203178 3.380563 11038539
-2.8050716 -0.16203178 3.380563 10841672
-2.7718403 -0.16203178 3.380563 10710860
-2.7386093 -0.16203178 3.380563 11236174
-2.7053783 -0.16203178 3.380563 11367246
-2.6721473 -0.16203178 3.380563 11433550
-2.638916 -0.16203178 3.380563 11564366
-2.4052479 -0.14956781 3.1205199 11629902
-2.374573 -0.14956781 3.1205199 11695695
-2.3438981 -0.14956781 3.1205199 11762258
-2.3132234 -0.14956781 3.1205199 11827536
-2.2825484 -0.14956781 3.1205199 11958865
-2.4395297 -0.16203178 3.380563 12220754
-2.6250529 -0.17676196 3.687887 11893587
-2.3730674 -0.16203178 3.380563 12287058
-2.1598489 -0.14956781 3.1205199 12156243
