# .PCD v0.7 - Point Cloud Data file format
VERSION 0.7
FIELDS x y z rgb
SIZE 4 4 4 4
TYPE F F F U
COUNT 1 1 1 1
WIDTH 1318
HEIGHT 1
VIEWPOINT 0 0 0 1 0 0 0
POINTS 1318
DATA ascii
0.25198507 0.25886917 1.3086051 13124907
0.27367702 0.26749814 1.3522252 12928809
0.28696945 0.26749814 1.3522252 12993580
0.30026188 0.26749814 1.3522252 13059627
0.31355432 0.26749814 1.3522252 12928557
0.31630331 0.25886917 1.3086051 12994350
0.30921742 0.24318013 1.2292956 13387563
0.2865662 0.21689039 1.0963988 13191726
0.27504307 0.20062363 1.014169 13454127
0.23751031 0.16718635 0.84514076 12928555
0.24080139 0.16377439 0.82789302 13191985
0.25412586 0.16718635 0.84514076 13126189
0.2738438 0.17445531 0.88188601 13125936
0.30941874 0.19107011 0.96587515 13519151
0.35248315 0.21118276 1.0675462 13191983
0 0 0 13322545
0 0 0 13191213
0.50312686 0.27672222 1.3988537 13257776
0.51687765 0.27672222 1.3988537 12994863
0.415898 0.21689039 1.0963988 13388591
0.42667562 0.21689039 1.0963988 13126960
0.43745327 0.21689039 1.0963988 13060910
0.44823092 0.21689039 1.0963988 13257776
0.48523766 0.22928414 1.1590502 12995121
0.49663118 0.22928414 1.1590502 12798259
0.49391291 0.22291514 1.1268544 12536881
0.50498992 0.22291514 1.1268544 13060395
0.51606697 0.22291514 1.1268544 12864047
0.54220521 0.22928414 1.1590502 12863536
0.6458652 0.26749814 1.3522252 12469551
0.68188721 0.27672222 1.3988537 12732463
0.72048217 0.28660515 1.4488127 12404784
0.7347241 0.28660515 1.4488127 12799025
0.72313958 0.27672222 1.3988537 12405296
0.73689038 0.27672222 1.3988537 12273455
0.75064117 0.27672222 1.3988537 11814445
0.82101363 0.29722017 1.5024725 11814960
0.8679285 0.30865172 1.5602599 11945775
0.95687139 0.3343727 1.6902815 12141869
0.9734869 0.3343727 1.6902815 11748909
1.0331504 0.34891063 1.763772 12272685
1.0504884 0.34891063 1.763772 12339247
1.1163639 0.3647702 1.8439435 12339505
1.0851643 0.34891063 1.763772 12076592
1.0565646 0.3343727 1.6902815 11683120
1.0302529 0.32099777 1.6226703 11748142
1.046204 0.32099777 1.6226703 11223597
1.1064112 0.3343727 1.6902815 10700080
1.171854 0.34891063 1.763772 10175022
1.2432462 0.3647702 1.8439435 10372659
1.2613722 0.3647702 1.8439435 10306349
1.2794983 0.3647702 1.8439435 10240298
1.189489 0.3343727 1.6902815 10633774
1.2061045 0.3343727 1.6902815 10895403
1.22272 0.3343727 1.6902815 11158060
1.2393357 0.3343727 1.6902815 10764070
1.2559512 0.3343727 1.6902815 10830124
1.2725667 0.3343727 1.6902815 10961195
1.2891822 0.3343727 1.6902815 10501931
1.3625716 0.34891063 1.763772 10896174
1.4426327 0.3647702 1.8439435 10567466
1.4607588 0.3647702 1.8439435 10895145
1.3014187 0.32099777 1.6226703 10830122
1.3173696 0.32099777 1.6226703 10895915
1.3333205 0.32099777 1.6226703 10632746
1.3492714 0.32099777 1.6226703 10697512
1.3652223 0.32099777 1.6226703 10304812
1.3811733 0.32099777 1.6226703 10502445
1.3971242 0.32099777 1.6226703 10568238
1.4130751 0.32099777 1.6226703 10698283
1.429026 0.32099777 1.6226703 10304810
1.5051843 0.3343727 1.6902815 9976102
1.5217998 0.3343727 1.6902815 9583403
1.4768788 0.32099777 1.6226703 9715243
1.4928297 0.32099777 1.6226703 9846829
1.5716465 0.3343727 1.6902815 10108716
1.588262 0.3343727 1.6902815 10306095
1.5406824 0.32099777 1.6226703 10504243
1.5566334 0.32099777 1.6226703 10438707
1.5725844 0.32099777 1.6226703 10307638
1.5885353 0.32099777 1.6226703 10307126
1.6044862 0.32099777 1.6226703 10307380
1.6204371 0.32099777 1.6226703 10438964
1.7786826 0.34891063 1.763772 10373941
1.8776579 0.3647702 1.8439435 10439736
1.8957839 0.3647702 1.8439435 10242358
1.9139099 0.3647702 1.8439435 10045494
1.932036 0.3647702 1.8439435 9914165
2.5237391 0.47205555 2.3862798 9716788
2.165117 0.40124726 2.028338 9650997
2.0810053 0.38214022 1.9317503 9454131
2.0045402 0.3647702 1.8439435 9453877
2.1189837 0.38214022 1.9317503 9454899
2.8060894 0.50155902 2.5354223 9192499
0 0 0 8471089
0 0 0 7814702
0 0 0 7421489
0 0 0 6700339
0 0 0 6241075
0 0 0 6306868
0 0 0 5846318
9.6175232 1.6049891 8.1133518 5321004
9.697278 1.6049891 8.1133518 4861738
0 0 0 4598309
0 0 0 4729379
16.560902 2.6749816 13.522252 4925730
0 0 0 4729381
0 0 0 4335654
0 0 0 4269347
0 0 0 4663076
0 0 0 4728867
0 0 0 4729121
0 0 0 5057573
0 0 0 1247247
0 0 0 1181456
-8.0692434 1.403953 6.761126 1312271
-24.008345 4.2118587 20.283379 1378578
-23.808958 4.2118587 20.283379 1246993
-23.609571 4.2118587 20.283379 1115665
-23.410185 4.2118587 20.283379 1247249
0 0 0 1379351
0 0 0 2759466
0 0 0 8609108
0 0 0 11104856
0 0 0 10908248
0 0 0 11040091
-8.8057919 1.6847436 8.1133518 10909273
-4.8477983 0.9359687 4.5074177 11040091
-3.3254933 0.64797831 3.1205199 11105113
-2.519567 0.49551281 2.3862798 11170392
-2.4961097 0.49551281 2.3862798 11433818
-2.4726524 0.49551281 2.3862798 11500379
-2.7757545 0.56158113 2.7044504 11105619
-2.945539 0.60169411 2.8976254 9329981
-3.4032311 0.70197648 3.380563 6765864
-4.0440001 0.84237182 4.0566759 4071962
-4.0041227 0.84237182 4.0566759 1246217
-3.9642456 0.84237182 4.0566759 1115150
-4.3604093 0.9359687 4.5074177 2100756
-4.3161011 0.9359687 4.5074177 3348504
-4.2717929 0.9359687 4.5074177 3348760
-4.2274847 0.9359687 4.5074177 3676955
-4.183177 0.9359687 4.5074177 3414038
-3.7249818 0.84237182 4.0566759 3414038
-3.6851046 0.84237182 4.0566759 3414040
-3.6452272 0.84237182 4.0566759 3216661
-3.60535 0.84237182 4.0566759 3348247
-3.9616363 0.9359687 4.5074177 3085846
-3.9173281 0.9359687 4.5074177 2888725
-3.8730199 0.9359687 4.5074177 2888725
-3.4458406 0.84237182 4.0566759 2822676
-3.4059634 0.84237182 4.0566759 2428690
-3.366086 0.84237182 4.0566759 1312524
-3.3262088 0.84237182 4.0566759 852747
-3.2863314 0.84237182 4.0566759 2100499
-3.2464542 0.84237182 4.0566759 1378059
-3.2065768 0.84237182 4.0566759 1443598
-3.1666996 0.84237182 4.0566759 1181712
-3.1268222 0.84237182 4.0566759 1379344
-3.0869448 0.84237182 4.0566759 1181708
-3.0470676 0.84237182 4.0566759 984076
-3.0071902 0.84237182 4.0566759 1509392
-2.9673131 0.84237182 4.0566759 1443853
-3.2527063 0.9359687 4.5074177 1378318
-3.2083981 0.9359687 4.5074177 2233626
-3.1640902 0.9359687 4.5074177 3480604
-3.119782 0.9359687 4.5074177 1772818
-3.0754738 0.9359687 4.5074177 1969683
-3.0311658 0.9359687 4.5074177 2233366
-3.3602147 1.0529647 5.0708447 1904660
-3.3103681 1.0529647 5.0708447 2233366
-3.2605214 1.0529647 5.0708447 2429975
-3.2106748 1.0529647 5.0708447 2429975
-3.1608281 1.0529647 5.0708447 3087644
-3.1109815 1.0529647 5.0708447 3153181
-3.0611348 1.0529647 5.0708447 3547167
-3.0112882 1.0529647 5.0708447 1969166
-2.9614415 1.0529647 5.0708447 2362897
-2.9115949 1.0529647 5.0708447 3613214
-2.8617485 1.0529647 5.0708447 4269599
-2.8119018 1.0529647 5.0708447 4730406
-2.7620552 1.0529647 5.0708447 5388334
-2.7122085 1.0529647 5.0708447 5322796
-2.6623619 1.0529647 5.0708447 5190440
-2.6125152 1.0529647 5.0708447 4862250
-2.5626686 1.0529647 5.0708447 5387311
-2.5128219 1.0529647 5.0708447 6569520
-2.4629753 1.0529647 5.0708447 7095347
-2.4131286 1.0529647 5.0708447 7226932
-2.363282 1.0529647 5.0708447 6504237
-2.3134353 1.0529647 5.0708447 3418155
-2.2635887 1.0529647 5.0708447 2630437
-2.2137423 1.0529647 5.0708447 1774876
-2.1638956 1.0529647 5.0708447 1905698
-2.114049 1.0529647 5.0708447 1709086
-2.0642023 1.0529647 5.0708447 2038307
-2.0143557 1.0529647 5.0708447 1906720
-1.964509 1.0529647 5.0708447 2037794
-1.9146624 1.0529647 5.0708447 2170657
-1.8648157 1.0529647 5.0708447 2564642
-1.8149691 1.0529647 5.0708447 3483687
-1.7651225 1.0529647 5.0708447 5586488
-1.7152759 1.0529647 5.0708447 8213836
-0.88822889 0.56158113 2.7044504 9660235
-0.68024528 0.44335356 2.1350925 10711376
-0.59647083 0.40112939 1.9317503 11236173
-0.50529641 0.35098824 1.6902815 11036998
-0.29320854 0.21059296 1.014169 7091752
-0.27633095 0.20545653 0.98943311 3152151
-0.26025704 0.2005647 0.96587515 918541
-0.24493076 0.19590041 0.94341296 983819
-0.22028802 0.18312429 0.88188601 786957
-0.20711651 0.17922802 0.86312246 918282
-0.19863197 0.17922802 0.86312246 786698
-0.18618605 0.17549412 0.84514076 918284
-0.17787828 0.17549412 0.84514076 852237
-0.16610989 0.17191261 0.82789302 1181456
-0.15797167 0.17191261 0.82789302 918798
-0.14683676 0.16847436 0.81133515 787468
-0.1388613 0.16847436 0.81133515 918283
-0.12831944 0.16517094 0.79542661 786956
-0.12050037 0.16517094 0.79542661 984075
-0.11268129 0.16517094 0.79542661 852748
-0.10486221 0.16517094 0.79542661 853004
-0.09517692 0.16199458 0.78012997 852491
-0.089224055 0.16517094 0.79542661 984077
-0.081404977 0.16517094 0.79542661 984077
-0.075057611 0.16847436 0.81133515 984077
-0.065766819 0.16517094 0.79542661 1378321
-0.056833357 0.16199458 0.78012997 1838871
-0.048237007 0.15893807 0.76541048 3941415
-0.04071299 0.15893807 0.76541048 6436405
-0.033188969 0.15893807 0.76541048 9387572
-0.02566495 0.15893807 0.76541048 11747118
-0.017804988 0.15599477 0.75123626 12073766
-0.0098718647 0.14778453 0.71169752 12205352
-0.0028758463 0.14778453 0.71169752 11811877
0.004120172 0.14778453 0.71169752 11614756
0.011314694 0.15042353 0.72440636 12139559
0.019118443 0.15599477 0.75123626 11811621
0.027003186 0.15893807 0.76541048 11812136
0 0 0 11811623
0 0 0 11746343
0 0 0 11877927
0 0 0 12272686
0 0 0 12927014
0 0 0 12469289
0 0 0 12271912
0 0 0 12468778
0 0 0 12469291
0 0 0 12534569
0 0 0 12927528
0 0 0 12796971
0 0 0 12599594
0 0 0 12797225
0.24709214 0.28079057 1.3522252 13125420
0.26038459 0.28079057 1.3522252 12993834
0.27367702 0.28079057 1.3522252 13257004
0.28696945 0.28079057 1.3522252 13387563
0.31061575 0.29047301 1.3988537 12862764
0.31355432 0.28079057 1.3522252 13191213
0.31630331 0.27173284 1.3086051 13059630
0.30921742 0.25526416 1.2292956 13190958
0.27187049 0.21599276 1.0401733 13059371
0.27504307 0.21059296 1.014169 13191470
0.23751031 0.17549412 0.84514076 13125421
0.24581808 0.17549412 0.84514076 13191214
0.26517481 0.18312429 0.88188601 13191212
0.2738438 0.18312429 0.88188601 13257006
0.30941874 0.2005647 0.96587515 12995374
0.36200973 0.22766805 1.0963988 13060397
0 0 0 12994604
0 0 0 12863534
0 0 0 13060910
0.51687765 0.29047301 1.3988537 13192239
0.53062844 0.29047301 1.3988537 13388589
0.42667562 0.22766805 1.0963988 13060653
0.43745327 0.22766805 1.0963988 13256749
0.44823092 0.22766805 1.0963988 13060654
0.56611055 0.28079057 1.3522252 12995118
0.49663118 0.24067765 1.1590502 12732463
0.49391291 0.23399217 1.1268544 12994350
0.50498992 0.23399217 1.1268544 12601389
0.51606697 0.23399217 1.1268544 12929327
0.57506615 0.25526416 1.2292956 13059373
0.6458652 0.28079057 1.3522252 12797743
0.68188721 0.29047301 1.3988537 12995375
0.695638 0.29047301 1.3988537 12798255
0.70938879 0.29047301 1.3988537 12732718
0.72313958 0.29047301 1.3988537 12666923
0.73689038 0.29047301 1.3988537 12600875
0.75064117 0.29047301 1.3988537 12535084
0.82101363 0.31198955 1.5024725 12141611
0.8679285 0.32398915 1.5602599 12600875
0.91859657 0.33694872 1.6226703 12337965
0.9734869 0.35098824 1.6902815 12076848
0.99010247 0.35098824 1.6902815 11944236
1.006718 0.35098824 1.6902815 12010541
1.0678263 0.36624858 1.763772 11944748
1.0851643 0.36624858 1.763772 11879728
1.1526159 0.38289624 1.8439435 11617582
1.0731802 0.35098824 1.6902815 11813420
1.188868 0.38289624 1.8439435 11552303
1.2069941 0.38289624 1.8439435 11945774
1.2834592 0.40112939 1.9317503 11616812
1.3024484 0.40112939 1.9317503 11354670
1.3214376 0.40112939 1.9317503 11223596
1.3404268 0.40112939 1.9317503 11223341
1.359416 0.40112939 1.9317503 11223341
1.2585438 0.36624858 1.763772 10961197
1.2758818 0.36624858 1.763772 10961197
1.2932198 0.36624858 1.763772 10960683
1.3701285 0.38289624 1.8439435 10305325
1.3882545 0.38289624 1.8439435 10437424
1.4063807 0.38289624 1.8439435 10305836
1.4245067 0.38289624 1.8439435 10501932
1.4426327 0.38289624 1.8439435 10567211
1.4607588 0.38289624 1.8439435 10566694
1.4145855 0.36624858 1.763772 10632747
1.37226 0.35098824 1.6902815 10632745
1.3888755 0.35098824 1.6902815 10633004
1.405491 0.35098824 1.6902815 10502448
1.4221066 0.35098824 1.6902815 10567470
1.4387221 0.35098824 1.6902815 10435884
1.6632431 0.40112939 1.9317503 10501677
1.8593093 0.44335356 2.1350925 10697770
1.7012215 0.40112939 1.9317503 9976875
1.7202107 0.40112939 1.9317503 10304812
1.7391998 0.40112939 1.9317503 10173741
1.758189 0.40112939 1.9317503 10173739
1.6963974 0.38289624 1.8439435 10238762
1.7145234 0.38289624 1.8439435 10566954
1.588262 0.35098824 1.6902815 10699311
1.5406824 0.33694872 1.6226703 10700851
1.5566334 0.33694872 1.6226703 10635573
1.5725844 0.33694872 1.6226703 10635573
1.5885353 0.33694872 1.6226703 10832439
1.6044862 0.33694872 1.6226703 10963257
1.7613447 0.36624858 1.763772 10569525
1.9480809 0.40112939 1.9317503 10438453
1.9670701 0.40112939 1.9317503 10240561
2.0853624 0.42118591 2.028338 10371118
1.9139099 0.38289624 1.8439435 9913392
2.0240376 0.40112939 1.9317503 9913390
2.1451783 0.42118591 2.028338 10438196
2.5471964 0.49551281 2.3862798 10373943
2.5706537 0.49551281 2.3862798 10044976
2.594111 0.49551281 2.3862798 10044976
2.617568 0.49551281 2.3862798 10307378
3.4536486 0.64797831 3.1205199 9978928
5.0329118 0.9359687 4.5074177 10111028
5.07722 0.9359687 4.5074177 10111027
5.1215281 0.9359687 4.5074177 10045236
5.1658363 0.9359687 4.5074177 9847860
0 0 0 9914425
0 0 0 9455674
0 0 0 9194041
0 0 0 8932413
0 0 0 8603708
0 0 0 8538174
0 0 0 7553591
16.560902 2.8079059 13.522252 6305067
16.693827 2.8079059 13.522252 5516837
16.826752 2.8079059 13.522252 5386282
0 0 0 5319204
0 0 0 5123108
0 0 0 5188645
0 0 0 5582630
0 0 0 5779495
0 0 0 1378063
0 0 0 1312270
-9.6830931 1.7644982 8.1133518 1181454
0 0 0 1181455
0 0 0 1181201
0 0 0 1115921
0 0 0 1050384
0 0 0 1378066
0 0 0 1904927
0 0 0 4929345
0 0 0 10580312
0 0 0 11105114
-14.809243 2.9408302 13.522252 11170907
-7.3381596 1.4704151 6.761126 10974555
-4.8477983 0.98027682 4.5074177 10909017
-3.3254933 0.67865318 3.1205199 10974810
-2.519567 0.51897001 2.3862798 11106136
-2.4961097 0.51897001 2.3862798 11237207
-2.4726524 0.51897001 2.3862798 11040856
-2.7757545 0.588166 2.7044504 10974803
-2.7491696 0.588166 2.7044504 9461570
-3.4032311 0.73520756 3.380563 6503724
-4.0440001 0.88224912 4.0566759 4138269
-4.0041227 0.88224912 4.0566759 1443597
-4.4047174 0.98027682 4.5074177 1114893
-4.3604093 0.98027682 4.5074177 1707282
-4.3161011 0.98027682 4.5074177 2888466
-4.2717929 0.98027682 4.5074177 3348247
-4.2274847 0.98027682 4.5074177 3283224
-4.183177 0.98027682 4.5074177 3020052
-3.7249818 0.88224912 4.0566759 3151638
-3.6851046 0.88224912 4.0566759 3085847
-4.0502524 0.98027682 4.5074177 2822932
-4.0059443 0.98027682 4.5074177 2691607
-3.9616363 0.98027682 4.5074177 2297106
-3.9173281 0.98027682 4.5074177 1903120
-3.485718 0.88224912 4.0566759 1640461
-3.4458406 0.88224912 4.0566759 1443339
-3.4059634 0.88224912 4.0566759 983816
-3.366086 0.88224912 4.0566759 787467
-3.3262088 0.88224912 4.0566759 721421
-3.2863314 0.88224912 4.0566759 1969427
-3.6071713 0.98027682 4.5074177 1574668
-3.2065768 0.88224912 4.0566759 1246989
-3.5185549 0.98027682 4.5074177 1247249
-3.1268222 0.88224912 4.0566759 1181454
-3.0869448 0.88224912 4.0566759 1509903
-3.0470676 0.88224912 4.0566759 1444366
-3.0071902 0.88224912 4.0566759 1246990
-2.9673131 0.88224912 4.0566759 1181456
-3.2527063 0.98027682 4.5074177 1773334
-3.2083981 0.98027682 4.5074177 1904404
-3.1640902 0.98027682 4.5074177 1772816
-3.119782 0.98027682 4.5074177 3153953
-3.0754738 0.98027682 4.5074177 3415839
-3.0311658 0.98027682 4.5074177 3546654
-2.9868577 0.98027682 4.5074177 3679009
-3.3103681 1.1028113 5.0708447 4007715
-3.2605214 1.1028113 5.0708447 4269601
-3.2106748 1.1028113 5.0708447 4466726
-3.1608281 1.1028113 5.0708447 4402214
-3.1109815 1.1028113 5.0708447 4468520
-3.0611348 1.1028113 5.0708447 5124649
-3.0112882 1.1028113 5.0708447 5913392
-2.9614415 1.1028113 5.0708447 6044462
-2.9115949 1.1028113 5.0708447 6701617
-2.8617485 1.1028113 5.0708447 6505010
-2.8119018 1.1028113 5.0708447 7030581
-2.7620552 1.1028113 5.0708447 7489077
-2.7122085 1.1028113 5.0708447 7292980
-2.6623619 1.1028113 5.0708447 7227957
-2.6125152 1.1028113 5.0708447 7424823
-2.5626686 1.1028113 5.0708447 7621686
-2.5128219 1.1028113 5.0708447 7687737
-2.4629753 1.1028113 5.0708447 8081719
-2.4131286 1.1028113 5.0708447 8212021
-2.363282 1.1028113 5.0708447 8410429
-2.3134353 1.1028113 5.0708447 8410431
-2.2635887 1.1028113 5.0708447 8542272
-2.2137423 1.1028113 5.0708447 8214338
-2.1638956 1.1028113 5.0708447 7885888
-2.114049 1.1028113 5.0708447 8148549
-2.0642023 1.1028113 5.0708447 8410438
-2.0143557 1.1028113 5.0708447 8541762
-1.964509 1.1028113 5.0708447 8147773
-1.9146624 1.1028113 5.0708447 9264967
-1.8648157 1.1028113 5.0708447 9198915
-1.8149691 1.1028113 5.0708447 9790021
-1.5689979 0.98027682 4.5074177 10250057
-0.91481376 0.588166 2.7044504 10972749
-0.7837314 0.51897001 2.3862798 10644554
-0.61546004 0.4201186 1.9317503 11170126
-0.52191198 0.36760378 1.6902815 11170123
-0.48508459 0.35289964 1.6226703 7880486
-0.31698221 0.2384457 1.0963988 5975333
-0.27633095 0.21518271 0.98943311 4267549
-0.26660478 0.21518271 0.98943311 2035218
-0.23936415 0.20051114 0.92197174 852491
-0.22028802 0.19179328 0.88188601 786700
-0.20711651 0.18771257 0.86312246 590089
-0.19863197 0.18771257 0.86312246 720905
-0.18618605 0.18380189 0.84514076 852491
-0.17787828 0.18380189 0.84514076 918282
-0.16610989 0.18005084 0.82789302 1180943
-0.15797167 0.18005084 0.82789302 1312270
-0.14983343 0.18005084 0.82789302 853005
-0.1388613 0.17644982 0.81133515 983562
-0.12831944 0.17299001 0.79542661 918541
-0.12050037 0.17299001 0.79542661 1049355
-0.11268129 0.17299001 0.79542661 918282
-0.10695945 0.17644982 0.81133515 1049356
-0.098983996 0.17644982 0.81133515 1378320
-0.091008537 0.17644982 0.81133515 2035993
-0.083033077 0.17644982 0.81133515 3942186
-0.075057611 0.17644982 0.81133515 7486520
-0.069877237 0.18380189 0.84514076 10044472
-0.061569467 0.18380189 0.84514076 11878442
-0.053261697 0.18380189 0.84514076 12140072
-0.0440365 0.18005084 0.82789302 12271143
-0.033188969 0.16646208 0.76541048 12336936
-0.02566495 0.16646208 0.76541048 12534058
-0.016577058 0.1521119 0.69942683 12337192
-0.0095372256 0.14953375 0.68757218 12401702
-0.0028262627 0.1521119 0.69942683 12206119
0.004120172 0.15478055 0.71169752 11877927
0.011314694 0.15754448 0.72440636 11616040
0.018770834 0.16040891 0.73757738 11681572
0.027003186 0.16646208 0.76541048 11614757
0 0 0 11484711
0 0 0 11877927
0 0 0 11812134
0 0 0 12403498
0 0 0 12861735
0 0 0 12402985
0 0 0 12731178
0 0 0 12599594
0 0 0 12140586
0 0 0 12337451
0 0 0 12534571
0 0 0 12993321
0 0 0 12927789
1.1689986 1.4704151 6.761126 12600362
0.2647416 0.31508896 1.4488127 13255979
0.26038459 0.294083 1.3522252 13125420
0.27367702 0.294083 1.3522252 13257006
0.28696945 0.294083 1.3522252 12993580
0.31061575 0.30422381 1.3988537 12535082
0.32436654 0.30422381 1.3988537 12928300
0.32684675 0.294083 1.3522252 13190698
0.3188805 0.27570283 1.2677112 12928554
0.27187049 0.22621772 1.0401733 12929325
0.27504307 0.22056228 1.014169 12797742
0.28501239 0.22056228 1.014169 12994096
0.26816517 0.20051114 0.92197174 13059887
0.27106759 0.19605535 0.90148348 13256749
0.28629124 0.20051114 0.92197174 13124907
0.34198913 0.23217081 1.0675462 13191211
0.40588969 0.2673482 1.2292956 12798254
0 0 0 13190959
0 0 0 12929840
0 0 0 13125166
0.51687765 0.30422381 1.3988537 13126190
0.53062844 0.30422381 1.3988537 13190699
0.49334371 0.27570283 1.2677112 12928299
0.43745327 0.2384457 1.0963988 12994350
0.44823092 0.2384457 1.0963988 13125678
0.47175884 0.24506921 1.1268544 13125421
0.49663118 0.25207117 1.1590502 13191213
0.49391291 0.24506921 1.1268544 12863018
0.50498992 0.24506921 1.1268544 12731691
0.51606697 0.24506921 1.1268544 12995120
0.61216718 0.28459647 1.3086051 12536111
0.66813642 0.30422381 1.3988537 12535083
0.68188721 0.30422381 1.3988537 12666927
0.695638 0.30422381 1.3988537 12535087
0.70938879 0.30422381 1.3988537 12272940
0.72313958 0.30422381 1.3988537 12601134
0.73689038 0.30422381 1.3988537 12535084
0.80624425 0.32675892 1.5024725 12337965
0.88669467 0.35289964 1.6226703 12469805
0.90264559 0.35289964 1.6226703 12207146
0.91859657 0.35289964 1.6226703 12535088
0.9734869 0.36760378 1.6902815 12469808
0.99010247 0.36760378 1.6902815 12338222
1.006718 0.36760378 1.6902815 12207406
1.0233335 0.36760378 1.6902815 12206892
1.1344899 0.40102229 1.8439435 12141099
1.1526159 0.40102229 1.8439435 11945260
1.170742 0.40102229 1.8439435 12076078
1.188868 0.40102229 1.8439435 12272687
1.26447 0.4201186 1.9317503 12206637
1.2834592 0.4201186 1.9317503 12076079
1.3024484 0.4201186 1.9317503 11814705
1.3214376 0.4201186 1.9317503 11289387
1.3404268 0.4201186 1.9317503 11354156
1.359416 0.4201186 1.9317503 11158060
1.2585438 0.38358656 1.763772 10371118
1.2758818 0.38358656 1.763772 10371372
1.2932198 0.38358656 1.763772 10764846
1.3701285 0.40102229 1.8439435 10894891
1.3882545 0.40102229 1.8439435 10632232
1.4733511 0.4201186 1.9317503 10698280
1.4923403 0.4201186 1.9317503 10566954
1.5113295 0.4201186 1.9317503 10895404
1.4607588 0.40102229 1.8439435 10764588
1.4788848 0.40102229 1.8439435 10764331
1.4319234 0.38358656 1.763772 10501932
1.4492614 0.38358656 1.763772 9911597
1.533263 0.40102229 1.8439435 9846574
2.0076799 0.51897001 2.3862798 9781036
2.0311372 0.51897001 2.3862798 9452587
2.1830065 0.55140567 2.5354223 9387055
2.0780516 0.51897001 2.3862798 9322028
0 0 0 9650220
2.1249661 0.51897001 2.3862798 9780778
2.1484234 0.51897001 2.3862798 10239789
1.758189 0.4201186 1.9317503 10042152
1.7771782 0.4201186 1.9317503 10173480
1.7961674 0.4201186 1.9317503 10304812
1.7326494 0.40102229 1.8439435 10305066
1.6048776 0.36760378 1.6902815 10831666
1.6214931 0.36760378 1.6902815 10503472
1.5725844 0.35289964 1.6226703 10372660
1.7266687 0.38358656 1.763772 10503219
1.7440066 0.38358656 1.763772 9977903
1.9290917 0.4201186 1.9317503 9912368
1.9480809 0.4201186 1.9317503 10109231
1.9670701 0.4201186 1.9317503 10503989
1.8957839 0.40102229 1.8439435 10240817
1.9139099 0.40102229 1.8439435 10176564
2.0240376 0.4201186 1.9317503 10437937
2.8602376 0.588166 2.7044504 10306867
3.3309493 0.67865318 3.1205199 9913392
2.9134073 0.588166 2.7044504 9979185
3.3922989 0.67865318 3.1205199 10240815
4.9442954 0.98027682 4.5074177 10502191
4.9886036 0.98027682 4.5074177 10371888
5.0329118 0.98027682 4.5074177 10372914
3.5149984 0.67865318 3.1205199 9978671
5.1215281 0.98027682 4.5074177 9847854
5.1658363 0.98027682 4.5074177 9848624
5.210144 0.98027682 4.5074177 9388589
7.8816781 1.4704151 6.761126 9848885
0 0 0 10110774
0 0 0 9979960
0 0 0 9981245
0 0 0 9980473
0 0 0 10046522
0 0 0 9324598
0 0 0 8208432
0 0 0 7486767
0 0 0 6502700
0 0 0 6240561
0 0 0 6107177
0 0 0 6567469
0 0 0 7883070
0 0 0 1312272
0 0 0 1246736
-24.207731 4.6106319 20.283379 1050383
0 0 0 1181454
0 0 0 984075
0 0 0 1050382
0 0 0 1116175
0 0 0 1378579
0 0 0 1312788
0 0 0 2365482
0 0 0 8150365
0 0 0 10908247
-8.8855467 1.8442528 8.1133518 10842712
-7.3381596 1.5368773 6.761126 10909275
-6.2328835 1.3173233 5.7952509 11040089
-2.8820939 0.61475092 2.7044504 10778202
-2.519567 0.5424273 2.3862798 10974296
-2.4961097 0.5424273 2.3862798 10974552
-2.4726524 0.5424273 2.3862798 11236437
-2.6022699 0.57632899 2.5354223 11040341
-2.7491696 0.61475092 2.7044504 9921092
-3.4032311 0.76843864 3.380563 6570030
-3.6763637 0.83829671 3.687887 5453092
-4.0041227 0.92212641 4.0566759 1904401
-4.4047174 1.0245849 4.5074177 918030
-4.3604093 1.0245849 4.5074177 1181457
-4.3161011 1.0245849 4.5074177 1969427
-4.2717929 1.0245849 4.5074177 1706508
-4.2274847 1.0245849 4.5074177 1246730
-4.183177 1.0245849 4.5074177 984329
-4.1388688 1.0245849 4.5074177 919306
-4.0945606 1.0245849 4.5074177 787720
-4.0502524 1.0245849 4.5074177 787721
-4.0059443 1.0245849 4.5074177 919053
-3.9616363 1.0245849 4.5074177 853004
-3.9173281 1.0245849 4.5074177 1049868
-3.8730199 1.0245849 4.5074177 1049098
-3.4458406 0.92212641 4.0566759 984332
-3.4059634 0.92212641 4.0566759 721675
-3.366086 0.92212641 4.0566759 918284
-3.3262088 0.92212641 4.0566759 1181199
-3.2863314 0.92212641 4.0566759 2035731
-3.6071713 1.0245849 4.5074177 1574924
-3.5628631 1.0245849 4.5074177 1641488
-3.5185549 1.0245849 4.5074177 2101010
-3.474247 1.0245849 4.5074177 2299161
-3.858681 1.152658 5.0708447 3220517
-5.0784454 1.5368773 6.761126 4863538
-3.3413227 1.0245849 4.5074177 4860713
-2.9673131 0.92212641 4.0566759 6041901
-2.9274356 0.92212641 4.0566759 7288370
-2.8875585 0.92212641 4.0566759 6303788
-2.5888009 0.83829671 3.687887 5647401
-2.5525486 0.83829671 3.687887 7093554
-2.7679265 0.92212641 4.0566759 7028274
-2.7280493 0.92212641 4.0566759 7555132
-2.9868577 1.0245849 4.5074177 7882551
-2.9425495 1.0245849 4.5074177 7488304
-3.2605214 1.152658 5.0708447 6175278
-3.2106748 1.152658 5.0708447 5780519
-3.612375 1.3173233 5.7952509 5781289
-3.1109815 1.152658 5.0708447 6241840
-3.0611348 1.152658 5.0708447 6505010
-3.0112882 1.152658 5.0708447 6898994
-2.9614415 1.152658 5.0708447 8015931
-2.9115949 1.152658 5.0708447 7555122
-2.8617485 1.152658 5.0708447 7556665
-2.8119018 1.152658 5.0708447 7884089
-2.7620552 1.152658 5.0708447 7884605
-2.7122085 1.152658 5.0708447 8541243
-2.6623619 1.152658 5.0708447 8278072
-2.6125152 1.152658 5.0708447 8213050
-2.5626686 1.152658 5.0708447 8475963
-2.5128219 1.152658 5.0708447 8607295
-2.4629753 1.152658 5.0708447 8672826
-2.4131286 1.152658 5.0708447 8936000
-2.363282 1.152658 5.0708447 8871234
-2.3134353 1.152658 5.0708447 9526080
-2.2635887 1.152658 5.0708447 9723715
-2.2137423 1.152658 5.0708447 9724486
-2.1638956 1.152658 5.0708447 9593415
-2.114049 1.152658 5.0708447 9658436
-2.0642023 1.152658 5.0708447 9658949
-2.0143557 1.152658 5.0708447 10250057
-1.964509 1.152658 5.0708447 10381640
-1.9146624 1.152658 5.0708447 10315846
-1.8648157 1.152658 5.0708447 9856325
-1.6133059 1.0245849 4.5074177 10184264
-0.94139862 0.61475092 2.7044504 9724227
-0.80718863 0.5424273 2.3862798 9064246
-0.70123339 0.48532969 2.1350925 8536875
-0.58748454 0.41914836 1.8439435 8208430
-0.50103551 0.36885056 1.6226703 7418918
-0.40423715 0.30737546 1.3522252 6040613
-0.31698221 0.24922334 1.0963988 4859168
-0.27633095 0.22490887 0.98943311 3743006
-0.26660478 0.22490887 0.98943311 2888216
-0.23404494 0.20491697 0.90148348 1969171
-0.22028802 0.20046225 0.88188601 1312012
-0.21161905 0.20046225 0.88188601 852236
-0.19863197 0.19619709 0.86312246 721164
-0.18618605 0.19210966 0.84514076 786444
-0.17424811 0.18818906 0.82789302 852237
-0.16610989 0.18818906 0.82789302 984847
-0.15797167 0.18818906 0.82789302 984330
-0.14983343 0.18818906 0.82789302 1312013
-0.1388613 0.18442528 0.81133515 1115661
-0.13088584 0.18442528 0.81133515 2035477
-0.12050037 0.1808091 0.79542661 4005663
-0.11493492 0.18442528 0.81133515 7354416
-0.10695945 0.18442528 0.81133515 9978164
-0.098983996 0.18442528 0.81133515 11683377
-0.091008537 0.18442528 0.81133515 12469035
-0.083033077 0.18442528 0.81133515 12796712
-0.076589406 0.18818906 0.82789302 12599592
-0.068451174 0.18818906 0.82789302 12862251
-0.061569467 0.19210966 0.84514076 12599594
-0.053261697 0.19210966 0.84514076 12468780
-0.0440365 0.18818906 0.82789302 12664874
-0.033188969 0.17398611 0.76541048 12467752
-0.02566495 0.17398611 0.76541048 12664104
-0.017804988 0.17076415 0.75123626 12271142
-0.0098718647 0.16177656 0.71169752 12271399
-0.0028758463 0.16177656 0.71169752 12270629
0.004120172 0.16177656 0.71169752 11943207
0.011314694 0.16466542 0.72440636 12205352
0.019118443 0.17076415 0.75123626 11549478
0.027003186 0.17398611 0.76541048 11746600
0 0 0 11615525
0 0 0 11876900
0 0 0 11943720
0 0 0 12074281
0 0 0 12140586
0 0 0 12533799
0 0 0 12796201
0 0 0 12599592
0 0 0 12599594
0 0 0 12534571
0 0 0 12665385
0 0 0 12665387
0 0 0 12599592
0.36915746 0.48532969 2.1350925 12862248
0.2647416 0.32933083 1.4488127 12600362
0.27898347 0.32933083 1.4488127 12664615
0.27367702 0.30737546 1.3522252 12533801
0.28696945 0.30737546 1.3522252 12796203
0.31061575 0.3179746 1.3988537 12863274
0.32436654 0.3179746 1.3988537 12862764
0.32684675 0.30737546 1.3522252 12731177
0.3188805 0.2881645 1.2677112 12796971
0.2865662 0.24922334 1.0963988 13125933
0.27504307 0.2305316 1.014169 12862252
0.28501239 0.2305316 1.014169 12928301
0.28778702 0.22490887 0.98943311 12928300
0.29751319 0.22490887 0.98943311 12796973
0.30723938 0.22490887 0.98943311 12863534
0.35123208 0.24922334 1.0963988 13191211
0.40588969 0.27943221 1.2292956 12863534
0.41797373 0.27943221 1.2292956 13257006
0.48937607 0.3179746 1.3988537 12994604
0.50312686 0.3179746 1.3988537 12928813
0.51687765 0.3179746 1.3988537 13191212
0.48088205 0.2881645 1.2677112 12732461
0.42667562 0.24922334 1.0963988 12863279
0.43745327 0.24922334 1.0963988 12797997
0.44823092 0.24922334 1.0963988 12273709
0.47175884 0.25614622 1.1268544 12535854
0.48283589 0.25614622 1.1268544 13059373
0.49391291 0.25614622 1.1268544 13191213
0.51941818 0.26346469 1.1590502 12797741
0.59930354 0.29746011 1.3086051 13322799
0.63257271 0.30737546 1.3522252 12863535
0.66813642 0.3179746 1.3988537 12666669
0.68188721 0.3179746 1.3988537 12601134
0.695638 0.3179746 1.3988537 12338732
0.70938879 0.3179746 1.3988537 12272682
0.72313958 0.3179746 1.3988537 12338735
0.73689038 0.3179746 1.3988537 12272685
0.80624425 0.3415283 1.5024725 12337195
1.0076076 0.41914836 1.8439435 12666416
0.94025582 0.38421932 1.6902815 12338478
0.95687139 0.38421932 1.6902815 12337963
1.0158124 0.4009245 1.763772 12272428
0.99010247 0.38421932 1.6902815 12140588
1.006718 0.38421932 1.6902815 12140586
1.0233335 0.38421932 1.6902815 11878442
1.1885133 0.43910778 1.9317503 12403498
1.2075025 0.43910778 1.9317503 11879210
1.2264916 0.43910778 1.9317503 12011055
1.2454808 0.43910778 1.9317503 12338224
1.26447 0.43910778 1.9317503 11944750
1.2834592 0.43910778 1.9317503 11814191
1.3024484 0.43910778 1.9317503 11682605
1.3214376 0.43910778 1.9317503 11682348
1.3404268 0.43910778 1.9317503 11814191
1.359416 0.43910778 1.9317503 11354156
1.3157504 0.41914836 1.8439435 11616556
1.2758818 0.4009245 1.763772 11551532
1.3520025 0.41914836 1.8439435 11223084
1.3701285 0.41914836 1.8439435 11025191
1.4543619 0.43910778 1.9317503 11091498
1.4733511 0.43910778 1.9317503 10894893
1.4923403 0.43910778 1.9317503 10239532
1.4426327 0.41914836 1.8439435 10109229
1.4607588 0.41914836 1.8439435 10239786
1.4145855 0.4009245 1.763772 10370860
1.4970108 0.41914836 1.8439435 10238501
1.515137 0.41914836 1.8439435 10501161
1.9842227 0.5424273 2.3862798 10632490
2.1331599 0.57632899 2.5354223 10632491
2.1580832 0.57632899 2.5354223 10632493
2.1830065 0.57632899 2.5354223 10633004
2.2079298 0.57632899 2.5354223 10435627
0 0 0 10305068
0 0 0 10108460
0 0 0 9648939
2.1718805 0.5424273 2.3862798 9518634
1.8660372 0.46106321 2.028338 9452841
1.8859758 0.46106321 2.028338 9714989
2.0062258 0.48532969 2.1350925 10436139
1.9258533 0.46106321 2.028338 10437678
1.6214931 0.38421932 1.6902815 10108974
1.5725844 0.36885056 1.6226703 10372401
1.6547242 0.38421932 1.6902815 10569522
1.6713398 0.38421932 1.6902815 10635061
1.6879553 0.38421932 1.6902815 10569526
1.7045708 0.38421932 1.6902815 10175539
1.7960205 0.4009245 1.763772 10438454
1.8133585 0.4009245 1.763772 10503732
1.9139099 0.41914836 1.8439435 10305842
2.0240376 0.43910778 1.9317503 10043184
2.1451783 0.46106321 2.028338 10043437
2.8868225 0.61475092 2.7044504 10306095
2.9134073 0.61475092 2.7044504 10634035
4.8999872 1.0245849 4.5074177 10305841
3.4229739 0.709328 3.1205199 10437168
4.4897432 0.92212641 4.0566759 10108460
4.5296206 0.92212641 4.0566759 10109486
4.5694981 0.92212641 4.0566759 9978415
5.1215281 1.0245849 4.5074177 10110001
5.1658363 1.0245849 4.5074177 10175792
5.861412 1.152658 5.0708447 10110771
7.8816781 1.5368773 6.761126 10044723
7.9481401 1.5368773 6.761126 9913650
8.0146027 1.5368773 6.761126 9847601
9.697278 1.8442528 8.1133518 9847602
12.221291 2.305316 10.141689 10044724
12.320984 2.305316 10.141689 9979188
0 0 0 9979188
0 0 0 9913395
0 0 0 8734516
0 0 0 8864563
0 0 0 8076590
0 0 0 7748656
0 0 0 7551792
0 0 0 7684146
0 0 0 1181199
0 0 0 1246479
0 0 0 1115663
0 0 0 1115661
0 0 0 1050640
0 0 0 1050383
0 0 0 1115663
0 0 0 1049871
0 0 0 1181456
0 0 0 1641497
0 0 0 4666436
0 0 0 10055774
0 0 0 10777942
-8.8057919 1.9240074 8.1133518 10777687
-6.2328835 1.3742909 5.7952509 10909014
-2.8820939 0.64133579 2.7044504 11170905
-2.519567 0.56588453 2.3862798 10842710
-2.3574371 0.53444654 2.2537088 10843480
-2.4726524 0.56588453 2.3862798 10777689
-2.4491954 0.56588453 2.3862798 10907985
-2.7491696 0.64133579 2.7044504 9790021
-2.9170551 0.68714547 2.8976254 6963755
-3.1107693 0.74000287 3.1205199 5846564
-3.6401114 0.87454879 3.687887 2034186
-3.9642456 0.96200371 4.0566759 984077
-4.3604093 1.0688931 4.5074177 984077
-4.3161011 1.0688931 4.5074177 984075
-4.2717929 1.0688931 4.5074177 721675
-4.2274847 1.0688931 4.5074177 918540
-4.183177 1.0688931 4.5074177 918540
-4.1388688 1.0688931 4.5074177 1115148
-4.0945606 1.0688931 4.5074177 1114892
-4.0502524 1.0688931 4.5074177 1181456
-3.60535 0.96200371 4.0566759 1181454
-3.9616363 1.0688931 4.5074177 1313040
-3.9173281 1.0688931 4.5074177 1838610
-3.8730199 1.0688931 4.5074177 2364184
-3.4458406 0.96200371 4.0566759 2823705
-3.4059634 0.96200371 4.0566759 2823447
-3.366086 0.96200371 4.0566759 2824218
-3.3262088 0.96200371 4.0566759 3153437
-3.2863314 0.96200371 4.0566759 3482402
-3.6071713 1.0688931 4.5074177 3744545
-3.5628631 1.0688931 4.5074177 3678237
-3.9583743 1.2025046 5.0708447 4335395
-3.9085276 1.2025046 5.0708447 6634546
-5.144908 1.6033394 6.761126 7354411
-5.0784454 1.6033394 6.761126 7813677
-2.3132234 0.74000287 3.1205199 7681834
-1.7454782 0.56588453 2.3862798 7549990
-1.7220209 0.56588453 2.3862798 7156005
-1.9250387 0.64133579 2.7044504 6630691
-2.1905239 0.74000287 3.1205199 5908769
-2.3398364 0.80166972 3.380563 5580065
-2.5162966 0.87454879 3.687887 6828587
-2.4800446 0.87454879 3.687887 7944236
-2.4437923 0.87454879 3.687887 8274223
-2.6482944 0.96200371 4.0566759 8340785
-2.8982413 1.0688931 4.5074177 8406581
-3.2106748 1.2025046 5.0708447 7750706
-3.1608281 1.2025046 5.0708447 7423284
-3.1109815 1.2025046 5.0708447 7490103
-2.721009 1.0688931 4.5074177 7555122
-2.6767008 1.0688931 4.5074177 7687226
-2.6323926 1.0688931 4.5074177 8147005
-2.5880845 1.0688931 4.5074177 8015928
-2.5437765 1.0688931 4.5074177 8081207
-2.8119018 1.2025046 5.0708447 8213053
-2.7620552 1.2025046 5.0708447 8279359
-2.4108522 1.0688931 4.5074177 8541756
-2.366544 1.0688931 4.5074177 8608060
-2.6125152 1.2025046 5.0708447 8672574
-2.5626686 1.2025046 5.0708447 8804670
-2.5128219 1.2025046 5.0708447 9001793
-2.1893115 1.0688931 4.5074177 9001792
-2.1450033 1.0688931 4.5074177 9330755
-2.363282 1.2025046 5.0708447 9723969
-2.3134353 1.2025046 5.0708447 10052935
-2.2635887 1.2025046 5.0708447 10446405
-1.9677709 1.0688931 4.5074177 10184262
-2.1638956 1.2025046 5.0708447 10054729
-2.114049 1.2025046 5.0708447 10381895
-2.0642023 1.2025046 5.0708447 9986114
-2.0143557 1.2025046 5.0708447 9854016
-1.7462304 1.0688931 4.5074177 9195576
-1.7019222 1.0688931 4.5074177 8668461
-1.2432104 0.80166972 3.380563 8078642
-0.90748453 0.60125232 2.5354223 5514009
-0.83064586 0.56588453 2.3862798 7222315
-0.65343839 0.45809698 1.9317503 7157032
-0.55514306 0.40083486 1.6902815 6893347
-0.49710235 0.37000144 1.5602599 6040352
-0.41752958 0.32066789 1.3522252 5580063
-0.32775986 0.260001 1.0963988 5515814
-0.29320854 0.24050093 1.014169 4136478
-0.27633095 0.23463504 0.98943311 3216921
-0.24842717 0.2186372 0.92197174 2625556
-0.228957 0.20913123 0.88188601 1969169
-0.22028802 0.20913123 0.88188601 1640975
-0.21161905 0.20913123 0.88188601 1508877
-0.20295006 0.20913123 0.88188601 1312270
-0.19014744 0.20468163 0.86312246 1312268
-0.17787828 0.20041743 0.84514076 1049098
-0.16610989 0.19632728 0.82789302 1967366
-0.15797167 0.19632728 0.82789302 5381396
-0.15295495 0.20041743 0.84514076 8861224
-0.1416952 0.19632728 0.82789302 11945779
-0.13088584 0.19240074 0.81133515 13059883
-0.12050037 0.18862817 0.79542661 13257004
-0.11493492 0.19240074 0.81133515 13257004
-0.1091423 0.19632728 0.82789302 13125165
-0.10759129 0.20913123 0.88188601 13190956
-0.09892232 0.20913123 0.88188601 12928558
-0.088333055 0.20468163 0.86312246 12927788
-0.076589406 0.19632728 0.82789302 12665899
-0.068451174 0.19632728 0.82789302 12795687
-0.060312953 0.19632728 0.82789302 12467493
-0.053261697 0.20041743 0.84514076 12927274
-0.0440365 0.19632728 0.82789302 12599590
-0.035898276 0.19632728 0.82789302 12664102
-0.02566495 0.18151012 0.76541048 12730408
-0.018140931 0.18151012 0.76541048 12665385
-0.010616911 0.18151012 0.76541048 12993834
-0.0030356157 0.17814884 0.75123626 12337190
0.0042699962 0.17490976 0.73757738 12139813
0.011520416 0.17490976 0.73757738 11811623
0.019118443 0.17814884 0.75123626 11287334
0.02752248 0.18500072 0.78012997 11746343
0 0 0 11681320
0 0 0 11485226
0 0 0 11943720
0 0 0 12140074
0 0 0 12402731
0 0 0 12533801
0 0 0 12731180
0 0 0 12468776
0 0 0 12468776
0 0 0 12272172
0 0 0 12338732
0 0 0 12993069
0 0 0 12993067
0.43837446 0.60125232 2.5354223 12796971
0.39014551 0.50631773 2.1350925 12731180
0.3905769 0.48100185 2.028338 12993580
0.39096716 0.45809698 1.9317503 12731178
0.29686496 0.33172539 1.3988537 12797229
0.30026188 0.32066789 1.3522252 12862507
0.30343968 0.31032377 1.3086051 12862509
0.32684675 0.32066789 1.3522252 12665898
0.3188805 0.30062616 1.2677112 12862764
0.26507375 0.24050093 1.014169 12731435
0.27504307 0.24050093 1.014169 12665383
0.28501239 0.24050093 1.014169 12666156
0.28778702 0.23463504 0.98943311 12928044
0.29751319 0.23463504 0.98943311 13058346
0.30723938 0.23463504 0.98943311 12796971
0.33322018 0.24666762 1.0401733 13190446
0.36200973 0.260001 1.0963988 12666155
0.37278739 0.260001 1.0963988 13059373
0.44349706 0.30062616 1.2677112 12797739
0.50312686 0.33172539 1.3988537 12666412
0.51687765 0.33172539 1.3988537 12732462
0.42745072 0.26722327 1.1268544 12601388
0.42667562 0.260001 1.0963988 12928559
0.43745327 0.260001 1.0963988 12928044
0.44823092 0.260001 1.0963988 12993579
0.45900857 0.260001 1.0963988 13124907
0.46978623 0.260001 1.0963988 13058860
0.48056388 0.260001 1.0963988 12535082
0.50498992 0.26722327 1.1268544 12403501
0.56298208 0.29151624 1.2292956 12929071
0.63257271 0.32066789 1.3522252 12665898
0.6458652 0.32066789 1.3522252 12534828
0.68188721 0.33172539 1.3988537 12403501
0.695638 0.33172539 1.3988537 12404012
0.7347241 0.34357274 1.4488127 12403757
0.7767055 0.35629767 1.5024725 12600110
0.85479283 0.38480148 1.6226703 12469805
0.98948157 0.4372744 1.8439435 12535083
1.0076076 0.4372744 1.8439435 12469803
1.0257336 0.4372744 1.8439435 12272170
1.0438597 0.4372744 1.8439435 12338220
1.0158124 0.41826245 1.763772 12272426
0.99010247 0.40083486 1.6902815 12404015
1.006718 0.40083486 1.6902815 12140588
1.1163639 0.4372744 1.8439435 12009516
1.1885133 0.45809698 1.9317503 12141101
1.2075025 0.45809698 1.9317503 11812904
1.2264916 0.45809698 1.9317503 11879212
1.2454808 0.45809698 1.9317503 11945005
1.26447 0.45809698 1.9317503 11813676
1.2834592 0.45809698 1.9317503 11945005
1.3024484 0.45809698 1.9317503 12010287
1.3214376 0.45809698 1.9317503 11682090
1.3404268 0.45809698 1.9317503 12076337
1.2976243 0.4372744 1.8439435 11682346
1.3157504 0.4372744 1.8439435 11551276
1.2758818 0.41826245 1.763772 11682092
1.4163835 0.45809698 1.9317503 11616815
1.3701285 0.4372744 1.8439435 11222572
1.4543619 0.45809698 1.9317503 11484711
1.4733511 0.45809698 1.9317503 11223084
1.4245067 0.4372744 1.8439435 10960427
1.3799095 0.41826245 1.763772 11091499
1.3972476 0.41826245 1.763772 10894634
1.4145855 0.41826245 1.763772 11026218
1.4319234 0.41826245 1.763772 10959914
1.4492614 0.41826245 1.763772 10959914
1.9842227 0.56588453 2.3862798 11157806
2.0076799 0.56588453 2.3862798 10829100
2.0311372 0.56588453 2.3862798 10369833
2.0545943 0.56588453 2.3862798 10041895
1.4719532 0.40083486 1.6902815 10173228
2.2328532 0.60125232 2.5354223 10239021
0 0 0 10304812
0 0 0 10238762
0 0 0 10633004
0 0 0 10500646
1.8859758 0.48100185 2.028338 10632746
1.9059145 0.48100185 2.028338 10567722
1.9258533 0.48100185 2.028338 10831923
1.6214931 0.40083486 1.6902815 10438194
1.5725844 0.38480148 1.6226703 10570034
1.5885353 0.38480148 1.6226703 10503988
1.5427752 0.37000144 1.5602599 10438709
1.6204371 0.38480148 1.6226703 10109745
1.5734501 0.37000144 1.5602599 9912368
1.652339 0.38480148 1.6226703 10174512
1.6682899 0.38480148 1.6226703 10108719
1.7544174 0.40083486 1.6902815 9912113
1.8480344 0.41826245 1.763772 9977903
1.8653724 0.41826245 1.763772 10109487
1.8827103 0.41826245 1.763772 10043951
1.9000483 0.41826245 1.763772 10110003
2.0999944 0.45809698 1.9317503 10241588
1.9347242 0.41826245 1.763772 10241331
2.1379728 0.45809698 1.9317503 10175538
3.2354431 0.68714547 2.8976254 10176054
4.5694981 0.96200371 4.0566759 10306355
5.1215281 1.0688931 4.5074177 10043951
5.8115654 1.2025046 5.0708447 9977645
5.861412 1.2025046 5.0708447 9911852
5.9112587 1.2025046 5.0708447 10042671
5.9611053 1.2025046 5.0708447 10174257
6.8696589 1.3742909 5.7952509 9978415
8.0810642 1.6033394 6.761126 9978927
9.7770329 1.9240074 8.1133518 10110514
12.320984 2.4050093 10.141689 10176309
12.420677 2.4050093 10.141689 10175284
12.52037 2.4050093 10.141689 10175794
0 0 0 9455151
0 0 0 9587759
0 0 0 10777428
0 0 0 10513487
0 0 0 9324080
0 0 0 8799799
0 0 0 1181456
0 0 0 1115662
-3.7242663 0.77067769 3.1205199 1115662
0 0 0 1247247
-4.7617917 1.001881 4.0566759 1049868
0 0 0 1181456
0 0 0 984077
0 0 0 984849
0 0 0 1050129
0 0 0 1313046
0 0 0 2364963
0 0 0 7823978
0 0 0 10383706
0 0 0 10580312
-6.2328835 1.4312586 5.7952509 10382413
-3.0879579 0.71562928 2.8976254 9790024
-2.6770399 0.62617564 2.5354223 8541504
-2.4961097 0.58934176 2.3862798 9595221
-2.4726524 0.58934176 2.3862798 10712153
-2.3131289 0.55660057 2.2537088 10384469
-2.5773466 0.62617564 2.5354223 9659458
-2.9170551 0.71562928 2.8976254 7424558
-2.8885715 0.71562928 2.8976254 5122584
-3.6401114 0.91080087 3.687887 2164748
-3.6038594 0.91080087 3.687887 1313036
-3.9243684 1.001881 4.0566759 1115916
-4.3161011 1.1132011 4.5074177 1509903
-4.2717929 1.1132011 4.5074177 2035989
-4.2274847 1.1132011 4.5074177 2496283
-4.183177 1.1132011 4.5074177 2890527
-3.7249818 1.001881 4.0566759 3152928
-4.0945606 1.1132011 4.5074177 3350047
-3.6452272 1.001881 4.0566759 3481117
-3.60535 1.001881 4.0566759 4138015
-3.5654726 1.001881 4.0566759 3809566
-3.9173281 1.1132011 4.5074177 3744802
-3.485718 1.001881 4.0566759 3481631
-3.4458406 1.001881 4.0566759 3547422
-2.8383026 0.8349008 3.380563 4795430
-2.8050716 0.8349008 3.380563 6174768
-2.7718403 0.8349008 3.380563 7620155
-2.9875739 0.91080087 3.687887 8014393
-3.2464542 1.001881 4.0566759 8212028
-3.2065768 1.001881 4.0566759 7817529
-3.5185549 1.1132011 4.5074177 7026215
0 0 0 5513497
0 0 0 4660249
-7.6176686 2.5047026 10.141689 4200731
-1.2529958 0.4174504 1.6902815 4004123
-1.4130061 0.47708619 1.9317503 4003867
-1.3940169 0.47708619 1.9317503 4331547
-1.6985637 0.58934176 2.3862798 4529693
-1.8984538 0.66792065 2.7044504 4923420
-2.5525486 0.91080087 3.687887 5121314
-2.5162966 0.91080087 3.687887 5449506
-2.2733741 0.8349008 3.380563 6172454
-2.4437923 0.91080087 3.687887 6434342
-2.4075403 0.91080087 3.687887 6893861
-2.6084173 1.001881 4.0566759 7813420
-2.8539333 1.1132011 4.5074177 8338734
-2.8096251 1.1132011 4.5074177 8537653
-2.765317 1.1132011 4.5074177 8997689
-2.721009 1.1132011 4.5074177 9324340
-2.6767008 1.1132011 4.5074177 8669235
-2.6323926 1.1132011 4.5074177 8080185
-2.5880845 1.1132011 4.5074177 8015159
-2.5437765 1.1132011 4.5074177 7357233
-2.4994683 1.1132011 4.5074177 8672317
-2.4551601 1.1132011 4.5074177 8670519
-2.4108522 1.1132011 4.5074177 9195579
-2.366544 1.1132011 4.5074177 8932150
-2.3222358 1.1132011 4.5074177 8603442
-2.5626686 1.2523513 5.0708447 8406063
-2.2336197 1.1132011 4.5074177 7879980
-2.1893115 1.1132011 4.5074177 7222564
-1.930503 1.001881 4.0566759 7946026
-2.1006951 1.1132011 4.5074177 7880489
-2.0563872 1.1132011 4.5074177 8143923
-2.012079 1.1132011 4.5074177 6763815
-1.9677709 1.1132011 4.5074177 7157030
-1.9234627 1.1132011 4.5074177 7156517
-1.8791547 1.1132011 4.5074177 6828069
-1.8348465 1.1132011 4.5074177 7353127
-1.7905384 1.1132011 4.5074177 7747366
-1.3096726 0.8349008 3.380563 7484707
-0.95733118 0.62617564 2.5354223 6696225
-0.93240786 0.62617564 2.5354223 3742489
-0.80665296 0.55660057 2.2537088 5450792
-0.67242759 0.47708619 1.9317503 3808025
-0.62373668 0.45540044 1.8439435 3414552
-0.49346051 0.37106705 1.5024725 4202525
-0.41692454 0.32318741 1.3086051 5055006
-0.33853751 0.27077866 1.0963988 5252385
-0.30317789 0.25047025 1.014169 5777959
-0.28605711 0.24436122 0.98943311 3939614
-0.24629496 0.21780021 0.88188601 2954007
-0.23762599 0.21780021 0.88188601 2428694
-0.228957 0.21780021 0.88188601 2231314
-0.22028802 0.21780021 0.88188601 2560276
-0.21161905 0.21780021 0.88188601 4070429
-0.20295006 0.21780021 0.88188601 6106152
-0.19014744 0.21316616 0.86312246 8731440
-0.18166292 0.21316616 0.86312246 11880245
-0.16957051 0.2087252 0.84514076 13060400
-0.16126272 0.2087252 0.84514076 13519147
-0.15295495 0.2087252 0.84514076 13848112
-0.14772478 0.21316616 0.86312246 13388590
-0.13633941 0.2087252 0.84514076 13584686
-0.12541875 0.20446551 0.82789302 13322284
-0.11728053 0.20446551 0.82789302 13256749
-0.1091423 0.20446551 0.82789302 13059373
-0.10310832 0.2087252 0.84514076 12994090
-0.094800554 0.2087252 0.84514076 12862506
-0.086492784 0.2087252 0.84514076 13190443
-0.078185014 0.2087252 0.84514076 13321259
-0.069877237 0.2087252 0.84514076 12927528
-0.061569467 0.2087252 0.84514076 13058855
-0.052174725 0.20446551 0.82789302 13123622
-0.0440365 0.20446551 0.82789302 12928041
-0.0344905 0.19644725 0.79542661 12665639
-0.026671419 0.19644725 0.79542661 12860454
-0.018489795 0.19266942 0.78012997 12861481
-0.010821083 0.19266942 0.78012997 12796201
-0.00315237 0.19266942 0.78012997 12598824
0.0044311285 0.18903413 0.76541048 12140326
0.011955148 0.18903413 0.76541048 11812136
0.019118443 0.18553352 0.75123626 11353638
0.02752248 0.19266942 0.78012997 11419433
0 0 0 11681322
0 0 0 11943722
0 0 0 12140074
0 0 0 12271658
0 0 0 12271399
0 0 0 12795688
0 0 0 13059114
0 0 0 12993067
0 0 0 12993067
0 0 0 12993580
0 0 0 12862764
0 0 0 12862248
0.94503123 1.4312586 5.7952509 12731432
0.41258773 0.58934176 2.3862798 12337703
0.43604496 0.58934176 2.3862798 12796971
0.41113356 0.52730578 2.1350925 12535082
0.41051555 0.5009405 2.028338 12927785
0.40995637 0.47708619 1.9317503 12928042
0.29057604 0.32318741 1.3086051 12927529
0.29395717 0.31308782 1.2677112 12862252
0.30641884 0.31308782 1.2677112 12927784
0.30921742 0.30360028 1.2292956 12993322
0.26507375 0.25047025 1.014169 13125936
0.27504307 0.25047025 1.014169 12731179
0.28501239 0.25047025 1.014169 12927787
0.28778702 0.24436122 0.98943311 12535082
0.30495104 0.25047025 1.014169 13190700
0.31492037 0.25047025 1.014169 13125168
0.32488969 0.25047025 1.014169 13058860
0.34344515 0.25689256 1.0401733 12600362
0.37278739 0.27077866 1.0963988 13125422
0.44349706 0.31308782 1.2677112 12863278
0.45595872 0.31308782 1.2677112 13059372
0.45422581 0.30360028 1.2292956 12863277
0.42745072 0.27830029 1.1268544 12928809
0.42667562 0.27077866 1.0963988 12732461
0.43745327 0.27077866 1.0963988 12928299
0.44823092 0.27077866 1.0963988 12666665
0.45900857 0.27077866 1.0963988 12928557
0.46978623 0.27077866 1.0963988 12600877
0.49391291 0.27830029 1.1268544 12666413
0.50498992 0.27830029 1.1268544 12600875
0.51606697 0.27830029 1.1268544 12600876
0.54220521 0.28625172 1.1590502 12600875
0.58715016 0.30360028 1.2292956 12271911
0.65915763 0.33396032 1.3522252 12402983
0.695638 0.34547618 1.3988537 12600364
0.822891 0.4007524 1.6226703 12600363
0.87379366 0.4174504 1.6902815 12732209
0.92912263 0.43560043 1.763772 12797485
0.9464606 0.43560043 1.763772 12337962
1.0076076 0.45540044 1.8439435 12404013
1.0257336 0.45540044 1.8439435 12469292
