# .PCD v0.7 - Point Cloud Data file format
VERSION 0.7
FIELDS x y z rgb
SIZE 4 4 4 4
TYPE F F F U
COUNT 1 1 1 1
WIDTH 1332
HEIGHT 1
VIEWPOINT 0 0 0 1 0 0 0
POINTS 1332
DATA ascii
-0.26347834 0.08461491 0.94341296 1050636
-0.24842717 0.082691841 0.92197174 1115660
-0.23404494 0.080854245 0.90148348 1115916
-0.21560104 0.077413641 0.86312246 1246731
-0.20280159 0.075800858 0.84514076 918536
-0.19052456 0.074253902 0.82789302 918536
-0.18238634 0.074253902 0.82789302 722188
-0.16741484 0.071341984 0.79542661 786698
-0.15959577 0.071341984 0.79542661 2101529
-0.15177669 0.071341984 0.79542661 852489
-0.14395761 0.071341984 0.79542661 786698
-0.1388613 0.072768822 0.81133515 786698
-0.13088584 0.072768822 0.81133515 656134
-0.12291038 0.072768822 0.81133515 720903
-0.11051435 0.069970027 0.78012997 721673
-0.10284563 0.069970027 0.78012997 655882
-0.093381122 0.068649828 0.76541048 852489
-0.085857108 0.068649828 0.76541048 852489
-0.078333087 0.068649828 0.76541048 524809
-0.072170787 0.069970027 0.78012997 852489
-0.064502068 0.069970027 0.78012997 918282
-0.055761028 0.068649828 0.76541048 852743
-0.047343731 0.067378543 0.75123626 721161
-0.039959047 0.067378543 0.75123626 655882
0 0 0 852489
0 0 0 1049098
0 0 0 984075
0 0 0 918282
0 0 0 918282
0 0 0 786950
0 0 0 1049352
0.035599858 0.12546349 1.3988537 1180681
0.049350653 0.12546349 1.3988537 1180938
0.06535507 0.12994432 1.4488127 1443852
0.085719809 0.13994005 1.5602599 1378060
0.10105724 0.13994005 1.5602599 1443850
0.13157657 0.1581931 1.763772 1574668
0.15568337 0.16538368 1.8439435 1443852
0.18208605 0.17325909 1.9317503 1115144
0.20107524 0.17325909 1.9317503 1115145
0.23106767 0.18192206 2.028338 984074
0.25100634 0.18192206 2.028338 917768
0.27094498 0.18192206 2.028338 1378317
0 0 0 852488
0 0 0 1771531
0 0 0 3742231
0 0 0 5122334
0.82364053 0.40427125 4.5074177 4727835
0.45950222 0.21402594 2.3862798 4005917
0.39096716 0.17325909 1.9317503 5254175
0.40995637 0.17325909 1.9317503 5253918
0.52987391 0.21402594 2.3862798 5188128
0.85514814 0.33076736 3.687887 4925213
1.2256753 0.45480514 5.0708447 5187871
0 0 0 5187097
1.060295 0.36384413 4.0566759 4530972
1.1001723 0.36384413 4.0566759 4727836
1.1400496 0.36384413 4.0566759 4728349
1.3110299 0.40427125 4.5074177 4530201
1.5247551 0.45480514 5.0708447 4399900
1.5746018 0.45480514 5.0708447 4859931
1.4439542 0.40427125 4.5074177 13735020
1.2176691 0.33076736 3.687887 14523244
1.1494278 0.30320343 3.380563 14129005
1.1826588 0.30320343 3.380563 12288090
1.12236 0.27988011 3.1205199 11104592
1.1530348 0.27988011 3.1205199 10118984
1.0991589 0.25988865 2.8976254 9988427
1.1276428 0.25988865 2.8976254 9725001
1.1561265 0.25988865 2.8976254 1705992
1.0365341 0.22740257 2.5354223 1114889
1.3064091 0.27988011 3.1205199 1114888
1.4485075 0.30320343 3.380563 590600
0.68387938 0.13994005 1.5602599 786696
0.67331988 0.13475709 1.5024725 524549
0.64063483 0.12546349 1.3988537 590087
0.65438563 0.12546349 1.3988537 786696
0.66813642 0.12546349 1.3988537 721159
0.79098916 0.14553764 1.6226703 786698
0.96064293 0.17325909 1.9317503 786950
0.97963214 0.17325909 1.9317503 852489
0.99862134 0.17325909 1.9317503 721673
1.0176105 0.17325909 1.9317503 655880
1.0884298 0.18192206 2.028338 917512
1.1667036 0.19149691 2.1350925 852489
1.1876916 0.19149691 2.1350925 721416
1.2086797 0.19149691 2.1350925 1509903
1.2296677 0.19149691 2.1350925 1246988
1.2506558 0.19149691 2.1350925 1049353
1.2716439 0.19149691 2.1350925 655622
1.2926319 0.19149691 2.1350925 393220
0.99835116 0.14553764 1.6226703 327684
1.2075025 0.17325909 1.9317503 721157
1.2264916 0.17325909 1.9317503 983558
1.2454808 0.17325909 1.9317503 720903
1.26447 0.17325909 1.9317503 787212
1.3476323 0.18192206 2.028338 655880
1.3675709 0.18192206 2.028338 984075
1.2613722 0.16538368 1.8439435 722187
1.2794983 0.16538368 1.8439435 721673
1.2412059 0.1581931 1.763772 721674
1.2585438 0.1581931 1.763772 721675
1.2758818 0.1581931 1.763772 656395
1.3520025 0.16538368 1.8439435 1772298
1.3701285 0.16538368 1.8439435 4271907
1.4543619 0.17325909 1.9317503 5388332
1.4733511 0.17325909 1.9317503 6177079
1.4923403 0.17325909 1.9317503 6899774
1.5113295 0.17325909 1.9317503 8214605
1.5303187 0.17325909 1.9317503 7162948
1.4788848 0.16538368 1.8439435 6704454
1.4970108 0.16538368 1.8439435 6900288
1.4492614 0.1581931 1.763772 7687748
1.405491 0.15160172 1.6902815 4203301
1.4839373 0.1581931 1.763772 2626321
1.5695151 0.16538368 1.8439435 1640459
1.6632431 0.17325909 1.9317503 524296
1.9626044 0.20213562 2.2537088 459016
2.1015089 0.21402594 2.3862798 459015
2.0069125 0.20213562 2.2537088 655368
2.0290666 0.20213562 2.2537088 655622
2.0512207 0.20213562 2.2537088 590343
1.622641 0.1581931 1.763772 524551
1.6399789 0.1581931 1.763772 655624
1.588262 0.15160172 1.6902815 524553
1.7507756 0.16538368 1.8439435 459017
2.1619909 0.20213562 2.2537088 590344
2.184145 0.20213562 2.2537088 786696
1.8911134 0.17325909 1.9317503 590088
1.6713398 0.15160172 1.6902815 524294
1.6879553 0.15160172 1.6902815 786950
1.7045708 0.15160172 1.6902815 786950
1.8776579 0.16538368 1.8439435 590087
1.9860593 0.17325909 1.9317503 721159
2.0050485 0.17325909 1.9317503 786696
2.1252398 0.18192206 2.028338 917512
2.2580824 0.19149691 2.1350925 852489
3.3309493 0.27988011 3.1205199 786696
3.9728284 0.33076736 3.687887 655882
4.4099889 0.36384413 4.0566759 590089
4.4498658 0.36384413 4.0566759 918282
6.4139185 0.5197773 5.7952509 721158
5.0329118 0.40427125 4.5074177 918281
5.07722 0.40427125 4.5074177 786697
5.1215281 0.40427125 4.5074177 786696
5.1658363 0.40427125 4.5074177 786696
5.861412 0.45480514 5.0708447 786696
7.8816781 0.60640687 6.761126 786696
9.5377693 0.72768825 8.1133518 721675
9.6175232 0.72768825 8.1133518 786698
12.121597 0.90961027 10.141689 655880
0 0 0 720903
0 0 0 786696
0 0 0 655366
0 0 0 656136
0 0 0 590854
0 0 0 655880
0 0 0 655880
0 0 0 918024
0 0 0 918281
0 0 0 787466
0 0 0 2364180
0 0 0 2167571
-1.9366184 0.16148856 1.6226703 1970192
-2.1825767 0.18350974 1.8439435 1904402
-5.2908797 0.44857937 4.5074177 1970455
0 0 0 1905435
0 0 0 2037023
0 0 0 4272700
0 0 0 10055261
-11.406013 1.0093036 10.141689 11104854
-6.4607539 0.57674485 5.7952509 11302487
-5.603313 0.50465178 5.0708447 11171157
-5.5534663 0.50465178 5.0708447 10908503
-4.8921065 0.44857937 4.5074177 11236437
-4.8477983 0.44857937 4.5074177 11172442
-5.4039264 0.50465178 5.0708447 11237207
-5.3540797 0.50465178 5.0708447 11302230
-2.3574371 0.22428969 2.2537088 11170900
-2.335283 0.22428969 2.2537088 11368019
-2.4491954 0.23748319 2.3862798 11170124
-4.123755 0.40372145 4.0566759 8475185
-3.1414442 0.31055495 3.1205199 6372388
-4.0440001 0.40372145 4.0566759 2823435
-3.6401114 0.36701947 3.687887 1114887
-3.6038594 0.36701947 3.687887 1115659
-3.5676074 0.36701947 3.687887 3020824
-3.5313554 0.36701947 3.687887 3283220
-3.8446138 0.40372145 4.0566759 3611413
-4.2274847 0.44857937 4.5074177 3742489
-4.183177 0.44857937 4.5074177 3743002
-4.1388688 0.44857937 4.5074177 3349272
-4.0945606 0.44857937 4.5074177 3809050
-4.0502524 0.44857937 4.5074177 3611671
-4.0059443 0.44857937 4.5074177 3545877
-3.9616363 0.44857937 4.5074177 3545877
-3.9173281 0.44857937 4.5074177 3611156
-3.8730199 0.44857937 4.5074177 3545363
-3.8287117 0.44857937 4.5074177 3413777
-3.7844038 0.44857937 4.5074177 3085073
-3.366086 0.40372145 4.0566759 1311238
-3.3262088 0.40372145 4.0566759 786696
-3.2863314 0.40372145 4.0566759 1639431
-3.6071713 0.44857937 4.5074177 852489
-3.5628631 0.44857937 4.5074177 983561
-4.5238562 0.57674485 5.7952509 852488
-3.9085276 0.50465178 5.0708447 786953
-3.858681 0.50465178 5.0708447 852743
-3.3856306 0.44857937 4.5074177 1049352
-3.3413227 0.44857937 4.5074177 984329
-3.2970145 0.44857937 4.5074177 1050122
-3.2527063 0.44857937 4.5074177 984585
-3.2083981 0.44857937 4.5074177 787466
-3.5596011 0.50465178 5.0708447 918536
-3.5097547 0.50465178 5.0708447 655880
-3.0754738 0.44857937 4.5074177 1049351
-3.4100614 0.50465178 5.0708447 721159
-3.3602147 0.50465178 5.0708447 720903
-3.3103681 0.50465178 5.0708447 524294
-3.2605214 0.50465178 5.0708447 720903
-3.2106748 0.50465178 5.0708447 852489
-3.1608281 0.50465178 5.0708447 917765
-3.1109815 0.50465178 5.0708447 983815
-3.0611348 0.50465178 5.0708447 721670
-3.0112882 0.50465178 5.0708447 655879
-3.3845046 0.57674485 5.7952509 852489
-2.9115949 0.50465178 5.0708447 787209
-3.2705696 0.57674485 5.7952509 590341
-3.2136018 0.57674485 5.7952509 983558
-3.1566343 0.57674485 5.7952509 852487
-3.0996668 0.57674485 5.7952509 786952
-3.0426991 0.57674485 5.7952509 1049352
-2.6125152 0.50465178 5.0708447 786696
-2.5626686 0.50465178 5.0708447 918282
-2.5128219 0.50465178 5.0708447 983559
-2.4629753 0.50465178 5.0708447 1181454
-2.4131286 0.50465178 5.0708447 3744284
-2.7008936 0.57674485 5.7952509 6372651
-2.6439261 0.57674485 5.7952509 8410168
-2.5869586 0.57674485 5.7952509 9329215
-2.9516561 0.67286903 6.761126 9657663
-2.4730234 0.57674485 5.7952509 9462333
-2.4160559 0.57674485 5.7952509 9525819
-2.3590882 0.57674485 5.7952509 9198653
-2.3021207 0.57674485 5.7952509 9264702
-2.2451532 0.57674485 5.7952509 9855810
-2.1881855 0.57674485 5.7952509 9723710
-1.8648157 0.50465178 5.0708447 9396546
-1.8149691 0.50465178 5.0708447 9461569
-2.0172827 0.57674485 5.7952509 9264446
0 0 0 9199939
0 0 0 9660234
0 0 0 9524538
-0.32117662 0.10351831 1.0401733 9460542
-0.29578328 0.098468639 0.98943311 984075
-0.27275214 0.0938887 0.94341296 1246988
-0.25749019 0.091754869 0.92197174 1180683
-0.24290656 0.089715868 0.90148348 1115661
-0.228957 0.087765522 0.88188601 1115146
-0.21110936 0.084108628 0.84514076 1247246
-0.19866279 0.082392126 0.82789302 852489
-0.19052456 0.082392126 0.82789302 918282
-0.17873861 0.080744281 0.81133515 1114891
-0.16741484 0.079161063 0.79542661 2299685
-0.15959577 0.079161063 0.79542661 2299935
-0.15177669 0.079161063 0.79542661 2036247
-0.14395761 0.079161063 0.79542661 655882
-0.13613853 0.079161063 0.79542661 655880
-0.12831944 0.079161063 0.79542661 655880
-0.11818306 0.077638738 0.78012997 721673
-0.10842916 0.076173849 0.76541048 786696
-0.099036537 0.074763231 0.75123626 786696
-0.091651849 0.074763231 0.75123626 852489
-0.084267162 0.074763231 0.75123626 787466
-0.078333087 0.076173849 0.76541048 852489
-0.070809066 0.076173849 0.76541048 983562
-0.063285045 0.076173849 0.76541048 787981
-0.053733353 0.073403895 0.73757738 721672
-0.046482936 0.073403895 0.73757738 852233
-0.039959047 0.074763231 0.75123626 852488
0 0 0 983562
0 0 0 656138
0 0 0 918795
0 0 0 918281
0 0 0 852489
0 0 0 917766
0 0 0 852489
0.035599858 0.13921428 1.3988537 918536
0.049350653 0.13921428 1.3988537 1246474
0.063101448 0.13921428 1.3988537 1180680
0.082545005 0.14952646 1.5024725 1246473
0.10509952 0.16148856 1.6226703 1246731
0.12609421 0.16821726 1.6902815 1312523
0.15568337 0.18350974 1.8439435 1180427
0.18208605 0.19224828 1.9317503 918536
0.24838707 0.23748319 2.3862798 918282
0.2718443 0.23748319 2.3862798 852489
0.29530156 0.23748319 2.3862798 1049352
0.31875879 0.23748319 2.3862798 1114891
0 0 0 1115144
0 0 0 852486
0 0 0 1115402
0 0 0 2888981
0 0 0 4728607
0.48822111 0.25232589 2.5354223 3677466
0.48295945 0.23748319 2.3862798 4858392
0.47828245 0.22428969 2.2537088 4990747
0.52987391 0.23748319 2.3862798 4858903
0.85514814 0.36701947 3.687887 5056539
1.0894892 0.44857937 4.5074177 5122594
0 0 0 5056799
0 0 0 5188380
0.91681015 0.33643451 3.380563 6437419
0.95004123 0.33643451 3.380563 7159597
1.3110299 0.44857937 4.5074177 7685167
1.355338 0.44857937 4.5074177 7817264
1.399646 0.44857937 4.5074177 8670773
1.4439542 0.44857937 4.5074177 8144944
1.0303354 0.31055495 3.1205199 6830372
1.0610102 0.31055495 3.1205199 6830886
1.0137075 0.28837243 2.8976254 7488039
1.0421914 0.28837243 2.8976254 8606004
1.0706751 0.28837243 2.8976254 6239012
1.0991589 0.28837243 2.8976254 8605748
0.98668742 0.25232589 2.5354223 8475195
1.1561265 0.28837243 2.8976254 3611672
0.97556144 0.23748319 2.3862798 918025
1.3064091 0.31055495 3.1205199 590087
0.5993824 0.13921428 1.3988537 721157
0.61313319 0.13921428 1.3988537 852489
0.62688398 0.13921428 1.3988537 918536
0.64063483 0.13921428 1.3988537 1575436
0.63257271 0.1345738 1.3522252 1313294
0.74522913 0.15527748 1.5602599 1379087
0.79098916 0.16148856 1.6226703 1444110
0.84056258 0.16821726 1.6902815 1247501
0.97963214 0.19224828 1.9317503 1050892
0.99862134 0.19224828 1.9317503 1050124
1.0176105 0.19224828 1.9317503 1115403
1.0884298 0.20186073 2.028338 918538
1.1667036 0.21248496 2.1350925 1049867
1.1876916 0.21248496 2.1350925 918536
1.3508773 0.23748319 2.3862798 2430746
1.3743345 0.23748319 2.3862798 1970197
1.3977917 0.23748319 2.3862798 1247501
1.2080617 0.20186073 2.028338 655882
0.9446156 0.15527748 1.5602599 524809
0.99835116 0.16148856 1.6226703 524550
1.014302 0.16148856 1.6226703 721157
1.0731802 0.16821726 1.6902815 721159
1.0897957 0.16821726 1.6902815 786698
1.1064112 0.16821726 1.6902815 787468
1.171854 0.17553104 1.763772 787468
1.1891921 0.17553104 1.763772 918284
1.20653 0.17553104 1.763772 1049355
1.2238679 0.17553104 1.763772 786696
1.2412059 0.17553104 1.763772 786951
1.2585438 0.17553104 1.763772 655623
1.3338765 0.18350974 1.8439435 720904
1.3520025 0.18350974 1.8439435 1903885
1.3701285 0.18350974 1.8439435 6571573
1.4543619 0.19224828 1.9317503 6505265
1.4733511 0.19224828 1.9317503 6044984
1.4923403 0.19224828 1.9317503 6177333
1.5113295 0.19224828 1.9317503 7164228
1.4607588 0.18350974 1.8439435 6571327
1.4788848 0.18350974 1.8439435 6242876
1.4970108 0.18350974 1.8439435 6638919
1.4492614 0.17553104 1.763772 7884608
1.4665993 0.17553104 1.763772 4268575
1.4839373 0.17553104 1.763772 2692114
1.5695151 0.18350974 1.8439435 1836553
1.5876411 0.18350974 1.8439435 720903
1.6057671 0.18350974 1.8439435 458758
1.8802974 0.21248496 2.1350925 524294
1.9012855 0.21248496 2.1350925 655366
2.0290666 0.22428969 2.2537088 590088
2.0512207 0.22428969 2.2537088 721159
1.622641 0.17553104 1.763772 589830
1.5716465 0.16821726 1.6902815 786950
1.5247315 0.16148856 1.6226703 786952
1.5406824 0.16148856 1.6226703 655623
1.6214931 0.16821726 1.6902815 1181195
1.6381086 0.16821726 1.6902815 2167832
1.6547242 0.16821726 1.6902815 2693918
1.6713398 0.16821726 1.6902815 2365207
1.6879553 0.16821726 1.6902815 1970446
1.7045708 0.16821726 1.6902815 1838860
1.8776579 0.18350974 1.8439435 1640966
1.8957839 0.18350974 1.8439435 1509384
2.0050485 0.19224828 1.9317503 1049609
2.0240376 0.19224828 1.9317503 787211
2.1451783 0.20186073 2.028338 721416
2.2790704 0.21248496 2.1350925 918024
3.361624 0.31055495 3.1205199 786696
4.4099889 0.40372145 4.0566759 720903
4.9442954 0.44857937 4.5074177 524807
6.4139185 0.57674485 5.7952509 852744
5.6620255 0.50465178 5.0708447 787209
5.07722 0.44857937 4.5074177 721416
5.1215281 0.44857937 4.5074177 786696
5.1658363 0.44857937 4.5074177 721160
5.861412 0.50465178 5.0708447 721673
5.9112587 0.50465178 5.0708447 590600
7.9481401 0.67286903 6.761126 590087
6.010952 0.50465178 5.0708447 590087
9.697278 0.8074429 8.1133518 787468
12.221291 1.0093036 10.141689 655625
0 0 0 721673
0 0 0 655623
0 0 0 721159
0 0 0 721928
0 0 0 852744
0 0 0 918282
0 0 0 786696
0 0 0 852489
0 0 0 984075
0 0 0 2364180
0 0 0 2955804
-1.7291236 0.15842812 1.4488127 3154726
-1.9206675 0.1774395 1.6226703 2628640
-1.9840797 0.1848328 1.6902815 1904919
0 0 0 1904919
0 0 0 1904662
0 0 0 2562339
0 0 0 8019548
0 0 0 10973265
-7.5375462 0.73933119 6.761126 10974550
-6.4037862 0.63371247 5.7952509 11104851
-6.3468184 0.63371247 5.7952509 10908755
-5.5036197 0.55449843 5.0708447 11170383
-5.453773 0.55449843 5.0708447 11236434
-5.4039264 0.55449843 5.0708447 11369046
-6.1189485 0.63371247 5.7952509 11499863
-6.0619807 0.63371247 5.7952509 11368021
-2.335283 0.24644375 2.2537088 11302739
0 0 0 10776907
0 0 0 8212528
-4.0838776 0.44359875 4.0566759 6240803
-4.0440001 0.44359875 4.0566759 2757900
-3.6401114 0.40327156 3.687887 1115400
-3.9642456 0.44359875 4.0566759 1181194
-3.5676074 0.40327156 3.687887 2691604
-3.5313554 0.40327156 3.687887 2954257
-3.8446138 0.44359875 4.0566759 3282452
-4.2274847 0.4928875 4.5074177 3151120
-4.183177 0.4928875 4.5074177 3020050
-4.1388688 0.4928875 4.5074177 3151636
-4.0945606 0.4928875 4.5074177 3151379
-4.0502524 0.4928875 4.5074177 3282706
-4.0059443 0.4928875 4.5074177 3151634
-3.9616363 0.4928875 4.5074177 3217426
-3.9173281 0.4928875 4.5074177 3414035
-3.8730199 0.4928875 4.5074177 3348499
-3.8287117 0.4928875 4.5074177 3020050
-3.7844038 0.4928875 4.5074177 3019280
-3.366086 0.44359875 4.0566759 1377286
-3.0238259 0.40327156 3.687887 852489
-2.9875739 0.40327156 3.687887 852489
-3.2464542 0.44359875 4.0566759 1049352
-3.2065768 0.44359875 4.0566759 787210
-3.5185549 0.4928875 4.5074177 1049352
-3.474247 0.4928875 4.5074177 984073
-3.4299388 0.4928875 4.5074177 918536
-3.0470676 0.44359875 4.0566759 1049868
-3.3413227 0.4928875 4.5074177 787208
-3.2970145 0.4928875 4.5074177 590087
-3.2527063 0.4928875 4.5074177 852488
-3.2083981 0.4928875 4.5074177 786696
-3.1640902 0.4928875 4.5074177 656134
-3.119782 0.4928875 4.5074177 853513
-3.0754738 0.4928875 4.5074177 1115915
-3.4100614 0.55449843 5.0708447 852743
-3.3602147 0.55449843 5.0708447 852743
-3.3103681 0.55449843 5.0708447 721675
-2.8982413 0.4928875 4.5074177 786950
-3.2106748 0.55449843 5.0708447 1246473
-3.1608281 0.55449843 5.0708447 1049866
-3.1109815 0.55449843 5.0708447 721157
-3.0611348 0.55449843 5.0708447 917766
-3.0112882 0.55449843 5.0708447 1115144
-2.9614415 0.55449843 5.0708447 1115145
-2.9115949 0.55449843 5.0708447 787208
-3.2705696 0.63371247 5.7952509 1444110
-3.2136018 0.63371247 5.7952509 1246731
-3.1566343 0.63371247 5.7952509 1246731
-3.0996668 0.63371247 5.7952509 1312524
-2.6623619 0.55449843 5.0708447 1509645
-2.6125152 0.55449843 5.0708447 918536
-2.5626686 0.55449843 5.0708447 1246987
-2.5128219 0.55449843 5.0708447 1312267
-2.4629753 0.55449843 5.0708447 1049352
-2.4131286 0.55449843 5.0708447 2627354
-2.7008936 0.63371247 5.7952509 4204585
-2.6439261 0.63371247 5.7952509 7817781
-2.5869586 0.63371247 5.7952509 8475450
-2.9516561 0.73933119 6.761126 8804409
-2.4730234 0.63371247 5.7952509 9789504
-2.4160559 0.63371247 5.7952509 8609082
-2.3590882 0.63371247 5.7952509 7162419
-2.3021207 0.63371247 5.7952509 7160873
-2.2451532 0.63371247 5.7952509 7619885
-2.1881855 0.63371247 5.7952509 7160362
-2.131218 0.63371247 5.7952509 7095083
-1.8149691 0.55449843 5.0708447 7358770
-2.0172827 0.63371247 5.7952509 7686964
-1.9603152 0.63371247 5.7952509 8081977
0 0 0 7622455
-0.33140156 0.11374327 1.0401733 7226930
-0.30550945 0.10819481 0.98943311 7097657
-0.28874081 0.10561875 0.96587515 721673
-0.27275214 0.1031625 0.94341296 984077
-0.25749019 0.10081789 0.92197174 1247247
-0.23762599 0.096434504 0.88188601 918537
-0.21941712 0.092416398 0.84514076 918794
-0.20680101 0.090530351 0.82789302 984073
-0.19468953 0.088719748 0.81133515 853002
-0.18671407 0.088719748 0.81133515 787466
-0.17523393 0.086980142 0.79542661 1707030
-0.16419533 0.085307449 0.78012997 1971740
-0.15959577 0.086980142 0.79542661 2759970
-0.14885791 0.085307449 0.78012997 2299419
-0.13852525 0.08369787 0.76541048 918536
-0.13100122 0.08369787 0.76541048 786698
-0.12347721 0.08369787 0.76541048 721675
-0.11595318 0.08369787 0.76541048 786696
-0.10642122 0.082147911 0.75123626 852491
-0.097235866 0.080654308 0.73757738 852489
-0.091651849 0.082147911 0.75123626 786698
-0.084267162 0.082147911 0.75123626 721673
-0.078333087 0.08369787 0.76541048 787466
-0.070809066 0.08369787 0.76541048 721673
-0.060983773 0.080654308 0.73757738 787209
-0.053733353 0.080654308 0.73757738 852487
-0.045652881 0.079214059 0.72440636 917769
-0.039232515 0.080654308 0.73757738 852490
-0.033188969 0.08369787 0.76541048 918024
0 0 0 853002
0 0 0 1312268
0 0 0 1049865
0 0 0 852743
0 0 0 786696
0.022629388 0.15842812 1.4488127 721157
0.035599858 0.15296507 1.3988537 918536
0.051113177 0.15842812 1.4488127 1115145
0.06535507 0.15842812 1.4488127 1115144
0.085719809 0.1706149 1.5602599 983559
0.10509952 0.1774395 1.6226703 1246473
0.12609421 0.1848328 1.6902815 1049352
0.16309686 0.21123749 1.9317503 983559
0.22492984 0.26094043 2.3862798 983559
0.24838707 0.26094043 2.3862798 786698
0.2718443 0.26094043 2.3862798 721927
0.29530156 0.26094043 2.3862798 786950
0.16420907 0.13442385 1.2292956 983820
0.17629309 0.13442385 1.2292956 1180937
0 0 0 721157
0 0 0 721157
0 0 0 852487
0 0 0 4597020
0 0 0 4268320
0.54735404 0.29573247 2.7044504 5450786
0.50641668 0.26094043 2.3862798 5976867
0.52987391 0.26094043 2.3862798 5977893
0.67190212 0.31685624 2.8976254 6436389
0.98054034 0.44359875 4.0566759 7225644
0 0 0 6897962
0 0 0 7225389
0.78583729 0.31685624 2.8976254 7817008
0.81432104 0.31685624 2.8976254 8210481
0.98327231 0.36966559 3.380563 8341810
1.355338 0.4928875 4.5074177 8605494
1.399646 0.4928875 4.5074177 8802873
0.92825621 0.31685624 2.8976254 9197115
0.95674002 0.31685624 2.8976254 9196343
0.98522377 0.31685624 2.8976254 9393978
1.0137075 0.31685624 2.8976254 9262649
0.91191745 0.27724922 2.5354223 9000509
0.93684077 0.27724922 2.5354223 8078897
0.9617641 0.27724922 2.5354223 8934713
0.98668742 0.27724922 2.5354223 8867641
1.0116107 0.27724922 2.5354223 2296327
0.97556144 0.26094043 2.3862798 918282
0.60654706 0.15842812 1.4488127 655622
0.5993824 0.15296507 1.3988537 786696
0.61313319 0.15296507 1.3988537 786953
0.62688398 0.15296507 1.3988537 852742
0.64063483 0.15296507 1.3988537 918536
0.65438563 0.15296507 1.3988537 1049352
0.717628 0.16429582 1.5024725 852486
0.76056653 0.1706149 1.5602599 985099
0.84056258 0.1848328 1.6902815 918025
0.97963214 0.21123749 1.9317503 1049608
0.99862134 0.21123749 1.9317503 1115145
1.0176105 0.21123749 1.9317503 984073
1.0365998 0.21123749 1.9317503 983561
1.0555888 0.21123749 1.9317503 918793
1.1876916 0.23347302 2.1350925 851973
1.3508773 0.26094043 2.3862798 721673
1.3743345 0.26094043 2.3862798 786696
1.188123 0.22179937 2.028338 655878
0.96644932 0.1774395 1.6226703 655880
0.9446156 0.1706149 1.5602599 655623
0.95995307 0.1706149 1.5602599 590087
0.97529048 0.1706149 1.5602599 983559
1.0302529 0.1774395 1.6226703 3023134
1.046204 0.1774395 1.6226703 3218458
1.1064112 0.1848328 1.6902815 3350303
1.171854 0.19286901 1.763772 3021594
1.1891921 0.19286901 1.763772 2431002
1.20653 0.19286901 1.763772 1443343
1.2238679 0.19286901 1.763772 918025
1.2412059 0.19286901 1.763772 853003
1.2585438 0.19286901 1.763772 853003
1.2758818 0.19286901 1.763772 786698
1.2932198 0.19286901 1.763772 1838094
1.3701285 0.20163578 1.8439435 7094837
1.4543619 0.21123749 1.9317503 6373942
1.4733511 0.21123749 1.9317503 6373177
1.4923403 0.21123749 1.9317503 7229771
1.5113295 0.21123749 1.9317503 7295048
1.4607588 0.20163578 1.8439435 7753285
1.4788848 0.20163578 1.8439435 7294276
1.4319234 0.19286901 1.763772 6767674
1.4492614 0.19286901 1.763772 6966076
1.4665993 0.19286901 1.763772 4202525
1.4839373 0.19286901 1.763772 2888980
1.5695151 0.20163578 1.8439435 2166546
1.5876411 0.20163578 1.8439435 851973
1.6057671 0.20163578 1.8439435 524294
1.6238931 0.20163578 1.8439435 524294
1.6420193 0.20163578 1.8439435 524294
1.6601453 0.20163578 1.8439435 590087
1.6782713 0.20163578 1.8439435 458757
1.622641 0.19286901 1.763772 524548
1.5716465 0.1848328 1.6902815 655880
1.5247315 0.1774395 1.6226703 590087
1.5406824 0.1774395 1.6226703 524551
1.5566334 0.1774395 1.6226703 1181450
1.5725844 0.1774395 1.6226703 3875098
1.5885353 0.1774395 1.6226703 6702132
1.6044862 0.1774395 1.6226703 6965044
1.6204371 0.1774395 1.6226703 7227704
1.6363881 0.1774395 1.6226703 7753019
1.652339 0.1774395 1.6226703 7818555
1.8957839 0.20163578 1.8439435 7752250
1.9139099 0.20163578 1.8439435 6637366
1.932036 0.20163578 1.8439435 3482153
1.9501621 0.20163578 1.8439435 853261
2.2790704 0.23347302 2.1350925 656395
2.4278398 0.24644375 2.2537088 720903
4.0090804 0.40327156 3.687887 983305
4.0453324 0.40327156 3.687887 787466
6.4139185 0.63371247 5.7952509 656393
5.0329118 0.4928875 4.5074177 852487
5.07722 0.4928875 4.5074177 983559
5.1215281 0.4928875 4.5074177 852231
3.8743768 0.36966559 3.380563 786439
5.210144 0.4928875 4.5074177 918282
5.9112587 0.55449843 5.0708447 852487
5.9611053 0.55449843 5.0708447 721416
4.3716011 0.40327156 3.687887 786696
4.848639 0.44359875 4.0566759 590087
9.7770329 0.88719749 8.1133518 721673
0 0 0 853259
0 0 0 721673
0 0 0 918282
0 0 0 721673
0 0 0 655880
0 0 0 655882
0 0 0 786953
0 0 0 852489
0 0 0 1444880
0 0 0 3350816
0 0 0 3285023
-1.7291236 0.17267001 1.4488127 2955804
-1.7783959 0.1790652 1.5024725 2628384
-1.9840797 0.20144834 1.6902815 2497311
0 0 0 1905174
0 0 0 1773333
0 0 0 1904664
0 0 0 4469823
0 0 0 10056288
-22.612638 2.4173801 20.283379 10908501
-8.9653015 0.96695209 8.1133518 10908757
-7.4046216 0.80579334 6.761126 11040343
-5.5036197 0.60434502 5.0708447 10843734
-5.453773 0.60434502 5.0708447 11498839
-5.4039264 0.60434502 5.0708447 11170898
-5.3540797 0.60434502 5.0708447 11433556
-6.0619807 0.69068003 5.7952509 10974804
0 0 0 10975573
0 0 0 11171923
0 0 0 8015407
-4.5376415 0.53719562 4.5074177 6306341
-4.0440001 0.48347604 4.0566759 2757644
-4.0041227 0.48347604 4.0566759 1049606
-3.9642456 0.48347604 4.0566759 1312781
-3.5676074 0.43952367 3.687887 2756882
-3.5313554 0.43952367 3.687887 3217431
-3.8446138 0.48347604 4.0566759 3413779
-3.8047364 0.48347604 4.0566759 3217683
-4.183177 0.53719562 4.5074177 3282706
-4.1388688 0.53719562 4.5074177 3479318
-4.0945606 0.53719562 4.5074177 3545365
-4.0502524 0.53719562 4.5074177 3348756
-4.0059443 0.53719562 4.5074177 3283219
-3.9616363 0.53719562 4.5074177 3414292
-3.9173281 0.53719562 4.5074177 3283222
-3.8730199 0.53719562 4.5074177 3217686
-3.8287117 0.53719562 4.5074177 3085587
-3.4059634 0.48347604 4.0566759 2954257
-3.366086 0.48347604 4.0566759 1180678
-3.0238259 0.43952367 3.687887 721416
-2.9875739 0.43952367 3.687887 985099
-2.9513218 0.43952367 3.687887 1049351
-3.2065768 0.48347604 4.0566759 853002
-3.1666996 0.48347604 4.0566759 984075
-3.1268222 0.48347604 4.0566759 786696
-3.0869448 0.48347604 4.0566759 852743
-3.0470676 0.48347604 4.0566759 721417
-3.0071902 0.48347604 4.0566759 720903
-2.9673131 0.48347604 4.0566759 786696
-3.2527063 0.53719562 4.5074177 984074
-2.8875585 0.48347604 4.0566759 918538
-3.1640902 0.53719562 4.5074177 1181194
-3.119782 0.53719562 4.5074177 1246987
-3.0754738 0.53719562 4.5074177 1312523
-3.4100614 0.60434502 5.0708447 984072
-3.3602147 0.60434502 5.0708447 985099
-2.9425495 0.53719562 4.5074177 1181197
-2.8982413 0.53719562 4.5074177 1246474
-2.8539333 0.53719562 4.5074177 1378059
-3.1608281 0.60434502 5.0708447 1443850
-3.1109815 0.60434502 5.0708447 983559
-3.0611348 0.60434502 5.0708447 1378316
-3.0112882 0.60434502 5.0708447 1378571
-2.9614415 0.60434502 5.0708447 1114888
-3.3275371 0.69068003 5.7952509 852230
-3.2705696 0.69068003 5.7952509 1246734
-3.2136018 0.69068003 5.7952509 1575695
-3.1566343 0.69068003 5.7952509 1509645
-3.0996668 0.69068003 5.7952509 1574666
-3.0426991 0.69068003 5.7952509 1575181
-2.9857316 0.69068003 5.7952509 1509643
-2.5626686 0.60434502 5.0708447 1378315
-2.8717964 0.69068003 5.7952509 1181707
-2.4629753 0.60434502 5.0708447 852743
-2.4131286 0.60434502 5.0708447 2692372
-2.7008936 0.69068003 5.7952509 3939350
-2.6439261 0.69068003 5.7952509 3610636
-2.5869586 0.69068003 5.7952509 3610640
-2.5299909 0.69068003 5.7952509 3479311
-2.4730234 0.69068003 5.7952509 3413777
-2.4160559 0.69068003 5.7952509 3347214
-2.3590882 0.69068003 5.7952509 2756880
-2.3021207 0.69068003 5.7952509 3084559
-2.2451532 0.69068003 5.7952509 4332559
-2.1881855 0.69068003 5.7952509 6503463
-2.131218 0.69068003 5.7952509 8541755
-1.8149691 0.60434502 5.0708447 8410683
-2.0172827 0.69068003 5.7952509 7425075
-1.7152759 0.60434502 5.0708447 5913386
-1.6654292 0.60434502 5.0708447 6109221
-0.31523561 0.11792098 0.98943311 4729120
-0.29823542 0.11511334 0.96587515 2363404
-0.28202593 0.11243629 0.94341296 918282
-0.27275214 0.11243629 0.94341296 853513
-0.25176817 0.10743912 0.90148348 1181454
-0.23762599 0.10510349 0.88188601 786696
-0.21941712 0.10072417 0.84514076 1116173
-0.20266499 0.096695207 0.81133515 852487
-0.19468953 0.096695207 0.81133515 918025
-0.183053 0.094799221 0.79542661 918281
-0.17873861 0.096695207 0.81133515 2562080
-0.16741484 0.094799221 0.79542661 2365212
-0.15959577 0.094799221 0.79542661 2299165
-0.14885791 0.09297616 0.78012997 2430494
-0.13852525 0.091221891 0.76541048 1773845
-0.13100122 0.091221891 0.76541048 983307
-0.12347721 0.091221891 0.76541048 852743
-0.1138059 0.089532599 0.75123626 720903
-0.10642122 0.089532599 0.75123626 852489
-0.097235866 0.087904729 0.73757738 787468
-0.091651849 0.089532599 0.75123626 786696
-0.084267162 0.089532599 0.75123626 852489
-0.076882474 0.089532599 0.75123626 655880
-0.06823419 0.087904729 0.73757738 786696
-0.059894778 0.086335003 0.72440636 590343
-0.05277383 0.086335003 0.72440636 852747
-0.045652881 0.086335003 0.72440636 656137
-0.038531937 0.086335003 0.72440636 852489
0 0 0 918282
0 0 0 984075
0 0 0 852489
0 0 0 655365
0 0 0 852489
0 0 0 983559
0.021849064 0.16671586 1.3988537 655368
0.035599858 0.16671586 1.3988537 786950
0.051113177 0.17267001 1.4488127 918282
0.073197678 0.19339041 1.6226703 983559
0.089148603 0.19339041 1.6226703 917512
0.10509952 0.19339041 1.6226703 983559
0.12609421 0.20144834 1.6902815 983559
0.16309686 0.23022668 1.9317503 917512
0.22492984 0.28439766 2.3862798 720903
0.24838707 0.28439766 2.3862798 852491
0.2718443 0.28439766 2.3862798 1049098
0.29530156 0.28439766 2.3862798 852743
0.16420907 0.14650787 1.2292956 786696
0.17110801 0.14219883 1.1931399 918281
0.18837713 0.14650787 1.2292956 917509
0 0 0 786696
0 0 0 983303
0 0 0 3415839
0 0 0 5974817
0 0 0 6632745
0 0 0 6632489
0.60052377 0.32231733 2.7044504 6174498
0.67190212 0.34534001 2.8976254 6699559
0.81711692 0.40289667 3.380563 7291435
1.275522 0.60434502 5.0708447 7226927
2.6507373 1.20869 10.141689 7750959
0.78583729 0.34534001 2.8976254 8079408
0.81432104 0.34534001 2.8976254 8145970
0.84280485 0.34534001 2.8976254 8211762
0.93831086 0.37190464 3.1205199 8408115
0.89977241 0.34534001 2.8976254 9064502
0.92825621 0.34534001 2.8976254 8867636
0.95674002 0.34534001 2.8976254 8999479
0.98522377 0.34534001 2.8976254 8933684
0.94612706 0.32231733 2.7044504 8868404
0.91191745 0.30217251 2.5354223 8868150
0.93684077 0.30217251 2.5354223 8277553
0.9617641 0.30217251 2.5354223 8474932
0.98668742 0.30217251 2.5354223 8080179
1.0116107 0.30217251 2.5354223 1311749
0 0 0 1049095
0.67933273 0.19339041 1.6226703 720903
0.5993824 0.16671586 1.3988537 655366
0.61313319 0.16671586 1.3988537 786696
0.62688398 0.16671586 1.3988537 852488
0.64063483 0.16671586 1.3988537 852743
0.67775649 0.17267001 1.4488127 786950
0.69199842 0.17267001 1.4488127 786950
0.7062403 0.17267001 1.4488127 655880
0.77590394 0.18595232 1.5602599 852231
0.822891 0.19339041 1.6226703 852486
0.99862134 0.23022668 1.9317503 786696
1.0176105 0.23022668 1.9317503 721416
1.0365998 0.23022668 1.9317503 655624
1.0555888 0.23022668 1.9317503 786696
1.1283071 0.24173802 2.028338 655366
1.1482457 0.24173802 2.028338 655366
1.1681844 0.24173802 2.028338 590087
0.91394079 0.18595232 1.5602599 787208
0.92927819 0.18595232 1.5602599 721927
0.9446156 0.18595232 1.5602599 524294
0.92439926 0.1790652 1.5024725 721161
0.97529048 0.18595232 1.5602599 2231821
0.99062788 0.18595232 1.5602599 4334363
1.046204 0.19339041 1.6226703 4334364
1.1064112 0.20144834 1.6902815 4136986
1.1230268 0.20144834 1.6902815 4005401
1.1396424 0.20144834 1.6902815 2888722
1.20653 0.21020697 1.763772 2363413
1.2238679 0.21020697 1.763772 2035990
1.2412059 0.21020697 1.763772 2692890
1.2585438 0.21020697 1.763772 3217436
1.2758818 0.21020697 1.763772 3020827
1.2932198 0.21020697 1.763772 2626323
1.3701285 0.21976183 1.8439435 4006429
1.3882545 0.21976183 1.8439435 3940121
1.4063807 0.21976183 1.8439435 4333852
1.4923403 0.23022668 1.9317503 4334879
1.4426327 0.21976183 1.8439435 4532257
1.4607588 0.21976183 1.8439435 5189160
1.4145855 0.21020697 1.763772 5188902
1.4319234 0.21020697 1.763772 5387051
1.4492614 0.21020697 1.763772 5190959
1.4665993 0.21020697 1.763772 3480859
1.551389 0.21976183 1.8439435 2954516
1.5695151 0.21976183 1.8439435 1903118
1.5876411 0.21976183 1.8439435 984075
1.6057671 0.21976183 1.8439435 720903
1.6238931 0.21976183 1.8439435 918795
1.6420193 0.21976183 1.8439435 853003
1.6601453 0.21976183 1.8439435 787720
1.6782713 0.21976183 1.8439435 787720
1.6963974 0.21976183 1.8439435 786949
1.7145234 0.21976183 1.8439435 852743
1.6573169 0.21020697 1.763772 787208
1.6746548 0.21020697 1.763772 787209
1.6919928 0.21020697 1.763772 1180937
1.5725844 0.19339041 1.6226703 3810334
1.5885353 0.19339041 1.6226703 6308146
1.6044862 0.19339041 1.6226703 6768183
1.6204371 0.19339041 1.6226703 6242091
1.6363881 0.19339041 1.6226703 6570030
1.652339 0.19339041 1.6226703 6833716
1.8133585 0.21020697 1.763772 6240559
1.8306965 0.21020697 1.763772 5389104
1.8480344 0.21020697 1.763772 4007722
1.8653724 0.21020697 1.763772 1181202
1.9682881 0.21976183 1.8439435 721675
2.3000586 0.25446108 2.1350925 655881
3.1499918 0.34534001 2.8976254 983561
0 0 0 655881
0 0 0 524552
5.0329118 0.53719562 4.5074177 721159
3.5149984 0.37190464 3.1205199 1049096
3.5456731 0.37190464 3.1205199 983305
3.3208945 0.34534001 2.8976254 786696
3.1260862 0.32231733 2.7044504 655880
4.2990971 0.43952367 3.687887 787720
3.6683726 0.37190464 3.1205199 1049868
3.6990473 0.37190464 3.1205199 918282
3.7297223 0.37190464 3.1205199 655880
12.221291 1.20869 10.141689 655880
0 0 0 721160
0 0 0 721160
0 0 0 524808
0 0 0 655879
0 0 0 786696
0 0 0 721673
0 0 0 721672
0 0 0 852486
0 0 0 1707279
0 0 0 2890522
0 0 0 2890521
-1.7931653 0.19383457 1.5024725 2692889
-1.7783959 0.19383457 1.5024725 2627611
-1.9047166 0.20934133 1.6226703 2825503
0 0 0 2759969
0 0 0 1904661
0 0 0 1707284
0 0 0 2627620
0 0 0 7822941
0 0 0 10777171
-22.413252 2.6167667 20.283379 10842964
-8.8855467 1.0467067 8.1133518 10777173
-5.5036197 0.65419167 5.0708447 10908501
-5.453773 0.65419167 5.0708447 11433558
-5.4039264 0.65419167 5.0708447 11039573
-4.7591825 0.58150375 4.5074177 11105109
0 0 0 11434070
0 0 0 10973778
0 0 0 11105102
0 0 0 7949616
-4.5376415 0.58150375 4.5074177 6044456
-4.4933338 0.58150375 4.5074177 2692363
-4.4490256 0.58150375 4.5074177 1049352
-3.9642456 0.52335334 4.0566759 1115914
-3.9243684 0.52335334 4.0566759 2691346
-3.5313554 0.47577575 3.687887 3282708
-3.8446138 0.52335334 4.0566759 3676438
-3.8047364 0.52335334 4.0566759 3349015
-4.183177 0.58150375 4.5074177 3545878
-4.1388688 0.58150375 4.5074177 3742743
-4.0945606 0.58150375 4.5074177 3611669
-4.0502524 0.58150375 4.5074177 3545876
-4.0059443 0.58150375 4.5074177 3676436
-3.9616363 0.58150375 4.5074177 3676179
-3.9173281 0.58150375 4.5074177 3480085
-3.8730199 0.58150375 4.5074177 3283476
-3.8287117 0.58150375 4.5074177 3217429
-3.4059634 0.52335334 4.0566759 2888463
-3.366086 0.52335334 4.0566759 1115657
-3.0238259 0.47577575 3.687887 721929
-2.9875739 0.47577575 3.687887 786951
-2.9513218 0.47577575 3.687887 655624
-2.9150696 0.47577575 3.687887 786951
-3.1666996 0.52335334 4.0566759 917766
-2.8425655 0.47577575 3.687887 786696
-2.8063133 0.47577575 3.687887 1049352
-2.7700613 0.47577575 3.687887 918281
-3.0071902 0.52335334 4.0566759 918282
-2.6975572 0.47577575 3.687887 1246731
-2.661305 0.47577575 3.687887 1115144
-2.6250529 0.47577575 3.687887 1050122
-3.1640902 0.58150375 4.5074177 1312266
-3.119782 0.58150375 4.5074177 1246731
-3.0754738 0.58150375 4.5074177 1049352
-3.4100614 0.65419167 5.0708447 1115401
-3.3602147 0.65419167 5.0708447 1049867
-2.9425495 0.58150375 4.5074177 852746
-2.8982413 0.58150375 4.5074177 1246730
-2.8539333 0.58150375 4.5074177 1904144
-3.1608281 0.65419167 5.0708447 1772815
-3.1109815 0.65419167 5.0708447 1509900
-3.0611348 0.65419167 5.0708447 327682
-3.0112882 0.65419167 5.0708447 524294
-2.9614415 0.65419167 5.0708447 393220
-2.9115949 0.65419167 5.0708447 720903
-3.2705696 0.74764758 5.7952509 786696
-2.8119018 0.65419167 5.0708447 1312781
-3.1566343 0.74764758 5.7952509 1050122
-3.0996668 0.74764758 5.7952509 1049609
-3.0426991 0.74764758 5.7952509 852487
-2.9857316 0.74764758 5.7952509 786951
-2.9287641 0.74764758 5.7952509 720902
-2.8717964 0.74764758 5.7952509 852232
-2.8148289 0.74764758 5.7952509 524551
-2.7578614 0.74764758 5.7952509 1311754
-2.363282 0.65419167 5.0708447 1508617
-2.3134353 0.65419167 5.0708447 1640711
-2.5869586 0.74764758 5.7952509 3085073
-2.5299909 0.74764758 5.7952509 3610900
-2.4730234 0.74764758 5.7952509 3610388
-2.4160559 0.74764758 5.7952509 3348499
-2.3590882 0.74764758 5.7952509 2954257
-2.3021207 0.74764758 5.7952509 3151123
-2.2451532 0.74764758 5.7952509 3479317
-2.1881855 0.74764758 5.7952509 3807767
-2.4864209 0.87225556 6.761126 8211773
-1.8149691 0.65419167 5.0708447 7292718
-2.0172827 0.74764758 5.7952509 5057823
-1.7152759 0.65419167 5.0708447 4205095
-1.6654292 0.65419167 5.0708447 2427394
-0.31523561 0.12764716 0.98943311 2887696
-0.2912997 0.12171008 0.94341296 1180940
-0.28202593 0.12171008 0.94341296 1246731
-0.26655322 0.11894394 0.92197174 1247501
-0.24629496 0.11377246 0.88188601 721673
-0.23257011 0.11135177 0.86312246 853002
-0.21941712 0.10903195 0.84514076 1050893
-0.20266499 0.10467067 0.81133515 590088
-0.19468953 0.10467067 0.81133515 721418
-0.183053 0.1026183 0.79542661 983817
-0.17873861 0.10467067 0.81133515 2562593
-0.16741484 0.1026183 0.79542661 2562591
-0.16278769 0.10467067 0.81133515 2364958
-0.14885791 0.10064487 0.78012997 2364955
-0.13852525 0.098745905 0.76541048 1509645
-0.13100122 0.098745905 0.76541048 787466
-0.12119059 0.096917287 0.75123626 786696
-0.1138059 0.096917287 0.75123626 787466
-0.10642122 0.096917287 0.75123626 918536
-0.099036537 0.096917287 0.75123626 787466
-0.091651849 0.096917287 0.75123626 655882
-0.084267162 0.096917287 0.75123626 853259
-0.075484611 0.09515515 0.73757738 786950
-0.067015722 0.093455948 0.72440636 655880
-0.05782944 0.090233333 0.69942683 590088
-0.050954044 0.090233333 0.69942683 852489
-0.044851959 0.091816381 0.71169752 918282
-0.037855938 0.091816381 0.71169752 852999
-0.030859921 0.091816381 0.71169752 918279
-0.023863902 0.091816381 0.71169752 852747
0 0 0 851974
0 0 0 655366
0 0 0 655364
0.0080982689 0.18046667 1.3988537 721157
0.021849064 0.18046667 1.3988537 655880
0 0 0 852489
0 0 0 786696
0 0 0 720905
0.089148603 0.20934133 1.6226703 917766
0.13828884 0.27544913 2.1350925 852489
0.14410767 0.24921587 1.9317503 852489
0.16309686 0.24921587 1.9317503 917766
0.18208605 0.24921587 1.9317503 917512
0.2345878 0.29075187 2.2537088 852489
0.2718443 0.30785489 2.3862798 720905
0.27889591 0.29075187 2.2537088 918536
0.15937939 0.15392745 1.1931399 721675
0.17110801 0.15392745 1.1931399 786696
0.18283664 0.15392745 1.1931399 851973
0 0 0 589831
0 0 0 983559
0 0 0 1444365
0 0 0 2691086
0 0 0 3479572
0 0 0 3743001
0 0 0 3874330
0.78388578 0.43612778 3.380563 3939351
1.2256753 0.65419167 5.0708447 3940121
1.275522 0.65419167 5.0708447 4530970
1.7671582 0.87225556 6.761126 4464918
1.8336203 0.87225556 6.761126 4792855
0.81432104 0.37382379 2.8976254 5909532
0.78661782 0.3489022 2.7044504 6567198
0.87128866 0.37382379 2.8976254 6895649
0.89977241 0.37382379 2.8976254 7749928
0.92825621 0.37382379 2.8976254 8079149
0.95674002 0.37382379 2.8976254 8539443
0.91954219 0.3489022 2.7044504 8933169
0.94612706 0.3489022 2.7044504 8868663
0.91191745 0.32709584 2.5354223 8868404
0.93684077 0.32709584 2.5354223 8670773
0.9617641 0.32709584 2.5354223 8802357
0.92864698 0.30785489 2.3862798 4990746
0.95210421 0.30785489 2.3862798 1049099
0.92136365 0.29075187 2.2537088 983305
0.67933273 0.20934133 1.6226703 721157
0.69528365 0.20934133 1.6226703 1179910
0.63503081 0.1869119 1.4488127 786950
0.62688398 0.18046667 1.3988537 655880
0.64063483 0.18046667 1.3988537 1049095
0.65438563 0.18046667 1.3988537 1180938
0.69199842 0.1869119 1.4488127 918022
0.7062403 0.1869119 1.4488127 786951
0.72048217 0.1869119 1.4488127 787208
0.79124135 0.20128974 1.5602599 852489
0.99862134 0.24921587 1.9317503 786950
0.85479283 0.20934133 1.6226703 786950
1.0365998 0.24921587 1.9317503 786953
0.8525911 0.20128974 1.5602599 655880
1.0257336 0.23788787 1.8439435 590087
1.0438597 0.23788787 1.8439435 1181454
0.89860338 0.20128974 1.5602599 1378317
0.88009113 0.19383457 1.5024725 1640972
0.89486051 0.19383457 1.5024725 1377289
0.90962988 0.19383457 1.5024725 721159
0.92439926 0.19383457 1.5024725 917512
0.97529048 0.20128974 1.5602599 3216916
1.0302529 0.20934133 1.6226703 4137240
1.046204 0.20934133 1.6226703 3940120
1.1545161 0.22754492 1.763772 3940379
1.1230268 0.21806389 1.6902815 3809051
1.1396424 0.21806389 1.6902815 3676181
1.20653 0.22754492 1.763772 2429458
1.2238679 0.22754492 1.763772 1904399
1.2412059 0.22754492 1.763772 1970194
1.2061045 0.21806389 1.6902815 1706250
1.22272 0.21806389 1.6902815 1772045
1.2393357 0.21806389 1.6902815 1968911
1.3105577 0.22754492 1.763772 2955034
1.3882545 0.23788787 1.8439435 3347989
1.4063807 0.23788787 1.8439435 3676950
1.4245067 0.23788787 1.8439435 3743000
1.4426327 0.23788787 1.8439435 3742744
1.3972476 0.22754492 1.763772 3874073
1.4145855 0.22754492 1.763772 4136730
1.4319234 0.22754492 1.763772 3808537
1.4492614 0.22754492 1.763772 4070939
1.4665993 0.22754492 1.763772 3413269
1.551389 0.23788787 1.8439435 2559505
1.5695151 0.23788787 1.8439435 1706252
1.5876411 0.23788787 1.8439435 1509643
1.6057671 0.23788787 1.8439435 1509641
1.6238931 0.23788787 1.8439435 1838094
1.6420193 0.23788787 1.8439435 2035217
1.6601453 0.23788787 1.8439435 2495766
1.6782713 0.23788787 1.8439435 2495508
1.6963974 0.23788787 1.8439435 2561302
1.7145234 0.23788787 1.8439435 2626839
1.6573169 0.22754492 1.763772 2561048
1.6746548 0.22754492 1.763772 2101782
1.6214931 0.21806389 1.6902815 2233107
1.5725844 0.20934133 1.6226703 3217685
1.5885353 0.20934133 1.6226703 5320229
1.6044862 0.20934133 1.6226703 5977645
1.6204371 0.20934133 1.6226703 5518638
1.6363881 0.20934133 1.6226703 6045497
1.7211864 0.21806389 1.6902815 6307384
1.7378019 0.21806389 1.6902815 6174769
1.8306965 0.22754492 1.763772 5387052
1.8480344 0.22754492 1.763772 3547428
1.8653724 0.22754492 1.763772 1246737
1.9682881 0.23788787 1.8439435 983819
2.1850557 0.26167667 2.028338 918023
3.1499918 0.37382379 2.8976254 984073
3.1784754 0.37382379 2.8976254 984074
3.2069592 0.37382379 2.8976254 1312525
3.2354431 0.37382379 2.8976254 1114889
3.2639267 0.37382379 2.8976254 983305
3.2924106 0.37382379 2.8976254 852491
3.3208945 0.37382379 2.8976254 721160
3.3493781 0.37382379 2.8976254 852231
3.377862 0.37382379 2.8976254 918025
3.6683726 0.40257949 3.1205199 918279
3.6990473 0.40257949 3.1205199 786950
12.121597 1.3083833 10.141689 655623
0 0 0 655880
0 0 0 655881
0 0 0 721675
0 0 0 655880
0 0 0 983559
0 0 0 852489
0 0 0 787209
0 0 0 721673
0 0 0 721673
0 0 0 1181708
0 0 0 2759196
0 0 0 2759710
-1.7931653 0.20860395 1.5024725 2825503
-1.7783959 0.20860395 1.5024725 2693917
-1.8314583 0.21662718 1.5602599 2496538
-2.3609571 0.28161535 2.028338 2233623
0 0 0 2431004
0 0 0 2365213
0 0 0 2364959
0 0 0 4273216
0 0 0 9465184
0 0 0 10646868
-8.8855467 1.1264614 8.1133518 10778452
-5.5036197 0.70403832 5.0708447 11104851
-4.8477983 0.62581187 4.5074177 10974550
-4.3231416 0.56323069 4.0566759 11236950
-4.2832642 0.56323069 4.0566759 11236437
0 0 0 11171157
0 0 0 10974293
0 0 0 10842444
0 0 0 8146734
-4.5376415 0.62581187 4.5074177 5781540
-4.4933338 0.62581187 4.5074177 3283733
-4.4490256 0.62581187 4.5074177 1049352
-4.4047174 0.62581187 4.5074177 1180938
-3.9243684 0.56323069 4.0566759 2297876
-3.884491 0.56323069 4.0566759 3414292
-3.8446138 0.56323069 4.0566759 3349015
-4.2274847 0.62581187 4.5074177 3610904
-4.183177 0.62581187 4.5074177 3545878
-4.1388688 0.62581187 4.5074177 3545620
-4.0945606 0.62581187 4.5074177 3414036
-4.0502524 0.62581187 4.5074177 3348242
-4.0059443 0.62581187 4.5074177 3283219
-3.9616363 0.62581187 4.5074177 3217683
-3.9173281 0.62581187 4.5074177 3479828
-3.8730199 0.62581187 4.5074177 3150866
-3.8287117 0.62581187 4.5074177 2954259
-3.4059634 0.56323069 4.0566759 1705480
-3.366086 0.56323069 4.0566759 918282
-3.3262088 0.56323069 4.0566759 1049868
-3.2863314 0.56323069 4.0566759 852489
-2.9513218 0.51202786 3.687887 852743
-2.9150696 0.51202786 3.687887 1049609
-3.1666996 0.56323069 4.0566759 1049353
-2.8425655 0.51202786 3.687887 983560
-2.8063133 0.51202786 3.687887 983816
-2.7700613 0.51202786 3.687887 1115145
-2.7338092 0.51202786 3.687887 918536
-2.6975572 0.51202786 3.687887 1050122
-2.661305 0.51202786 3.687887 918535
-2.8875585 0.56323069 4.0566759 1115144
-3.1640902 0.62581187 4.5074177 1115144
-3.119782 0.62581187 4.5074177 1049351
-3.459908 0.70403832 5.0708447 1246731
-3.4100614 0.70403832 5.0708447 1115145
-3.3602147 0.70403832 5.0708447 524552
-2.9425495 0.62581187 4.5074177 655625
-2.8982413 0.62581187 4.5074177 1379087
-2.8539333 0.62581187 4.5074177 2035986
-3.1608281 0.70403832 5.0708447 1904401
-3.1109815 0.70403832 5.0708447 1904401
-3.0611348 0.70403832 5.0708447 984329
-2.6767008 0.62581187 4.5074177 787463
-2.9614415 0.70403832 5.0708447 786696
-2.9115949 0.70403832 5.0708447 786695
-3.2705696 0.8046152 5.7952509 720905
-3.2136018 0.8046152 5.7952509 984075
-3.1566343 0.8046152 5.7952509 851973
-3.0996668 0.8046152 5.7952509 721160
-3.0426991 0.8046152 5.7952509 786951
-2.9857316 0.8046152 5.7952509 983818
-2.9287641 0.8046152 5.7952509 852488
-2.8717964 0.8046152 5.7952509 917767
-2.8148289 0.8046152 5.7952509 1180938
-2.4131286 0.70403832 5.0708447 1706509
-2.363282 0.70403832 5.0708447 1180937
-2.3134353 0.70403832 5.0708447 1706252
-2.5869586 0.8046152 5.7952509 2362897
-2.5299909 0.8046152 5.7952509 3414035
-2.4730234 0.8046152 5.7952509 3216146
-2.4160559 0.8046152 5.7952509 2756880
-2.3590882 0.8046152 5.7952509 2493967
-2.3021207 0.8046152 5.7952509 3020050
-2.2451532 0.8046152 5.7952509 3151122
-2.1881855 0.8046152 5.7952509 3545111
-2.4864209 0.93871772 6.761126 8146754
-2.0742505 0.8046152 5.7952509 7555892
-2.0172827 0.8046152 5.7952509 4467487
-1.9603152 0.8046152 5.7952509 4138786
-1.9033476 0.8046152 5.7952509 1705218
-0.31523561 0.13737333 0.98943311 1507846
-0.28467926 0.12800696 0.92197174 2365724
-0.26363292 0.12244144 0.88188601 1246988
-0.25496393 0.12244144 0.88188601 788233
-0.24629496 0.12244144 0.88188601 590602
-0.22772489 0.11733972 0.84514076 1181709
-0.21941712 0.11733972 0.84514076 852745
-0.20266499 0.11264613 0.81133515 721162
-0.19468953 0.11264613 0.81133515 786954
-0.183053 0.11043738 0.79542661 1970968
-0.17523393 0.11043738 0.79542661 2694691
-0.16741484 0.11043738 0.79542661 2497054
-0.15959577 0.11043738 0.79542661 1905947
-0.15177669 0.11043738 0.79542661 2628384
-0.13852525 0.10626993 0.76541048 1246477
-0.13100122 0.10626993 0.76541048 721673
-0.12119059 0.10430197 0.75123626 852743
-0.1138059 0.10430197 0.75123626 655880
-0.10842916 0.10626993 0.76541048 655882
-0.099036537 0.10430197 0.75123626 918536
-0.088378564 0.1005769 0.72440636 852489
-0.081257619 0.1005769 0.72440636 721675
-0.072836034 0.098812394 0.71169752 720905
-0.065840013 0.098812394 0.71169752 721160
-0.05782944 0.097108729 0.69942683 590087
-0.050954044 0.097108729 0.69942683 852489
-0.044078644 0.097108729 0.69942683 786953
-0.037203249 0.097108729 0.69942683 786695
-0.030859921 0.098812394 0.71169752 917769
-0.023863902 0.098812394 0.71169752 984330
0 0 0 852489
0 0 0 720899
0 0 0 590087
0 0 0 851975
0 0 0 720903
0 0 0 918282
0 0 0 720903
0 0 0 786696
0.11730079 0.29643717 2.1350925 720903
0.13828884 0.29643717 2.1350925 852489
0.11639466 0.21662718 1.5602599 851975
0.11810462 0.19421746 1.3988537 590602
0.13656454 0.2011538 1.4488127 721159
0.15080643 0.2011538 1.4488127 720903
0.22006443 0.26820505 1.9317503 786950
0.14765078 0.16565607 1.1931399 1114887
0.1548257 0.16092305 1.1590502 852491
0.17110801 0.16565607 1.1931399 917512
0.19426392 0.17600958 1.2677112 852744
0 0 0 589832
0 0 0 852743
0 0 0 1312524
0 0 0 1312266
0 0 0 1114888
0 0 0 1574668
0 0 0 3545369
