# .PCD v0.7 - Point Cloud Data file format
VERSION 0.7
FIELDS x y z rgb
SIZE 4 4 4 4
TYPE F F F U
COUNT 1 1 1 1
WIDTH 1336
HEIGHT 1
VIEWPOINT 0 0 0 1 0 0 0
POINTS 1336
DATA ascii
1.2224137 2.132288 4.5074177 11614498
1.2667217 2.132288 4.5074177 12203812
1.3110299 2.132288 4.5074177 11614757
0.81320274 1.2793726 2.7044504 11222050
0.8397876 1.2793726 2.7044504 11483939
0.81222421 1.1994119 2.5354223 11942435
0.83714753 1.1994119 2.5354223 11876641
0.86207086 1.1994119 2.5354223 11548451
0.88699412 1.1994119 2.5354223 11745316
0.91191745 1.1994119 2.5354223 11548451
0.88173252 1.1288582 2.3862798 11613985
0.90518975 1.1288582 2.3862798 11877158
0.65779161 0.79960787 1.6902815 11811361
0.64743084 0.7676236 1.6226703 11680034
0.66338181 0.7676236 1.6226703 11811361
0.65320456 0.73809963 1.5602599 11614757
0.62078893 0.68537819 1.4488127 11614498
0.61313319 0.66174448 1.3988537 11745570
0.62688398 0.66174448 1.3988537 11811875
0.64063483 0.66174448 1.3988537 11746342
0.65438563 0.66174448 1.3988537 11681061
0.66813642 0.66174448 1.3988537 11811876
0.65915763 0.63968629 1.3522252 11614756
0.695638 0.66174448 1.3988537 11614242
0.6857425 0.63968629 1.3522252 11548964
0.69903493 0.63968629 1.3522252 11549477
0.71232736 0.63968629 1.3522252 11745828
0.75064117 0.66174448 1.3988537 11417633
0.82101363 0.71076262 1.5024725 11221539
0.8679285 0.73809963 1.5602599 11483169
0.91859657 0.7676236 1.6226703 11549221
0.93454748 0.7676236 1.6226703 11286564
0.9504984 0.7676236 1.6226703 11219999
1.4212489 1.1288582 2.3862798 11024160
1.4447062 1.1288582 2.3862798 11089697
1.4681635 1.1288582 2.3862798 11286309
1.4916207 1.1288582 2.3862798 11155491
1.5150779 1.1288582 2.3862798 10892576
1.6346936 1.1994119 2.5354223 11089955
1.6596169 1.1994119 2.5354223 10827556
1.6845403 1.1994119 2.5354223 10762018
1.1891921 0.83437347 1.763772 10630945
1.1100076 0.7676236 1.6226703 10499874
1.0826524 0.73809963 1.5602599 10368288
1.0979899 0.73809963 1.5602599 10040095
1.072093 0.71076262 1.5024725 10301984
1.1286647 0.73809963 1.5602599 10761248
1.1440022 0.73809963 1.5602599 10564640
1.1164011 0.71076262 1.5024725 10695715
1.1311704 0.71076262 1.5024725 10695714
1.1459398 0.71076262 1.5024725 10564640
1.1607091 0.71076262 1.5024725 10564640
1.2206893 0.73809963 1.5602599 10630431
1.2360268 0.73809963 1.5602599 10434081
1.3014187 0.7676236 1.6226703 10761249
1.37226 0.79960787 1.6902815 10433570
1.3333205 0.7676236 1.6226703 10368288
1.3492714 0.7676236 1.6226703 10368291
1.2189485 0.68537819 1.4488127 9909024
1.2331904 0.68537819 1.4488127 9712161
1.3971242 0.7676236 1.6226703 10236707
1.4130751 0.7676236 1.6226703 9843491
1.429026 0.7676236 1.6226703 9712161
1.4449769 0.7676236 1.6226703 9777186
1.4609278 0.7676236 1.6226703 10104351
1.5384154 0.79960787 1.6902815 10236193
1.4928297 0.7676236 1.6226703 9974302
1.3970191 0.71076262 1.5024725 10368288
1.4117885 0.71076262 1.5024725 10171425
1.4814255 0.73809963 1.5602599 10170913
1.496763 0.73809963 1.5602599 10170656
1.5121003 0.73809963 1.5602599 10040610
1.2810768 0.61905128 1.3086051 10105378
1.3831778 0.66174448 1.3988537 9974817
1.3969285 0.66174448 1.3988537 9646622
1.4610606 0.68537819 1.4488127 9515296
1.5299435 0.71076262 1.5024725 9778470
1.5447129 0.71076262 1.5024725 9449507
1.5594822 0.71076262 1.5024725 9515044
1.5180283 0.68537819 1.4488127 9384225
1.5322702 0.68537819 1.4488127 9844003
1.546512 0.68537819 1.4488127 9712929
1.4567037 0.63968629 1.3522252 9713442
1.5206857 0.66174448 1.3988537 9582372
1.5344365 0.66174448 1.3988537 9516582
1.5481873 0.66174448 1.3988537 9843747
1.6177216 0.68537819 1.4488127 9515298
1.6319634 0.68537819 1.4488127 9778983
0 0 0 9646622
0 0 0 9647909
0 0 0 9319715
0 0 0 9253922
0 0 0 9647909
0 0 0 9647909
0 0 0 9384737
0 0 0 9319715
0 0 0 9253922
0 0 0 9319717
0 0 0 9319715
0 0 0 9384225
0 0 0 9188133
0 0 0 9253926
0 0 0 9516840
0 0 0 9385254
0 0 0 9253668
0 0 0 8926246
0 0 0 8860194
0 0 0 9057315
0 0 0 8926500
0 0 0 9057572
0 0 0 9253408
0 0 0 9058081
0 0 0 9517092
0 0 0 9254692
0 0 0 9188129
-1.2223048 0.52944225 1.0963988 9056798
-1.1796448 0.51550955 1.0675462 9057311
-1.1691508 0.51550955 1.0675462 8991520
-1.2230266 0.54414898 1.1268544 8990237
-1.3221267 0.59361702 1.2292956 9187614
-1.3100427 0.59361702 1.2292956 9122336
-1.3385199 0.6121676 1.2677112 9122336
-1.4144621 0.65297872 1.3522252 9187616
-1.4011697 0.65297872 1.3522252 9253152
-1.3011349 0.6121676 1.2677112 9384995
-1.2886733 0.6121676 1.2677112 9384225
-0.99606764 0.47778934 0.98943311 9318432
-0.84249997 0.40811172 0.84514076 9449503
-0.81716794 0.39978293 0.82789302 9515296
-0.8090297 0.39978293 0.82789302 9646884
-0.80089146 0.39978293 0.82789302 9581089
-0.94743681 0.47778934 0.98943311 9909280
0 0 0 9712415
0 0 0 9777438
0 0 0 9975331
0 0 0 10237732
0 0 0 10435109
0 0 0 10303265
-1.0014861 0.54414898 1.1268544 10368288
-0.99040908 0.54414898 1.1268544 10368289
-1.2157224 0.67549527 1.3988537 10565408
-1.2019717 0.67549527 1.3988537 10368288
-1.2306573 0.69962007 1.4488127 10696225
0 0 0 10433567
0 0 0 10040097
0 0 0 10302497
-1.3145325 0.78357452 1.6226703 10302495
-1.2023904 0.725532 1.5024725 10236446
-1.1057161 0.67549527 1.3988537 10564894
-1.130964 0.69962007 1.4488127 10564894
-1.1167221 0.69962007 1.4488127 10368032
-1.1024803 0.69962007 1.4488127 10433825
-1.0882384 0.69962007 1.4488127 10171681
-1.1137742 0.725532 1.5024725 10302495
-1.1869252 0.78357452 1.6226703 10696226
-1.4637178 0.97946817 2.028338 10433570
-1.5197675 1.0310191 2.1350925 10434083
-1.5820451 1.088298 2.2537088 10696997
-1.559891 1.088298 2.2537088 10564640
0 0 0 10564896
0 0 0 10892576
0 0 0 10827294
0 0 0 10565152
-8.6947231 6.5297875 13.522252 10761762
-8.561799 6.5297875 13.522252 10696480
-8.428875 6.5297875 13.522252 10631200
-12.443926 9.7946815 20.283379 10958367
-8.1630259 6.5297875 13.522252 10827812
-6.0225763 4.8973408 10.141689 10959652
-7.8971772 6.5297875 13.522252 10893346
0 0 0 11090468
0 0 0 10828066
-4.499043 3.9178727 8.1133518 11089955
-1.2275801 1.088298 2.2537088 11090210
-1.2763333 1.1523155 2.3862798 11417378
-1.3311809 1.2243352 2.5354223 11024162
-1.3062576 1.2243352 2.5354223 11155746
-1.4643821 1.3992401 2.8976254 11352353
-1.4358982 1.3992401 2.8976254 11155490
-1.4074144 1.3992401 2.8976254 11221539
-1.4850023 1.5068741 3.1205199 11417633
-1.3504468 1.3992401 2.8976254 11483169
-1.3219631 1.3992401 2.8976254 11614756
-1.2072473 1.3059574 2.7044504 11221024
-1.1806624 1.3059574 2.7044504 11089951
-1.2365117 1.3992401 2.8976254 11615009
-1.8791547 2.1765959 4.5074177 11220769
-1.8348465 2.1765959 4.5074177 11286306
-1.7905384 2.1765959 4.5074177 11548449
-1.7462304 2.1765959 4.5074177 11482913
-1.5317299 1.9589363 4.0566759 11024160
-1.4918526 1.9589363 4.0566759 11417378
-1.2099794 1.6324469 3.380563 11417376
-0.70604903 0.97946817 2.028338 11286562
-0.52777719 0.75343704 1.5602599 11351583
-0.45942873 0.67549527 1.3988537 10893089
-0.44567794 0.67549527 1.3988537 11089183
-0.37957233 0.59361702 1.2292956 11154721
-0.29578328 0.47778934 0.98943311 11023905
-0.28605711 0.47778934 0.98943311 11351328
-0.27633095 0.47778934 0.98943311 11351584
-0.26660478 0.47778934 0.98943311 11089439
-0.23936415 0.44521278 0.92197174 11286560
-0.22518331 0.43531916 0.90148348 11221281
-0.19866279 0.39978293 0.82789302 10892831
-0.19052456 0.39978293 0.82789302 10761501
-0.18238634 0.39978293 0.82789302 10957597
-0.17424811 0.39978293 0.82789302 10761760
-0.16278769 0.39178726 0.81133515 10958628
-0.14885791 0.37671852 0.78012997 11089699
-0.1411892 0.37671852 0.78012997 10827037
-0.13100122 0.36961061 0.76541048 11089951
-0.12347721 0.36961061 0.76541048 11088415
-0.11818306 0.37671852 0.78012997 11285792
-0.11051435 0.37671852 0.78012997 11285790
-0.10695945 0.39178726 0.81133515 11219488
-0.098983996 0.39178726 0.81133515 11219997
-0.091008537 0.39178726 0.81133515 10892576
-0.083033077 0.39178726 0.81133515 11154206
-0.078185014 0.40811172 0.84514076 11024160
-0.069877237 0.40811172 0.84514076 11088667
-0.061569467 0.40811172 0.84514076 11351585
-0.053261697 0.40811172 0.84514076 11286049
-0.0440365 0.39978293 0.82789302 11024160
-0.035898276 0.39978293 0.82789302 11221026
-0.027760049 0.39978293 0.82789302 11416865
-0.02003061 0.40811172 0.84514076 11088925
-0.011722839 0.40811172 0.84514076 11286305
-0.0034150674 0.40811172 0.84514076 11285792
0 0 0 11548704
0.015086258 0.46641338 0.96587515 11548446
0.025809899 0.48973408 1.014169 11810336
0.035779227 0.48973408 1.014169 11614239
0 0 0 11482910
0 0 0 11482912
0 0 0 11482398
0 0 0 11613983
0.13700137 0.78357452 1.6226703 11613471
0.15295228 0.78357452 1.6226703 11482913
0.17594084 0.81622344 1.6902815 11482658
0.2009284 0.85171139 1.763772 11286560
0.23905364 0.93282676 1.9317503 11416863
0.25804281 0.93282676 1.9317503 11483171
0.32320404 1.088298 2.2537088 11352353
0.3453581 1.088298 2.2537088 11024162
0.36751217 1.088298 2.2537088 11286821
0.38966623 1.088298 2.2537088 11548450
0.92659557 2.4486704 5.0708447 11285534
0.60088754 1.5068741 3.1205199 11286306
0.63156235 1.5068741 3.1205199 11548450
0.66223723 1.5068741 3.1205199 11482400
0.6929121 1.5068741 3.1205199 11482658
0.67190212 1.3992401 2.8976254 11483169
0.89140022 1.7808511 3.687887 11483423
1.1337974 2.1765959 4.5074177 11745568
1.1781055 2.1765959 4.5074177 11811618
1.2224137 2.1765959 4.5074177 11417376
1.4250619 2.4486704 5.0708447 11548963
1.4749085 2.4486704 5.0708447 11745825
1.5247551 2.4486704 5.0708447 11418146
0.96898574 1.5068741 3.1205199 11615269
0.86637247 1.3059574 2.7044504 11613985
0.83714753 1.2243352 2.5354223 11745314
0.86207086 1.2243352 2.5354223 11615009
0.88699412 1.2243352 2.5354223 11352098
0.91191745 1.2243352 2.5354223 11548705
0.93684077 1.2243352 2.5354223 11352353
0.90518975 1.1523155 2.3862798 11680548
0.65779161 0.81622344 1.6902815 11680035
0.64743084 0.78357452 1.6226703 11482913
0.66338181 0.78357452 1.6226703 11614243
0.60654706 0.69962007 1.4488127 11548964
0.5993824 0.67549527 1.3988537 11483427
0.61313319 0.67549527 1.3988537 11353123
0.62688398 0.67549527 1.3988537 11876900
0.64063483 0.67549527 1.3988537 11614241
0.65438563 0.67549527 1.3988537 11614757
0.66813642 0.67549527 1.3988537 11745568
0.68188721 0.67549527 1.3988537 11745826
0.72048217 0.69962007 1.4488127 11942693
0.6857425 0.65297872 1.3522252 11549222
0.69903493 0.65297872 1.3522252 11681579
0.71232736 0.65297872 1.3522252 11220769
0.80624425 0.725532 1.5024725 11483170
0.8525911 0.75343704 1.5602599 11679523
0.8679285 0.75343704 1.5602599 11351587
0.91859657 0.78357452 1.6226703 11024419
0.93454748 0.78357452 1.6226703 10892576
0.9504984 0.78357452 1.6226703 11024162
1.4212489 1.1523155 2.3862798 10958626
1.4447062 1.1523155 2.3862798 10958880
1.4681635 1.1523155 2.3862798 11220258
1.4916207 1.1523155 2.3862798 11024162
1.6097703 1.2243352 2.5354223 11024161
1.6346936 1.2243352 2.5354223 10958112
1.7702579 1.3059574 2.7044504 10761760
1.7968428 1.3059574 2.7044504 11154978
1.7094636 1.2243352 2.5354223 11286051
1.20653 0.85171139 1.763772 10499360
1.0826524 0.75343704 1.5602599 10630176
1.0573236 0.725532 1.5024725 10302754
1.072093 0.725532 1.5024725 9515809
1.0868623 0.725532 1.5024725 9712676
1.0622877 0.69962007 1.4488127 9844002
1.1164011 0.725532 1.5024725 10171681
1.1311704 0.725532 1.5024725 10761251
1.1459398 0.725532 1.5024725 10499362
1.1607091 0.725532 1.5024725 10827044
1.2206893 0.75343704 1.5602599 10694945
1.2854677 0.78357452 1.6226703 10367777
1.3014187 0.78357452 1.6226703 10499102
1.2667016 0.75343704 1.5602599 10433054
1.2820389 0.75343704 1.5602599 10367777
1.2973764 0.75343704 1.5602599 10237476
1.1769158 0.67549527 1.3988537 10040095
1.3280512 0.75343704 1.5602599 10040097
3.1752822 1.7808511 3.687887 10105120
3.5326879 1.9589363 4.0566759 10171429
3.5725653 1.9589363 4.0566759 10040099
1.4449769 0.78357452 1.6226703 9973792
1.4047384 0.75343704 1.5602599 9973793
1.2731713 0.67549527 1.3988537 9908511
1.203895 0.63191491 1.3086051 9581342
1.0477644 0.54414898 1.1268544 9909022
1.1550996 0.59361702 1.2292956 9974302
1.3756093 0.69962007 1.4488127 9712161
1.1792676 0.59361702 1.2292956 10040098
1.1913517 0.59361702 1.2292956 9908511
1.2410432 0.6121676 1.2677112 10105120
1.3831778 0.67549527 1.3988537 10171425
1.3969285 0.67549527 1.3988537 9975329
1.4106793 0.67549527 1.3988537 9712415
1.5299435 0.725532 1.5024725 9908770
1.5447129 0.725532 1.5024725 10040610
1.5594822 0.725532 1.5024725 9449506
1.4656825 0.67549527 1.3988537 9450018
1.5322702 0.69962007 1.4488127 9581091
1.4931841 0.67549527 1.3988537 9580323
1.4567037 0.65297872 1.3522252 9842717
1.5206857 0.67549527 1.3988537 9515810
1.7799463 0.78357452 1.6226703 9647395
1.5481873 0.67549527 1.3988537 9909540
1.6776372 0.725532 1.5024725 9318943
1.6319634 0.69962007 1.4488127 9188127
0 0 0 9384478
0 0 0 9516581
0 0 0 9385253
0 0 0 9451301
0 0 0 9319715
8.0146027 3.2648938 6.761126 9320485
24.243195 9.7946815 20.283379 9320485
0 0 0 9188643
0 0 0 9385506
0 0 0 9188899
0 0 0 9582116
0 0 0 9253153
0 0 0 9187103
0 0 0 9253922
0 0 0 9451047
0 0 0 9516583
0 0 0 9451304
0 0 0 9254692
0 0 0 9188647
0 0 0 9385254
0 0 0 9188386
0 0 0 9582115
0 0 0 9385763
0 0 0 9188641
0 0 0 9385506
0 0 0 9253922
-1.2006329 0.5260036 1.0675462 9056028
-1.130632 0.49970344 1.014169 9253409
-1.1206627 0.49970344 1.014169 9253409
-1.1691508 0.5260036 1.0675462 9253152
-1.1586568 0.5260036 1.0675462 9384223
-1.2465768 0.57108963 1.1590502 9056543
-1.2351832 0.57108963 1.1590502 9319202
-1.2979587 0.60570109 1.2292956 9318944
-1.2858746 0.60570109 1.2292956 8925727
-1.2737906 0.60570109 1.2292956 9122336
-1.1565645 0.55522603 1.1268544 9056289
-1.0057938 0.48751551 0.98943311 9319203
-0.92815393 0.45427582 0.92197174 9515296
-0.84249997 0.41641948 0.84514076 9515550
-0.81716794 0.40792114 0.82789302 9515296
-0.8090297 0.40792114 0.82789302 9712160
-0.80089146 0.40792114 0.82789302 10040610
-0.92487878 0.47590798 0.96587515 10040095
-0.93771064 0.48751551 0.98943311 10171683
0 0 0 10040354
0 0 0 9975587
0 0 0 10106656
-0.75206214 0.40792114 0.82789302 10369058
-0.7439239 0.40792114 0.82789302 10236961
-0.73578566 0.40792114 0.82789302 10499361
-0.96364117 0.5402199 1.0963988 10368288
-0.97933203 0.55522603 1.1268544 10236959
-0.94208586 0.5402199 1.0963988 10237217
-0.86146015 0.49970344 1.014169 10302497
-0.85149086 0.49970344 1.014169 10040608
-0.8415215 0.49970344 1.014169 10171683
-1.1469685 0.68924606 1.3988537 10236704
-0.64437866 0.39192423 0.79542661 10301984
-0.73783046 0.45427582 0.92197174 10367261
-0.7287674 0.45427582 0.92197174 10236959
-0.73644173 0.46484038 0.94341296 10368546
-0.74448144 0.47590798 0.96587515 10433567
-1.1024803 0.713862 1.4488127 10171681
-1.0882384 0.713862 1.4488127 10171679
0 0 0 10303008
0 0 0 10171681
0 0 0 10171681
0 0 0 10368289
-1.5820451 1.1104521 2.2537088 10434077
-1.559891 1.1104521 2.2537088 10499101
0 0 0 10760990
0 0 0 10761501
0 0 0 10761760
0 0 0 10630690
0 0 0 10630433
0 0 0 10893859
-12.643312 9.9940681 20.283379 10565666
0 0 0 10630433
-12.244539 9.9940681 20.283379 10630947
-8.0301018 6.6627116 13.522252 10958882
-7.8971772 6.6627116 13.522252 10893602
0 0 0 10828580
-11.446994 9.9940681 20.283379 10959652
-1.4059509 1.2492585 2.5354223 11090466
-1.2275801 1.1104521 2.2537088 11024160
-1.2054261 1.1104521 2.2537088 11221284
-1.3311809 1.2492585 2.5354223 11220769
-1.3062576 1.2492585 2.5354223 10892574
-1.4643821 1.427724 2.8976254 11155748
-1.4358982 1.427724 2.8976254 11090210
-1.4074144 1.427724 2.8976254 11024929
-1.4850023 1.537549 3.1205199 10958880
-1.3504468 1.427724 2.8976254 11089694
-1.4236526 1.537549 3.1205199 11483171
-1.2934793 1.427724 2.8976254 11221026
-1.2649955 1.427724 2.8976254 11287331
-1.2365117 1.427724 2.8976254 11286562
-1.8791547 2.2209041 4.5074177 11220769
-1.8348465 2.2209041 4.5074177 11221282
-1.7905384 2.2209041 4.5074177 11417634
-1.7462304 2.2209041 4.5074177 11351584
-1.7019222 2.2209041 4.5074177 11417376
-1.4918526 1.9988137 4.0566759 11548449
-1.2099794 1.6656779 3.380563 11483169
-0.83064586 1.1757727 2.3862798 11352097
-0.49007881 0.713862 1.4488127 11286562
-0.45942873 0.68924606 1.3988537 11351840
-0.34931514 0.5402199 1.0963988 11090468
-0.30550945 0.48751551 0.98943311 11024158
-0.29578328 0.48751551 0.98943311 11154974
-0.28605711 0.48751551 0.98943311 11088925
-0.27633095 0.48751551 0.98943311 11286562
-0.24842717 0.45427582 0.92197174 11219999
-0.23404494 0.44418079 0.90148348 11089440
-0.20680101 0.40792114 0.82789302 10958366
-0.19087209 0.39192423 0.79542661 10695453
-0.183053 0.39192423 0.79542661 11221282
-0.17523393 0.39192423 0.79542661 11417378
-0.16741484 0.39192423 0.79542661 11089955
-0.15959577 0.39192423 0.79542661 10958367
-0.14885791 0.38438725 0.78012997 10891806
-0.13852525 0.37713462 0.76541048 11089951
-0.13100122 0.37713462 0.76541048 11155489
-0.12347721 0.37713462 0.76541048 11088671
-0.11595318 0.37713462 0.76541048 11154206
-0.11051435 0.38438725 0.78012997 11417377
-0.10284563 0.38438725 0.78012997 11220770
-0.09517692 0.38438725 0.78012997 10760988
-0.091008537 0.39976272 0.81133515 11088415
-0.083033077 0.39976272 0.81133515 10958367
-0.075057611 0.39976272 0.81133515 11219999
-0.067082152 0.39976272 0.81133515 11614241
-0.060312953 0.40792114 0.82789302 11154976
-0.052174725 0.40792114 0.82789302 11023902
-0.0440365 0.40792114 0.82789302 10958365
-0.035898276 0.40792114 0.82789302 11154719
-0.027760049 0.40792114 0.82789302 11416863
-0.019621823 0.40792114 0.82789302 11286560
-0.011483598 0.40792114 0.82789302 11417376
-0.0033453722 0.40792114 0.82789302 11417117
0.0048927041 0.41641948 0.84514076 11417630
0.015086258 0.47590798 0.96587515 11483169
0.025809899 0.49970344 1.014169 11548451
0.035779227 0.49970344 1.014169 11154204
0 0 0 11483168
0 0 0 11482655
0 0 0 11613729
0 0 0 11154720
0 0 0 11155491
0.15295228 0.79952544 1.6226703 11417376
0.16890322 0.79952544 1.6226703 11416865
0.2009284 0.86904937 1.763772 11482910
0.23905364 0.95181596 1.9317503 11286560
0.25804281 0.95181596 1.9317503 11680032
0.32320404 1.1104521 2.2537088 11219997
0.29602119 0.95181596 1.9317503 11351842
0.3150104 0.95181596 1.9317503 11417636
0.41258773 1.1757727 2.3862798 11548706
0 0 0 11351583
0 0 0 11154204
0 0 0 11220771
0.66223723 1.537549 3.1205199 11417376
2.2519641 4.9970341 10.141689 11548962
1.0451812 2.2209041 4.5074177 11483169
1.0894892 2.2209041 4.5074177 11482656
1.1337974 2.2209041 4.5074177 11614497
1.514707 2.855448 5.7952509 11482400
1.5716746 2.855448 5.7952509 11679777
1.6286421 2.855448 5.7952509 11548451
1.9665446 3.3313558 6.761126 11286560
1.7425773 2.855448 5.7952509 11483171
1.5746018 2.498517 5.0708447 11680549
0.86637247 1.3325423 2.7044504 11615009
0.83714753 1.2492585 2.5354223 11614756
0.86207086 1.2492585 2.5354223 11417890
0.88699412 1.2492585 2.5354223 11351842
0.91191745 1.2492585 2.5354223 11548962
0.93684077 1.2492585 2.5354223 11483423
0.90518975 1.1757727 2.3862798 11483169
0.92864698 1.1757727 2.3862798 11351840
0.62252969 0.76877451 1.5602599 11351840
0.57188082 0.68924606 1.3988537 11680037
0.58563161 0.68924606 1.3988537 11482657
0.5993824 0.68924606 1.3988537 11548451
0.61313319 0.68924606 1.3988537 11483171
0.62688398 0.68924606 1.3988537 11614243
0.61928028 0.66627115 1.3522252 11942693
0.63257271 0.66627115 1.3522252 11680035
0.6458652 0.66627115 1.3522252 11548451
0.65915763 0.66627115 1.3522252 11483171
0.72048217 0.713862 1.4488127 11745826
0.6857425 0.66627115 1.3522252 11548707
0.69903493 0.66627115 1.3522252 11614244
0.71232736 0.66627115 1.3522252 11549479
0.72561979 0.66627115 1.3522252 11221801
0.8525911 0.76877451 1.5602599 11351587
0.8679285 0.76877451 1.5602599 11089957
0.91859657 0.79952544 1.6226703 11089185
0.93454748 0.79952544 1.6226703 10828067
1.3977917 1.1757727 2.3862798 10696483
0 0 0 10762275
1.4447062 1.1757727 2.3862798 10630687
1.4681635 1.1757727 2.3862798 10893602
1.4916207 1.1757727 2.3862798 11089440
1.6097703 1.2492585 2.5354223 10827809
1.8682213 1.427724 2.8976254 10892322
1.896705 1.427724 2.8976254 10958882
1.9251888 1.427724 2.8976254 10892832
1.7094636 1.2492585 2.5354223 11088928
1.20653 0.86904937 1.763772 10695969
1.0826524 0.76877451 1.5602599 10827294
1.0573236 0.74030137 1.5024725 10762276
1.0338038 0.713862 1.4488127 10433569
0.97817606 0.66627115 1.3522252 9974817
1.0256571 0.68924606 1.3988537 9647395
1.0765295 0.713862 1.4488127 10040609
1.1311704 0.74030137 1.5024725 10105375
1.1459398 0.74030137 1.5024725 10302497
1.1607091 0.74030137 1.5024725 10367775
1.2206893 0.76877451 1.5602599 10367518
1.1477391 0.713862 1.4488127 10301986
1.2513641 0.76877451 1.5602599 10368034
1.2667016 0.76877451 1.5602599 10368290
1.2820389 0.76877451 1.5602599 10433824
1.2047065 0.713862 1.4488127 10367777
1.1769158 0.68924606 1.3988537 10433054
1.2331904 0.713862 1.4488127 10236446
3.1752822 1.8171033 3.687887 9973789
3.5326879 1.9988137 4.0566759 10040097
3.5725653 1.9988137 4.0566759 10236706
1.2456697 0.68924606 1.3988537 10105888
1.1781677 0.64477861 1.3086051 10170913
1.1910313 0.64477861 1.3086051 10170913
1.1309315 0.60570109 1.2292956 10040353
1.0477644 0.55522603 1.1268544 9580829
1.0588415 0.55522603 1.1268544 9646366
1.1328548 0.58788633 1.1931399 9974304
1.1445833 0.58788633 1.1931399 10104866
1.156312 0.58788633 1.1931399 10236962
1.2034358 0.60570109 1.2292956 9974305
1.2939404 0.64477861 1.3086051 9909025
1.3068041 0.64477861 1.3086051 9712675
1.4106793 0.68924606 1.3988537 9647650
1.4244301 0.68924606 1.3988537 9581601
1.4381809 0.68924606 1.3988537 9384479
1.4035339 0.66627115 1.3522252 9647139
1.4168264 0.66627115 1.3522252 9581861
1.4301188 0.66627115 1.3522252 9581604
1.2028428 0.55522603 1.1268544 9581091
1.1811111 0.5402199 1.0963988 9581349
1.5206857 0.68924606 1.3988537 9450273
6.3569508 2.855448 5.7952509 9318944
6.4139185 2.855448 5.7952509 9450788
1.6776372 0.74030137 1.5024725 9319202
1.5756888 0.68924606 1.3988537 9253665
1.1523438 0.49970344 1.014169 9253922
0 0 0 9384223
0 0 0 9450018
0 0 0 9515811
0 0 0 9516582
0 0 0 9319461
0 0 0 9517094
0 0 0 9647913
0 0 0 9385252
0 0 0 9517093
0 0 0 9450786
0 0 0 9647652
0 0 0 9384484
0 0 0 9319461
0 0 0 9319461
0 0 0 9516581
0 0 0 9450789
0 0 0 9385506
0 0 0 9123104
0 0 0 9319203
0 0 0 9253668
0 0 0 9122852
0 0 0 9057313
0 0 0 9254179
0 0 0 9254179
0 0 0 8991263
-1.1127818 0.49724168 0.98943311 8925728
-1.1030556 0.49724168 0.98943311 8925216
-1.1206627 0.50967276 1.014169 9056030
-1.1106933 0.50967276 1.014169 9319458
-1.1586568 0.53649759 1.0675462 9450273
-1.1791942 0.55099756 1.0963988 8991009
-1.1684165 0.55099756 1.0963988 9056290
-1.2237897 0.58248311 1.1590502 9187875
-1.1468612 0.55099756 1.0963988 9188129
-1.1676415 0.56630307 1.1268544 9450788
-0.94628 0.46333882 0.92197174 9384482
-0.93721694 0.46333882 0.92197174 9646368
-0.8167755 0.40773818 0.81133515 9646368
-0.77769232 0.39205596 0.78012997 9383964
-0.7851221 0.39974332 0.79542661 9844001
-0.76235491 0.39205596 0.78012997 9777951
-0.76948392 0.39974332 0.79542661 10040096
-0.77689815 0.40773818 0.81133515 10105890
-0.78461504 0.41605937 0.82789302 10106403
-0.7764768 0.41605937 0.82789302 10237987
-0.75297177 0.40773818 0.81133515 10236706
-0.71634263 0.39205596 0.78012997 10368289
-0.72256947 0.39974332 0.79542661 10433568
-0.72904539 0.40773818 0.81133515 10499361
-0.72106993 0.40773818 0.81133515 10236447
-0.71309447 0.40773818 0.81133515 10237217
-0.70511901 0.40773818 0.81133515 10236961
-0.69714355 0.40773818 0.81133515 10236704
-0.70323277 0.41605937 0.82789302 10302497
-0.69509453 0.41605937 0.82789302 10171423
-0.67321718 0.40773818 0.81133515 10433313
-0.65219778 0.39974332 0.79542661 10498848
-0.62006247 0.38465863 0.76541048 10433054
-0.61253846 0.38465863 0.76541048 10171166
-0.61664939 0.39205596 0.78012997 10171681
-0.64626521 0.41605937 0.82789302 10236704
-0.71064138 0.46333882 0.92197174 10433311
-0.70157832 0.46333882 0.92197174 10302496
0 0 0 10236961
0 0 0 10040608
0 0 0 10303010
0 0 0 10302495
0 0 0 10367774
0 0 0 10434335
0 0 0 10630172
0 0 0 10564896
0 0 0 10434335
0 0 0 10565664
0 0 0 10827296
0 0 0 10828070
0 0 0 10827809
-12.643312 10.193455 20.283379 10958369
0 0 0 10762273
-12.244539 10.193455 20.283379 10630431
-8.0301018 6.7956362 13.522252 10893347
-7.8971772 6.7956362 13.522252 10630947
-11.646379 10.193455 20.283379 10958882
-11.446994 10.193455 20.283379 10827296
-5.6238036 5.0967274 10.141689 10959395
-1.3810276 1.2741818 2.5354223 11089955
-1.2763333 1.19923 2.3862798 10892831
-1.2528762 1.19923 2.3862798 10762785
-1.3062576 1.2741818 2.5354223 10892831
-1.4643821 1.4562078 2.8976254 11024160
-1.4358982 1.4562078 2.8976254 11089953
-1.3135868 1.3591272 2.7044504 11221280
-1.2065643 1.2741818 2.5354223 11024159
-1.181641 1.2741818 2.5354223 11155489
-1.4236526 1.5682238 3.1205199 11220769
-1.3929777 1.5682238 3.1205199 11286562
-1.3623029 1.5682238 3.1205199 11286562
-1.5737422 1.8533553 3.687887 11089951
-1.8791547 2.2652123 4.5074177 11221281
-2.0642023 2.5483637 5.0708447 11090210
-2.0143557 2.5483637 5.0708447 11090212
-1.964509 2.5483637 5.0708447 11155746
-1.7019222 2.2652123 4.5074177 11352353
-1.6576141 2.2652123 4.5074177 11417892
-1.1169041 1.5682238 3.1205199 11416863
-0.70604903 1.0193455 2.028338 11154976
-0.45740688 0.67956358 1.3522252 11285794
-0.3700954 0.56630307 1.1268544 11286050
-0.34931514 0.55099756 1.0963988 11416865
-0.30550945 0.49724168 0.98943311 11351583
-0.26949143 0.45304242 0.90148348 11220255
-0.2606298 0.45304242 0.90148348 11351586
-0.25176817 0.45304242 0.90148348 11089955
-0.23257011 0.43376401 0.86312246 10958367
-0.21493924 0.41605937 0.82789302 11219486
-0.20266499 0.40773818 0.81133515 10827042
-0.19087209 0.39974332 0.79542661 10761245
-0.183053 0.39974332 0.79542661 11089954
-0.17523393 0.39974332 0.79542661 10695969
-0.16419533 0.39205596 0.78012997 11286048
-0.15652663 0.39205596 0.78012997 11220769
-0.14885791 0.39205596 0.78012997 11089185
-0.1411892 0.39205596 0.78012997 10958365
-0.13100122 0.38465863 0.76541048 11155234
-0.12347721 0.38465863 0.76541048 11220515
-0.11595318 0.38465863 0.76541048 10760990
-0.10842916 0.38465863 0.76541048 10892574
-0.10090514 0.38465863 0.76541048 11219743
-0.093381122 0.38465863 0.76541048 11023648
-0.087508209 0.39205596 0.78012997 11482657
-0.079839498 0.39205596 0.78012997 11220768
-0.072170787 0.39205596 0.78012997 11088412
-0.064502068 0.39205596 0.78012997 11351328
-0.059106693 0.40773818 0.81133515 11286562
-0.052174725 0.41605937 0.82789302 11155232
-0.0440365 0.41605937 0.82789302 10892316
-0.035898276 0.41605937 0.82789302 11220514
-0.027760049 0.41605937 0.82789302 11089955
-0.019621823 0.41605937 0.82789302 11286562
-0.011483598 0.41605937 0.82789302 11220769
-0.0033453722 0.41605937 0.82789302 10893089
0.004696996 0.40773818 0.81133515 11614244
0.012672457 0.40773818 0.81133515 11352353
0.022443388 0.44319367 0.88188601 11548703
0.034906559 0.49724168 0.98943311 11482910
0 0 0 11745314
0 0 0 11482656
0 0 0 11548706
0 0 0 11482657
0 0 0 11482911
0.13185541 0.70299685 1.3988537 11482910
0.1456062 0.70299685 1.3988537 11286562
0.17774436 0.78411192 1.5602599 11351841
0.21826635 0.88638735 1.763772 11482911
0.25804281 0.97080517 1.9317503 11679521
0.24240302 0.84945452 1.6902815 11811361
0.24865782 0.81547636 1.6226703 11613728
0.27563411 0.84945452 1.6902815 11613986
0.30495614 0.88638735 1.763772 11417377
0.35298878 0.97080517 1.9317503 11352357
0 0 0 11024162
0 0 0 11024673
0 0 0 11352353
0 0 0 11680546
1.8813261 4.0773821 8.1133518 11417634
1.0894892 2.2652123 4.5074177 11482913
1.275522 2.5483637 5.0708447 11548705
1.514707 2.9124155 5.7952509 11351585
1.8336203 3.3978181 6.761126 11220769
2.2800992 4.0773821 8.1133518 11679521
2.3598537 4.0773821 8.1133518 11811619
2.4396083 4.0773821 8.1133518 11680036
2.0994689 3.3978181 6.761126 11482915
0.99966061 1.5682238 3.1205199 11548706
0.83714753 1.2741818 2.5354223 11352355
0.86207086 1.2741818 2.5354223 11417890
0.88699412 1.2741818 2.5354223 11548964
0.91191745 1.2741818 2.5354223 11352607
0.93684077 1.2741818 2.5354223 11483940
0.90518975 1.19923 2.3862798 11548962
0.92864698 1.19923 2.3862798 11548962
0.62252969 0.78411192 1.5602599 11615009
0.5349853 0.65764225 1.3086051 11352353
0.54784894 0.65764225 1.3086051 11417376
0.56071264 0.65764225 1.3086051 11548964
0.57357627 0.65764225 1.3086051 11483171
0.58643991 0.65764225 1.3086051 11548707
0.59930354 0.65764225 1.3086051 11483171
0.61216718 0.65764225 1.3086051 11417121
0.6458652 0.67956358 1.3522252 11482913
0.65915763 0.67956358 1.3522252 11416863
0.67245007 0.67956358 1.3522252 11417376
0.6857425 0.67956358 1.3522252 11417376
0.69903493 0.67956358 1.3522252 11286562
0.68934906 0.65764225 1.3086051 11351586
0.68026859 0.63709092 1.2677112 11090214
0.69273025 0.63709092 1.2677112 11483173
0 0 0 11024162
0 0 0 10762019
0 0 0 10630687
0 0 0 10499361
0 0 0 10564894
0 0 0 10696484
1.5599236 1.2741818 2.5354223 10631204
1.4916207 1.19923 2.3862798 10958880
1.8397374 1.4562078 2.8976254 10958880
1.8682213 1.4562078 2.8976254 10958884
2.0426054 1.5682238 3.1205199 10827814
2.0732803 1.5682238 3.1205199 10762016
1.1891921 0.88638735 1.763772 10433568
1.067315 0.78411192 1.5602599 10762530
1.0425543 0.75507075 1.5024725 10761503
1.0573236 0.75507075 1.5024725 10564640
0.99815547 0.70299685 1.3988537 10564897
0.97817606 0.67956358 1.3522252 10499358
0.99146849 0.67956358 1.3522252 10237473
1.0394078 0.70299685 1.3988537 10171684
1.0907714 0.72810388 1.4488127 9711904
1.1459398 0.75507075 1.5024725 9646881
1.2535659 0.81547636 1.6226703 9909023
1.2695168 0.81547636 1.6226703 10171681
1.1477391 0.72810388 1.4488127 10105888
1.1219126 0.70299685 1.3988537 10367777
1.1356634 0.70299685 1.3988537 10236962
1.1494142 0.70299685 1.3988537 10302240
1.163165 0.70299685 1.3988537 9777438
1.1769158 0.70299685 1.3988537 10039583
1.1906666 0.70299685 1.3988537 10170911
1.2044173 0.70299685 1.3988537 10105375
1.2181681 0.70299685 1.3988537 10039326
1.0825955 0.6177851 1.2292956 10302240
1.0624831 0.59961498 1.1931399 10367775
1.0742117 0.59961498 1.1931399 10301986
1.1188475 0.6177851 1.2292956 10367779
1.1309315 0.6177851 1.2292956 10039328
1.0477644 0.56630307 1.1268544 9908253
1.0588415 0.56630307 1.1268544 10040095
1.1328548 0.59961498 1.1931399 9842720
1.1445833 0.59961498 1.1931399 10170657
1.156312 0.59961498 1.1931399 9712415
1.1680406 0.59961498 1.1931399 9580829
1.1460615 0.58248311 1.1590502 9646624
1.1574551 0.58248311 1.1590502 9778210
1.4106793 0.70299685 1.3988537 9842977
1.4244301 0.70299685 1.3988537 9712677
1.4381809 0.70299685 1.3988537 9450788
1.4035339 0.67956358 1.3522252 9713190
1.3282747 0.63709092 1.2677112 9581604
1.4301188 0.67956358 1.3522252 9385254
1.1703335 0.55099756 1.0963988 9450789
1.1811111 0.55099756 1.0963988 9319460
1.1918888 0.55099756 1.0963988 9386021
6.3569508 2.9124155 5.7952509 9451299
6.4139185 2.9124155 5.7952509 9384739
1.4611679 0.65764225 1.3086051 9515814
1.4740316 0.65764225 1.3086051 9581350
1.1523438 0.50967276 1.014169 9647395
0 0 0 9647650
0 0 0 9515811
0 0 0 9450018
0 0 0 9449764
0 0 0 9384741
0 0 0 9122340
0 0 0 9253155
0 0 0 9318689
0 0 0 9516579
0 0 0 9384735
0 0 0 9581602
0 0 0 9319715
0 0 0 9384741
0 0 0 9385255
0 0 0 9451049
0 0 0 9385000
0 0 0 8991777
0 0 0 8925985
0 0 0 9319974
0 0 0 9450016
0 0 0 9253667
0 0 0 9253922
0 0 0 9188129
0 0 0 8992038
-1.0227294 0.46190405 0.90148348 8991780
-1.0138677 0.46190405 0.90148348 9121824
-1.0278472 0.47240186 0.92197174 9122080
-1.0933294 0.50696784 0.98943311 9253151
-1.1106933 0.51964206 1.014169 9318430
-1.1289477 0.5329662 1.0401733 9318690
-1.1791942 0.56177521 1.0963988 9515556
-1.1684165 0.56177521 1.0963988 9449763
-0.97346908 0.47240186 0.92197174 9252897
-0.96440601 0.47240186 0.92197174 9318688
-0.95534301 0.47240186 0.92197174 9581089
-0.92525154 0.46190405 0.90148348 9581089
-0.79302979 0.39972466 0.78012997 9384224
-0.78536105 0.39972466 0.78012997 9450017
-0.76301885 0.39218268 0.76541048 9778211
-0.75549483 0.39218268 0.76541048 9581089
-0.74797082 0.39218268 0.76541048 9974818
-0.74044681 0.39218268 0.76541048 10106402
-0.7470175 0.39972466 0.78012997 9909794
-0.76892269 0.41571364 0.81133515 10303267
-0.7316801 0.39972466 0.78012997 10237471
-0.72401136 0.39972466 0.78012997 10236447
-0.71634263 0.39972466 0.78012997 10368288
-0.70867395 0.39972466 0.78012997 10433825
-0.71475041 0.4075624 0.79542661 10236959
-0.72106993 0.41571364 0.81133515 10237474
-0.71309447 0.41571364 0.81133515 10105888
-0.69129318 0.4075624 0.79542661 9975587
-0.68347406 0.4075624 0.79542661 10236702
-0.67565501 0.4075624 0.79542661 10499874
-0.68119264 0.41571364 0.81133515 10236447
-0.66001683 0.4075624 0.79542661 10433827
-0.62758648 0.39218268 0.76541048 10499361
-0.62006247 0.39218268 0.76541048 10368288
-0.61253846 0.39218268 0.76541048 10302495
-0.61664939 0.39972466 0.78012997 10236445
-0.62092143 0.4075624 0.79542661 10433568
-0.63812697 0.42419761 0.82789302 10040095
-0.68598771 0.46190405 0.90148348 10172194
0 0 0 10237217
0 0 0 10368290
0 0 0 10565156
0 0 0 10434081
0 0 0 10630947
0 0 0 10499360
0 0 0 10564898
0 0 0 10827042
0 0 0 10630690
0 0 0 10762016
0 0 0 10499361
0 0 0 10893089
0 0 0 10696224
-12.643312 10.392841 20.283379 10696737
-12.443926 10.392841 20.283379 10630433
-12.244539 10.392841 20.283379 10958882
-12.045153 10.392841 20.283379 10564896
-7.8971772 6.9285607 13.522252 10630944
-11.646379 10.392841 20.283379 11089953
-7.6313286 6.9285607 13.522252 10564894
-7.4984045 6.9285607 13.522252 10499361
-5.5241103 5.1964207 10.141689 11024420
-1.2763333 1.2226871 2.3862798 11024158
-1.2528762 1.2226871 2.3862798 10958622
-1.3062576 1.2991052 2.5354223 11024160
-1.5770268 1.5988986 3.1205199 10958626
-1.546352 1.5988986 3.1205199 11090211
-1.3135868 1.385712 2.7044504 11155233
-1.2065643 1.2991052 2.5354223 10958880
-1.181641 1.2991052 2.5354223 11089955
-1.1567177 1.2991052 2.5354223 11219999
-1.1317943 1.2991052 2.5354223 11417120
-1.3623029 1.5988986 3.1205199 11351585
-1.7311165 2.0785682 4.0566759 11286561
-1.8791547 2.3095202 4.5074177 11220769
-2.0642023 2.5982103 5.0708447 11352096
-2.0143557 2.5982103 5.0708447 11089696
-1.7462304 2.3095202 4.5074177 11287332
-1.9146624 2.5982103 5.0708447 11352355
-1.8648157 2.5982103 5.0708447 11024674
-1.2099794 1.7321402 3.380563 11154974
-0.67242759 0.98979437 1.9317503 10958111
-0.39206305 0.59387666 1.1590502 11024417
-0.36009279 0.56177521 1.0963988 10826782
-0.34931514 0.56177521 1.0963988 11023905
-0.31314722 0.51964206 1.014169 10893089
-0.28202593 0.48338795 0.94341296 10958369
-0.2606298 0.46190405 0.90148348 11089187
-0.24629496 0.45186263 0.88188601 11154976
-0.22772489 0.43303505 0.84514076 11351327
-0.21493924 0.42419761 0.82789302 10957599
-0.20266499 0.41571364 0.81133515 10957597
-0.19087209 0.4075624 0.79542661 11154208
-0.17953277 0.39972466 0.78012997 11023135
-0.17186405 0.39972466 0.78012997 11154978
-0.1610973 0.39218268 0.76541048 11022877
-0.15652663 0.39972466 0.78012997 10827809
-0.14604926 0.39218268 0.76541048 10695455
-0.13852525 0.39218268 0.76541048 10892319
-0.13100122 0.39218268 0.76541048 10957852
-0.12347721 0.39218268 0.76541048 10958367
-0.11595318 0.39218268 0.76541048 10827296
-0.10842916 0.39218268 0.76541048 10892574
-0.10090514 0.39218268 0.76541048 11089185
-0.093381122 0.39218268 0.76541048 11285794
-0.085857108 0.39218268 0.76541048 11154206
-0.078333087 0.39218268 0.76541048 11285794
-0.070809066 0.39218268 0.76541048 10957597
-0.063285045 0.39218268 0.76541048 11482397
-0.056833357 0.39972466 0.78012997 11285280
-0.049164645 0.39972466 0.78012997 11351585
-0.0440365 0.42419761 0.82789302 11220255
-0.035898276 0.42419761 0.82789302 11548450
-0.027760049 0.42419761 0.82789302 10957598
-0.019621823 0.42419761 0.82789302 11023134
-0.011483598 0.42419761 0.82789302 11022877
-0.0032141812 0.4075624 0.79542661 10827042
0.0046048984 0.4075624 0.79542661 11154207
0.012672457 0.41571364 0.81133515 11154717
0.021069305 0.42419761 0.82789302 11220255
0.035779227 0.51964206 1.014169 11351327
0 0 0 11548450
0 0 0 11547937
0 0 0 11482656
0 0 0 11482913
0 0 0 11417119
0.11949398 0.64955258 1.2677112 11614242
0.1456062 0.71674764 1.3988537 11811359
0.15935701 0.71674764 1.3988537 11285277
0.19308178 0.79944932 1.5602599 11351585
0.21675597 0.83142728 1.6226703 11613728
0.2327069 0.83142728 1.6226703 11482144
0.24865782 0.83142728 1.6226703 11548193
0.26460874 0.83142728 1.6226703 11351585
0.29224965 0.86607009 1.6902815 11417378
0.32229412 0.90372527 1.763772 11285792
0.33963206 0.90372527 1.763772 11221024
0.39096716 0.98979437 1.9317503 10893090
0 0 0 11155744
0 0 0 11155744
2.3516574 5.1964207 10.141689 11417377
1.0894892 2.3095202 4.5074177 11286818
1.1337974 2.3095202 4.5074177 11221541
1.1781055 2.3095202 4.5074177 11417376
1.5716746 2.969383 5.7952509 11613728
1.6286421 2.969383 5.7952509 11548707
2.3598537 4.1571364 8.1133518 11221025
2.4396083 4.1571364 8.1133518 11417376
1.5746018 2.5982103 5.0708447 11417376
0.86637247 1.385712 2.7044504 11548449
0.83714753 1.2991052 2.5354223 11351328
0.86207086 1.2991052 2.5354223 11680291
0.88699412 1.2991052 2.5354223 11943462
0.91191745 1.2991052 2.5354223 11287332
0.88173252 1.2226871 2.3862798 11417631
0.90518975 1.2226871 2.3862798 11417889
0.92864698 1.2226871 2.3862798 11614755
0.55813003 0.71674764 1.3988537 11615009
0.5349853 0.67050588 1.3086051 11221539
0.54784894 0.67050588 1.3086051 11286562
0.54319036 0.64955258 1.2677112 11089701
0.55565202 0.64955258 1.2677112 11417892
0.56811363 0.64955258 1.2677112 11548449
0.59930354 0.67050588 1.3086051 11089953
0.61216718 0.67050588 1.3086051 11352356
0.62503082 0.67050588 1.3086051 11679523
0.63789451 0.67050588 1.3086051 11745314
0.65075815 0.67050588 1.3086051 11548708
0.66362178 0.67050588 1.3086051 11286560
0.69903493 0.69285601 1.3522252 11219742
0.68934906 0.67050588 1.3086051 11285792
0.70221269 0.67050588 1.3086051 11154978
0.69273025 0.64955258 1.2677112 11024419
0.70519191 0.64955258 1.2677112 11483172
0 0 0 11155748
0 0 0 11024160
0 0 0 10696738
0 0 0 10893346
1.5350003 1.2991052 2.5354223 11155236
1.4681635 1.2226871 2.3862798 10958115
1.584847 1.2991052 2.5354223 10302495
1.9812558 1.5988986 3.1205199 10171169
2.0119307 1.5988986 3.1205199 10761504
2.0426054 1.5988986 3.1205199 10695456
2.0732803 1.5988986 3.1205199 10630433
1.0940567 0.83142728 1.6226703 10827554
1.067315 0.79944932 1.5602599 10695710
1.0425543 0.76984012 1.5024725 10892835
1.0573236 0.76984012 1.5024725 10893346
1.0338038 0.74234575 1.4488127 10761249
0.97817606 0.69285601 1.3522252 10827296
0.99146849 0.69285601 1.3522252 10696226
1.0047609 0.69285601 1.3522252 10630434
1.0907714 0.74234575 1.4488127 10433826
1.237615 0.83142728 1.6226703 10762023
1.2535659 0.83142728 1.6226703 10498847
1.2695168 0.83142728 1.6226703 10236704
1.1477391 0.74234575 1.4488127 10171168
1.1219126 0.71674764 1.3988537 10236191
1.1356634 0.71674764 1.3988537 10236706
1.1494142 0.71674764 1.3988537 10236961
1.0881221 0.67050588 1.3086051 10039581
1.1769158 0.71674764 1.3988537 9777438
1.1906666 0.71674764 1.3988537 10171681
1.2044173 0.71674764 1.3988537 9974304
1.2181681 0.71674764 1.3988537 9909537
1.0825955 0.6298691 1.2292956 10040351
1.0624831 0.61134356 1.1931399 10105888
1.04352 0.59387666 1.1590502 10302240
1.0859402 0.61134356 1.1931399 10367777
1.1309315 0.6298691 1.2292956 9909024
1.1430156 0.6298691 1.2292956 10236706
1.1550996 0.6298691 1.2292956 10039327
1.1671836 0.6298691 1.2292956 9973793
1.1445833 0.61134356 1.1931399 9974565
1.156312 0.61134356 1.1931399 9908770
1.1680406 0.61134356 1.1931399 9843229
1.2155198 0.6298691 1.2292956 9646368
1.2276038 0.6298691 1.2292956 9909024
1.4106793 0.71674764 1.3988537 9515040
1.4244301 0.71674764 1.3988537 9318691
1.4381809 0.71674764 1.3988537 9253409
1.4519317 0.71674764 1.3988537 9712675
1.5180283 0.74234575 1.4488127 9646625
1.4794333 0.71674764 1.3988537 9516581
1.1703335 0.56177521 1.0963988 9450788
1.1811111 0.56177521 1.0963988 9581602
1.2599968 0.59387666 1.1590502 9516323
1.308784 0.61134356 1.1931399 9515809
0 0 0 9515811
2.8310127 1.2991052 2.5354223 9319202
2.8559361 1.2991052 2.5354223 9515812
2.8808594 1.2991052 2.5354223 9515809
0 0 0 9712929
0 0 0 9515809
0 0 0 9581860
0 0 0 9515811
0 0 0 9384482
0 0 0 9384739
0 0 0 9318690
0 0 0 9384995
0 0 0 9253409
0 0 0 9318432
0 0 0 9253155
0 0 0 9122337
0 0 0 9385252
0 0 0 9319203
0 0 0 9450791
0 0 0 9516327
0 0 0 8991523
0 0 0 8860448
0 0 0 9122848
0 0 0 9253922
-0.91572917 0.40739337 0.78012997 9187616
-0.94438285 0.4236891 0.81133515 9056543
0 0 0 9057059
0 0 0 9057315
-0.95880878 0.4413428 0.84514076 9253155
-1.0138677 0.47076565 0.90148348 9122082
-1.0278472 0.48146489 0.92197174 9121823
-1.0187842 0.48146489 0.92197174 9318430
-1.1106933 0.52961141 1.014169 9450018
-1.100724 0.52961141 1.014169 9515811
-1.1791942 0.57255286 1.0963988 9383712
-0.96069801 0.47076565 0.90148348 9449508
-0.95183641 0.47076565 0.90148348 9384225
-0.96440601 0.48146489 0.92197174 9253409
-0.95534301 0.48146489 0.92197174 9712929
-0.81639844 0.41538146 0.79542661 9515554
-0.77806687 0.39970669 0.76541048 9252639
-0.75627363 0.39230472 0.75123626 9843749
-0.74888891 0.39230472 0.75123626 9844262
-0.74150425 0.39230472 0.75123626 10040610
-0.74797082 0.39970669 0.76541048 10368290
-0.74044681 0.39970669 0.76541048 10106401
-0.73292279 0.39970669 0.76541048 10106403
-0.72539878 0.39970669 0.76541048 10433569
-0.7316801 0.40739337 0.78012997 10237474
-0.72401136 0.40739337 0.78012997 10170909
-0.71634263 0.40739337 0.78012997 10368289
-0.70867395 0.40739337 0.78012997 10237473
-0.70100522 0.40739337 0.78012997 9974557
-0.70693129 0.41538146 0.79542661 9974815
-0.69911224 0.41538146 0.79542661 10368290
-0.69129318 0.41538146 0.79542661 10433827
-0.68347406 0.41538146 0.79542661 10368546
-0.67565501 0.41538146 0.79542661 10236960
-0.65499294 0.40739337 0.78012997 10302239
-0.6351105 0.39970669 0.76541048 10565667
-0.61596459 0.39230472 0.75123626 10236704
-0.62006247 0.39970669 0.76541048 10105890
-0.61253846 0.39970669 0.76541048 10237474
-0.61664939 0.40739337 0.78012997 10433568
-0.62092143 0.41538146 0.79542661 10237474
-0.63812697 0.43233582 0.82789302 10105888
0 0 0 10171426
0 0 0 10302497
0 0 0 10302497
0 0 0 10433826
0 0 0 10368033
0 0 0 10368290
0 0 0 10499104
0 0 0 10367776
0 0 0 10958628
0 0 0 10761247
0 0 0 10499615
0 0 0 10499616
0 0 0 10827042
0 0 0 10564640
-12.643312 10.592228 20.283379 10630687
-12.443926 10.592228 20.283379 10695969
-12.244539 10.592228 20.283379 11155236
-12.045153 10.592228 20.283379 11286562
-7.8971772 7.0614848 13.522252 10958368
-11.646379 10.592228 20.283379 11156003
-7.6313286 7.0614848 13.522252 10696738
-7.4984045 7.0614848 13.522252 10499874
-5.5241103 5.296114 10.141689 10893602
-1.5498334 1.5131754 2.8976254 11090468
-1.6383766 1.6295735 3.1205199 10893602
-1.6077017 1.6295735 3.1205199 10696225
-3.4168913 3.5307424 6.761126 10958367
-3.3504291 3.5307424 6.761126 11286560
-3.283967 3.5307424 6.761126 11221281
-1.2870018 1.412297 2.7044504 11221025
-1.260417 1.412297 2.7044504 11089953
-1.1567177 1.3240285 2.5354223 10893089
-1.1317943 1.3240285 2.5354223 11220257
-1.1806624 1.412297 2.7044504 10958367
-1.5737422 1.9258596 3.687887 11220512
-1.8791547 2.3538284 4.5074177 11352355
-1.8348465 2.3538284 4.5074177 11286562
-1.7905384 2.3538284 4.5074177 11155746
-1.7462304 2.3538284 4.5074177 11090209
-1.9146624 2.648057 5.0708447 11024418
-1.6576141 2.3538284 4.5074177 11417630
-1.1169041 1.6295735 3.1205199 11286818
-0.64186269 0.96292979 1.8439435 11154974
-0.38117242 0.58845711 1.1268544 10630687
-0.36009279 0.57255286 1.0963988 10695456
-0.34931514 0.57255286 1.0963988 10892064
-0.32962862 0.55748564 1.0675462 10958882
-0.28874081 0.50439179 0.96587515 11089185
-0.26655322 0.48146489 0.92197174 11285794
-0.25176817 0.47076565 0.90148348 11088927
-0.23257011 0.45073307 0.86312246 11219999
-0.21493924 0.43233582 0.82789302 11024162
-0.20266499 0.4236891 0.81133515 11155490
-0.19087209 0.41538146 0.79542661 11023649
-0.17953277 0.40739337 0.78012997 10563867
-0.16862132 0.39970669 0.76541048 10892575
-0.1610973 0.39970669 0.76541048 10826785
-0.15357327 0.39970669 0.76541048 11024162
-0.14604926 0.39970669 0.76541048 10891804
-0.13852525 0.39970669 0.76541048 10563870
-0.13100122 0.39970669 0.76541048 10891805
-0.12347721 0.39970669 0.76541048 10498845
-0.11595318 0.39970669 0.76541048 10827552
-0.10642122 0.39230472 0.75123626 11023648
-0.099036537 0.39230472 0.75123626 10957340
-0.091651849 0.39230472 0.75123626 10761503
-0.084267162 0.39230472 0.75123626 11088415
-0.076882474 0.39230472 0.75123626 11285792
-0.069497794 0.39230472 0.75123626 11219484
-0.063285045 0.39970669 0.76541048 11220001
-0.055761028 0.39970669 0.76541048 11088928
-0.049164645 0.40739337 0.78012997 11286050
-0.043155771 0.4236891 0.81133515 11482913
-0.035898276 0.43233582 0.82789302 11416863
-0.027760049 0.43233582 0.82789302 11154978
0 0 0 11220769
-0.011483598 0.43233582 0.82789302 11351585
-0.0032784648 0.4236891 0.81133515 11154204
0.0045163427 0.40739337 0.78012997 10958369
0.012672457 0.4236891 0.81133515 10957595
0.021069305 0.43233582 0.82789302 11285790
0.031112367 0.46053162 0.88188601 11351326
0.04574855 0.52961141 1.014169 11417120
0 0 0 11547936
0 0 0 11352097
0 0 0 11416608
0.10378891 0.64195317 1.2292956 11679523
0.11949398 0.66201425 1.2677112 11614755
0.13195564 0.66201425 1.2677112 11417376
0.17774436 0.81478673 1.5602599 11613728
0.19308178 0.81478673 1.5602599 11547937
0.20841922 0.81478673 1.5602599 11613469
0.22375664 0.81478673 1.5602599 11351583
0.24865782 0.84737819 1.6226703 11482657
0.27563411 0.8826856 1.6902815 11351071
0.29224965 0.8826856 1.6902815 11286050
0.32229412 0.92106324 1.763772 11416865
0.33963206 0.92106324 1.763772 11219997
0.41051555 1.0592228 2.028338 11089953
0 0 0 10893087
0 0 0 11024417
1.0451812 2.3538284 4.5074177 11286305
0.81711692 1.7653712 3.380563 10958882
0.92765236 1.9258596 3.687887 11155491
1.1781055 2.3538284 4.5074177 11090209
1.5716746 3.0263507 5.7952509 11483169
1.4250619 2.648057 5.0708447 11548706
1.4749085 2.648057 5.0708447 11417633
1.5247551 2.648057 5.0708447 11155746
1.0497345 1.7653712 3.380563 11614242
0.86637247 1.412297 2.7044504 11352097
0.89295733 1.412297 2.7044504 11483939
0.86207086 1.3240285 2.5354223 11221024
0.88699412 1.3240285 2.5354223 11351585
0.91191745 1.3240285 2.5354223 11483171
0.93684077 1.3240285 2.5354223 11286815
0.90518975 1.2461444 2.3862798 11417889
0.92864698 1.2461444 2.3862798 11548962
0.53952569 0.70614851 1.3522252 11222054
0.5349853 0.68336952 1.3086051 11286562
0.54784894 0.68336952 1.3086051 11220769
0.54319036 0.66201425 1.2677112 11155746
0.55565202 0.66201425 1.2677112 11287075
0.56811363 0.66201425 1.2677112 11220769
0.58057529 0.66201425 1.2677112 11024158
0.61216718 0.68336952 1.3086051 11221281
0.62503082 0.68336952 1.3086051 11483171
0.63789451 0.68336952 1.3086051 11482913
0.65075815 0.68336952 1.3086051 11352355
0.66362178 0.68336952 1.3086051 11418148
0.67648542 0.68336952 1.3086051 11155489
0.68934906 0.68336952 1.3086051 10958369
0.70221269 0.68336952 1.3086051 11155492
0.71507639 0.68336952 1.3086051 11089955
0.72794002 0.68336952 1.3086051 10762273
0 0 0 10892832
0 0 0 10630945
0 0 0 10499363
0 0 0 9909022
1.5350003 1.3240285 2.5354223 10434081
1.6639185 1.412297 2.7044504 10827556
1.6905034 1.412297 2.7044504 10171679
1.9812558 1.6295735 3.1205199 10236704
2.0119307 1.6295735 3.1205199 10171683
2.0426054 1.6295735 3.1205199 10368033
1.5854496 1.2461444 2.3862798 10367775
1.1396424 0.8826856 1.6902815 10630690
1.1100076 0.84737819 1.6226703 10367520
1.0425543 0.78460944 1.5024725 10433568
1.0573236 0.78460944 1.5024725 10630691
1.072093 0.78460944 1.5024725 10433570
1.0119063 0.73049843 1.3988537 10695458
1.0256571 0.73049843 1.3988537 10564639
1.0394078 0.73049843 1.3988537 10432284
1.1311704 0.78460944 1.5024725 10695456
1.237615 0.84737819 1.6226703 10433568
1.3057978 0.8826856 1.6902815 10630175
1.3224133 0.8826856 1.6902815 10236704
1.2854677 0.84737819 1.6226703 10302754
1.1219126 0.73049843 1.3988537 10040351
1.1356634 0.73049843 1.3988537 10105631
