# .PCD v0.7 - Point Cloud Data file format
VERSION 0.7
FIELDS x y z rgb
SIZE 4 4 4 4
TYPE F F F U
COUNT 1 1 1 1
WIDTH 1312
HEIGHT 1
VIEWPOINT 0 0 0 1 0 0 0
POINTS 1312
DATA ascii
0.039798483 0.072093107 0.72440636 1312267
0.048657186 0.074763231 0.75123626 1574668
0.060525224 0.080744281 0.81133515 1377289
0.071354873 0.084108628 0.84514076 1115145
0.081357598 0.085898168 0.86312246 918536
0.089842133 0.085898168 0.86312246 1049352
0.10269674 0.089715868 0.90148348 917512
0.11674713 0.0938887 0.94341296 983561
0 0 0 852489
0 0 0 1049866
0 0 0 984072
0 0 0 3875357
0 0 0 5450782
0 0 0 4793885
0 0 0 3546650
0 0 0 4728091
0.78264397 0.36701947 3.687887 4924186
1.000873 0.44857937 4.5074177 4596505
0 0 0 4859674
0 0 0 5253664
1.1337974 0.44857937 4.5074177 5188125
1.1781055 0.44857937 4.5074177 5188636
0.91681015 0.33643451 3.380563 6765613
1.0364087 0.36701947 3.687887 7094059
1.3110299 0.44857937 4.5074177 7488046
1.355338 0.44857937 4.5074177 8014387
1.399646 0.44857937 4.5074177 8408626
1.4439542 0.44857937 4.5074177 8014125
1.0303354 0.31055495 3.1205199 6698788
0.98522377 0.28837243 2.8976254 6502436
1.0137075 0.28837243 2.8976254 6961442
1.0421914 0.28837243 2.8976254 7949361
0.99929678 0.2691476 2.7044504 6108198
1.0258816 0.2691476 2.7044504 8803897
0.98668742 0.25232589 2.5354223 8213565
0.95210421 0.23748319 2.3862798 3742741
0.97556144 0.23748319 2.3862798 852743
0.77196896 0.18350974 1.8439435 720903
0.66854197 0.15527748 1.5602599 655620
0.63503081 0.14418621 1.4488127 721159
0.62688398 0.13921428 1.3988537 1049610
0.64063483 0.13921428 1.3988537 1771532
0.70285863 0.14952646 1.5024725 1313294
0.74522913 0.15527748 1.5602599 1509903
0.79098916 0.16148856 1.6226703 1575696
0.84056258 0.16821726 1.6902815 1247501
0.97963214 0.19224828 1.9317503 1181452
0.99862134 0.19224828 1.9317503 1049868
1.1247275 0.21248496 2.1350925 1180939
1.1457155 0.21248496 2.1350925 983817
1.1667036 0.21248496 2.1350925 1115402
1.1876916 0.21248496 2.1350925 1180938
1.1482457 0.20186073 2.028338 2562075
1.2979827 0.22428969 2.2537088 2298391
1.1315457 0.19224828 1.9317503 1444369
0.96644932 0.16148856 1.6226703 787466
0.9446156 0.15527748 1.5602599 524296
0.95995307 0.15527748 1.5602599 590089
0.97529048 0.15527748 1.5602599 721673
0.99062788 0.15527748 1.5602599 721157
1.1371782 0.17553104 1.763772 590089
1.1545161 0.17553104 1.763772 787981
1.171854 0.17553104 1.763772 656141
1.2432462 0.18350974 1.8439435 984077
1.2613722 0.18350974 1.8439435 852748
1.2794983 0.18350974 1.8439435 852489
1.2976243 0.18350974 1.8439435 721415
1.3157504 0.18350974 1.8439435 590087
1.3338765 0.18350974 1.8439435 720904
1.3520025 0.18350974 1.8439435 1969679
1.4353727 0.19224828 1.9317503 6047031
1.4543619 0.19224828 1.9317503 6637115
1.5470188 0.20186073 2.028338 6176566
1.5669575 0.20186073 2.028338 6438965
1.5113295 0.19224828 1.9317503 7229503
1.5303187 0.19224828 1.9317503 6902083
1.5493079 0.19224828 1.9317503 6376004
1.4970108 0.18350974 1.8439435 6573376
1.4492614 0.17553104 1.763772 7688260
1.4665993 0.17553104 1.763772 4203297
1.4839373 0.17553104 1.763772 2691085
1.5012753 0.17553104 1.763772 1902600
1.5876411 0.18350974 1.8439435 851976
1.6057671 0.18350974 1.8439435 590086
1.4885688 0.16821726 1.6902815 589830
1.5051843 0.16821726 1.6902815 655623
1.5217998 0.16821726 1.6902815 524294
1.5384154 0.16821726 1.6902815 786952
1.4928297 0.16148856 1.6226703 655366
1.3970191 0.14952646 1.5024725 655882
1.4117885 0.14952646 1.5024725 655623
1.4814255 0.15527748 1.5602599 786439
1.496763 0.15527748 1.5602599 1180684
1.5121003 0.15527748 1.5602599 2430748
1.5274378 0.15527748 1.5602599 3087904
1.4856354 0.14952646 1.5024725 2956317
1.5004047 0.14952646 1.5024725 2364434
1.5734501 0.15527748 1.5602599 2035467
1.652339 0.16148856 1.6226703 2232334
1.6682899 0.16148856 1.6226703 1904143
1.7544174 0.16821726 1.6902815 1180939
1.7710329 0.16821726 1.6902815 983818
1.8653724 0.17553104 1.763772 721416
1.8827103 0.17553104 1.763772 852489
1.9864142 0.18350974 1.8439435 852744
2.9399922 0.2691476 2.7044504 655880
0 0 0 786950
0 0 0 918282
0 0 0 852487
0 0 0 852743
0 0 0 721415
2.7348542 0.23748319 2.3862798 655880
4.6891298 0.40372145 4.0566759 721673
3.6376977 0.31055495 3.1205199 655880
5.9611053 0.50465178 5.0708447 721673
5.3430686 0.44857937 4.5074177 852743
6.9266267 0.57674485 5.7952509 721673
8.1475267 0.67286903 6.761126 655880
0 0 0 721160
0 0 0 721160
0 0 0 787210
0 0 0 853001
0 0 0 918536
0 0 0 852232
0 0 0 787209
0 0 0 721672
0 0 0 1050122
0 0 0 786953
0 0 0 1115919
-5.3794961 0.4928875 4.5074177 2233635
-5.3351879 0.4928875 4.5074177 8872285
-6.8025594 0.63371247 5.7952509 10448989
-4.7219143 0.44359875 4.0566759 10711126
-4.6820374 0.44359875 4.0566759 10711124
-4.6421599 0.44359875 4.0566759 10777687
-4.1838932 0.40327156 3.687887 10907733
-3.8020041 0.36966559 3.380563 11039319
-3.7687731 0.36966559 3.380563 10974550
-3.7355418 0.36966559 3.380563 11040341
-4.0388846 0.40327156 3.687887 11303513
-4.0026326 0.40327156 3.687887 11368536
-3.9663804 0.40327156 3.687887 11236950
-4.3231416 0.44359875 4.0566759 11302487
-4.7591825 0.4928875 4.5074177 11171159
-7.0723109 0.73933119 6.761126 11236951
-7.0058489 0.73933119 6.761126 11302484
-3.78512 0.40327156 3.687887 10842701
-3.7488678 0.40327156 3.687887 8147248
-3.7126157 0.40327156 3.687887 6438182
-4.0440001 0.44359875 4.0566759 2888972
-3.6401114 0.40327156 3.687887 1312265
-3.9642456 0.44359875 4.0566759 1312266
-3.5676074 0.40327156 3.687887 2888723
-3.884491 0.44359875 4.0566759 3020050
-3.8446138 0.44359875 4.0566759 3347732
-3.8047364 0.44359875 4.0566759 3216661
-3.7648592 0.44359875 4.0566759 3020052
-3.7249818 0.44359875 4.0566759 3151636
-3.6851046 0.44359875 4.0566759 3217172
-3.6452272 0.44359875 4.0566759 3085843
-4.0059443 0.4928875 4.5074177 3414038
-3.9616363 0.4928875 4.5074177 3282709
-3.9173281 0.4928875 4.5074177 3217172
-3.8730199 0.4928875 4.5074177 3282706
-4.3073006 0.55449843 5.0708447 3151636
-4.2574539 0.55449843 5.0708447 2822930
-3.7400956 0.4928875 4.5074177 1377031
-3.3262088 0.44359875 4.0566759 655878
-3.2863314 0.44359875 4.0566759 852743
-3.2464542 0.44359875 4.0566759 852743
-3.2065768 0.44359875 4.0566759 786950
-3.5185549 0.4928875 4.5074177 1049352
-3.474247 0.4928875 4.5074177 1050122
-3.4299388 0.4928875 4.5074177 853513
-3.0470676 0.44359875 4.0566759 1115402
-3.0071902 0.44359875 4.0566759 917769
-3.2970145 0.4928875 4.5074177 917766
-3.2527063 0.4928875 4.5074177 852487
-3.2083981 0.4928875 4.5074177 721157
-3.1640902 0.4928875 4.5074177 721927
-3.119782 0.4928875 4.5074177 1246731
-3.0754738 0.4928875 4.5074177 1115914
-3.0311658 0.4928875 4.5074177 984072
-2.9868577 0.4928875 4.5074177 852743
-2.9425495 0.4928875 4.5074177 787466
-2.8982413 0.4928875 4.5074177 721157
-2.8539333 0.4928875 4.5074177 1114888
-3.1608281 0.55449843 5.0708447 1115145
-3.1109815 0.55449843 5.0708447 786696
-3.0611348 0.55449843 5.0708447 983302
-3.0112882 0.55449843 5.0708447 1115145
-2.9614415 0.55449843 5.0708447 984073
-2.9115949 0.55449843 5.0708447 721673
-2.8617485 0.55449843 5.0708447 1313551
-2.8119018 0.55449843 5.0708447 1115658
-2.7620552 0.55449843 5.0708447 1378060
-2.7122085 0.55449843 5.0708447 1246988
-2.6623619 0.55449843 5.0708447 1378059
-2.6125152 0.55449843 5.0708447 1114887
-2.9287641 0.63371247 5.7952509 1312524
-2.8717964 0.63371247 5.7952509 1246731
-2.4629753 0.55449843 5.0708447 984329
-2.4131286 0.55449843 5.0708447 2430487
-2.7008936 0.63371247 5.7952509 4468007
-2.6439261 0.63371247 5.7952509 7949619
-2.5869586 0.63371247 5.7952509 8409655
-2.9516561 0.73933119 6.761126 9000762
0 0 0 9591612
0 0 0 8738871
0 0 0 7096627
0 0 0 7358518
-0.20410483 0.057610221 0.52684098 6766901
-0.19892596 0.057610221 0.52684098 6437682
-0.19126315 0.056871634 0.52008665 5713958
-0.18615068 0.056871634 0.52008665 4924700
-0.1810382 0.056871634 0.52008665 4662044
-0.17592573 0.056871634 0.52008665 4727324
-0.17081326 0.056871634 0.52008665 4529433
-0.16570078 0.056871634 0.52008665 4333083
-0.16267386 0.057610221 0.52684098 4529691
-0.15749499 0.057610221 0.52684098 4529178
-0.1584911 0.059945773 0.54819942 4661018
-0.15519957 0.06076695 0.555709 4463898
0 0 0 3675926
0 0 0 3416101
0 0 0 3286056
-0.16783579 0.076482534 0.69942683 1969936
-0.15823227 0.07518623 0.68757218 1181711
-0.154085 0.076482534 0.69942683 984329
-0.1472096 0.076482534 0.69942683 787466
-0.1403342 0.076482534 0.69942683 853261
-0.13345881 0.076482534 0.69942683 1116685
-0.12236396 0.073933117 0.67611259 852489
-0.11198492 0.071548179 0.65430254 459016
-0.1055531 0.071548179 0.65430254 524809
-0.099121273 0.071548179 0.65430254 655366
-0.089792907 0.069312304 0.63385558 590602
-0.083562076 0.069312304 0.63385558 786696
-0.076141536 0.068245955 0.62410396 655882
-0.070006564 0.068245955 0.62410396 655880
-0.062903844 0.067211926 0.61464781 721673
-0.056861825 0.067211926 0.61464781 590087
-0.05081981 0.067211926 0.61464781 655882
-0.045466688 0.068245955 0.62410396 590087
-0.039946273 0.069312304 0.63385558 655366
-0.033196747 0.068245955 0.62410396 720903
-0.027920879 0.070412494 0.64391679 720903
-0.022299055 0.072721101 0.66502881 655880
-0.016577058 0.076482534 0.69942683 721416
-0.0097016599 0.076482534 0.69942683 1115145
-0.0029272006 0.079214059 0.72440636 918281
0.0041937465 0.079214059 0.72440636 852489
0.011116191 0.077824339 0.71169752 983048
0.018112209 0.077824339 0.71169752 1114888
0.025108228 0.077824339 0.71169752 1049352
0.032104246 0.077824339 0.71169752 1180938
0.040522091 0.080654308 0.73757738 1312267
0.048657186 0.082147911 0.75123626 1378060
0.060525224 0.088719748 0.81133515 983305
0.071354873 0.092416398 0.84514076 852489
0.079662651 0.092416398 0.84514076 655880
0.089842133 0.094382703 0.86312246 786698
0.098326661 0.094382703 0.86312246 851973
0.11155836 0.098577492 0.90148348 720904
0.12602092 0.1031625 0.94341296 786696
0.13529471 0.1031625 0.94341296 917766
0.15162063 0.10819481 0.98943311 1049608
0.17878969 0.11989155 1.0963988 2298388
0 0 0 5581855
0 0 0 4859421
0 0 0 4465948
0 0 0 5713697
0 0 0 6238754
0 0 0 6042918
0 0 0 6371368
0 0 0 7159083
0 0 0 7356203
0.81561148 0.3412298 3.1205199 7619886
0.84628636 0.3412298 3.1205199 7817009
0.95004123 0.36966559 3.380563 8407089
1.1799269 0.44359875 4.0566759 8342066
1.355338 0.4928875 4.5074177 8736308
1.399646 0.4928875 4.5074177 8999478
1.181417 0.40327156 3.687887 9065785
1.0303354 0.3412298 3.1205199 9196599
0.98522377 0.31685624 2.8976254 9262907
1.0137075 0.31685624 2.8976254 8934456
0.97271192 0.29573247 2.7044504 9000506
0.93684077 0.27724922 2.5354223 8146227
0.9617641 0.27724922 2.5354223 9196856
0.98668742 0.27724922 2.5354223 8539959
0.95210421 0.26094043 2.3862798 2230533
0.75384295 0.20163578 1.8439435 852743
0.65320456 0.1706149 1.5602599 590087
0.62078893 0.15842812 1.4488127 721159
0.61313319 0.15296507 1.3988537 852487
0.62688398 0.15296507 1.3988537 656134
0.64063483 0.15296507 1.3988537 852743
0.65438563 0.15296507 1.3988537 983559
0.74522913 0.1706149 1.5602599 983559
0.79098916 0.1774395 1.6226703 983559
0.80694008 0.1774395 1.6226703 984071
0.97963214 0.21123749 1.9317503 984071
0.99862134 0.21123749 1.9317503 1180937
1.0684911 0.22179937 2.028338 852488
1.1457155 0.23347302 2.1350925 918024
1.1667036 0.23347302 2.1350925 786953
1.1876916 0.23347302 2.1350925 721157
1.1482457 0.22179937 2.028338 786951
1.1681844 0.22179937 2.028338 786950
0.99010247 0.1848328 1.6902815 786950
0.96644932 0.1774395 1.6226703 721927
0.9446156 0.1706149 1.5602599 786950
0.92439926 0.16429582 1.5024725 720903
0.93916857 0.16429582 1.5024725 852740
0.99062788 0.1706149 1.5602599 3088155
1.046204 0.1774395 1.6226703 3350042
1.1064112 0.1848328 1.6902815 3349272
1.1230268 0.1848328 1.6902815 3350557
1.1891921 0.19286901 1.763772 2627866
1.2613722 0.20163578 1.8439435 1312782
1.2794983 0.20163578 1.8439435 852747
1.2976243 0.20163578 1.8439435 852746
1.2585438 0.19286901 1.763772 853001
1.3338765 0.20163578 1.8439435 786698
1.2932198 0.19286901 1.763772 1969423
1.3701285 0.20163578 1.8439435 6701876
1.4543619 0.21123749 1.9317503 6636344
1.4733511 0.21123749 1.9317503 6373175
1.5669575 0.22179937 2.028338 7229253
1.5113295 0.21123749 1.9317503 7295046
1.5303187 0.21123749 1.9317503 7492427
1.4788848 0.20163578 1.8439435 7229253
1.4970108 0.20163578 1.8439435 6834495
1.4492614 0.19286901 1.763772 6505275
1.405491 0.1848328 1.6902815 4005406
1.4839373 0.19286901 1.763772 2888465
1.5012753 0.19286901 1.763772 2100496
1.5876411 0.20163578 1.8439435 917512
1.5359511 0.19286901 1.763772 589831
1.5532892 0.19286901 1.763772 589832
1.5051843 0.1848328 1.6902815 524293
1.5217998 0.1848328 1.6902815 655366
1.5384154 0.1848328 1.6902815 720903
1.4928297 0.1774395 1.6226703 720903
1.4507507 0.1706149 1.5602599 852489
1.4660881 0.1706149 1.5602599 590343
1.4814255 0.1706149 1.5602599 459013
1.5566334 0.1774395 1.6226703 1246984
1.5725844 0.1774395 1.6226703 4071704
1.5274378 0.1706149 1.5602599 6636852
1.5427752 0.1706149 1.5602599 6898996
1.5581126 0.1706149 1.5602599 7359289
1.5734501 0.1706149 1.5602599 7490359
1.652339 0.1774395 1.6226703 7425081
1.6682899 0.1774395 1.6226703 7292216
1.7544174 0.1848328 1.6902815 6374966
1.7710329 0.1848328 1.6902815 3481383
1.8653724 0.19286901 1.763772 1115661
1.9682881 0.20163578 1.8439435 918282
0 0 0 918282
0 0 0 852743
0 0 0 852743
0 0 0 721415
0 0 0 786952
0 0 0 852232
11.523438 1.1089969 10.141689 852232
2.7348542 0.26094043 2.3862798 852747
3.607023 0.3412298 3.1205199 786953
3.6376977 0.3412298 3.1205199 655623
3.6683726 0.3412298 3.1205199 655880
3.6990473 0.3412298 3.1205199 655880
0 0 0 524296
0 0 0 787466
0 0 0 721673
0 0 0 787466
0 0 0 655880
0 0 0 655880
0 0 0 786696
0 0 0 852489
0 0 0 852489
0 0 0 918025
0 0 0 1773075
0 0 0 1180684
0 0 0 1247249
-5.3794961 0.53719562 4.5074177 2102306
-5.3351879 0.53719562 4.5074177 8739930
-6.8025594 0.69068003 5.7952509 10580057
-5.9023929 0.60434502 5.0708447 10776915
-5.8525462 0.60434502 5.0708447 10645842
-4.6421599 0.48347604 4.0566759 10711636
-4.1838932 0.43952367 3.687887 10842452
-3.8020041 0.40289667 3.380563 10974038
-3.7687731 0.40289667 3.380563 10974037
-3.7355418 0.40289667 3.380563 10908755
-4.0388846 0.43952367 3.687887 11236439
-4.0026326 0.43952367 3.687887 10975066
-3.9663804 0.43952367 3.687887 11301460
-4.3231416 0.48347604 4.0566759 11104851
-4.7591825 0.53719562 4.5074177 11236946
-4.7148743 0.53719562 4.5074177 11106387
-3.821372 0.43952367 3.687887 10778193
-3.4696932 0.40289667 3.380563 10843469
-3.4364622 0.40289667 3.380563 7949613
-3.7126157 0.43952367 3.687887 6306597
-4.0440001 0.48347604 4.0566759 2692366
-4.0041227 0.48347604 4.0566759 1049351
-3.9642456 0.48347604 4.0566759 1115658
-3.9243684 0.48347604 4.0566759 2822678
-3.884491 0.48347604 4.0566759 3217686
-3.8446138 0.48347604 4.0566759 3413779
-3.8047364 0.48347604 4.0566759 3283222
-3.7648592 0.48347604 4.0566759 3414038
-4.1388688 0.53719562 4.5074177 3479318
-4.0945606 0.53719562 4.5074177 3479572
-4.0502524 0.53719562 4.5074177 3545365
-4.0059443 0.53719562 4.5074177 3414037
-3.9616363 0.53719562 4.5074177 3348499
-3.9173281 0.53719562 4.5074177 3348758
-3.8730199 0.53719562 4.5074177 3086356
-3.8287117 0.53719562 4.5074177 3414292
-3.7844038 0.53719562 4.5074177 2822929
-3.7400956 0.53719562 4.5074177 1180423
-3.3262088 0.48347604 4.0566759 721418
-3.6514795 0.53719562 4.5074177 1049352
-3.2464542 0.48347604 4.0566759 984329
-3.2065768 0.48347604 4.0566759 852487
-3.5185549 0.53719562 4.5074177 787466
-3.474247 0.53719562 4.5074177 656134
-3.4299388 0.53719562 4.5074177 786950
-3.0470676 0.48347604 4.0566759 655879
-3.0071902 0.48347604 4.0566759 655880
-2.9673131 0.48347604 4.0566759 721673
-3.2527063 0.53719562 4.5074177 983816
-2.8875585 0.48347604 4.0566759 984586
-2.847681 0.48347604 4.0566759 1049608
-2.8078039 0.48347604 4.0566759 1180937
-3.0754738 0.53719562 4.5074177 1180937
-3.0311658 0.53719562 4.5074177 1181194
-2.9868577 0.53719562 4.5074177 853513
-2.9425495 0.53719562 4.5074177 1115918
-2.8982413 0.53719562 4.5074177 984075
-2.8539333 0.53719562 4.5074177 1378060
-3.1608281 0.60434502 5.0708447 1378316
-3.1109815 0.60434502 5.0708447 983559
-3.0611348 0.60434502 5.0708447 1313293
-3.0112882 0.60434502 5.0708447 1509645
-2.9614415 0.60434502 5.0708447 983559
-2.9115949 0.60434502 5.0708447 721157
-2.8617485 0.60434502 5.0708447 1312780
-2.8119018 0.60434502 5.0708447 1509645
-2.7620552 0.60434502 5.0708447 1509645
-2.7122085 0.60434502 5.0708447 1378570
-2.6623619 0.60434502 5.0708447 1378827
-2.6125152 0.60434502 5.0708447 1509644
-2.5626686 0.60434502 5.0708447 1574666
-2.8717964 0.69068003 5.7952509 1378316
-2.4629753 0.60434502 5.0708447 983305
-2.4131286 0.60434502 5.0708447 2626324
-2.363282 0.60434502 5.0708447 3611414
-2.6439261 0.69068003 5.7952509 3479822
-2.5869586 0.69068003 5.7952509 3479052
-2.5299909 0.69068003 5.7952509 3610640
-2.1638956 0.60434502 5.0708447 3414031
0 0 0 3347214
0 0 0 3019284
0 0 0 6174773
-0.20410483 0.06278909 0.52684098 6962999
-0.19892596 0.06278909 0.52684098 6305582
-0.19374709 0.06278909 0.52684098 5911340
-0.18615068 0.061984107 0.52008665 4990494
-0.1810382 0.061984107 0.52008665 4661787
-0.17592573 0.061984107 0.52008665 4595995
-0.17081326 0.061984107 0.52008665 4399133
-0.16570078 0.061984107 0.52008665 4529688
-0.16058831 0.061984107 0.52008665 4464152
-0.15749499 0.06278909 0.52684098 4070164
-0.15231612 0.06278909 0.52684098 4332821
-0.15310228 0.065334596 0.54819942 4398359
0 0 0 3806995
0 0 0 3153956
0 0 0 3220007
0 0 0 1378320
0 0 0 1181454
-0.154085 0.08335793 0.69942683 1115148
-0.14471453 0.081945091 0.68757218 1050122
-0.1356564 0.080579333 0.67611259 1313294
-0.1311968 0.081945091 0.68757218 983305
-0.12236396 0.080579333 0.67611259 655880
-0.11198492 0.077980004 0.65430254 589829
-0.10387765 0.076742224 0.64391679 459016
-0.097547919 0.076742224 0.64391679 720905
-0.089792907 0.075543128 0.63385558 393220
-0.082276508 0.074380927 0.62410396 1049352
-0.076141536 0.074380927 0.62410396 589829
-0.070006564 0.074380927 0.62410396 655364
-0.062903844 0.073253937 0.61464781 786950
-0.056013145 0.072160602 0.605474 655621
-0.050061308 0.072160602 0.605474 655366
-0.044109471 0.072160602 0.605474 786697
-0.039331716 0.074380927 0.62410396 524295
-0.033196747 0.074380927 0.62410396 721160
-0.027920879 0.076742224 0.64391679 786696
-0.022299055 0.079258367 0.66502881 852489
-0.015761793 0.079258367 0.66502881 983559
-0.0092245294 0.079258367 0.66502881 720903
-0.0029272006 0.086335003 0.72440636 1049352
0.0041937465 0.086335003 0.72440636 1114891
0.011314694 0.086335003 0.72440636 786950
0.01843564 0.086335003 0.72440636 786950
0.025556589 0.086335003 0.72440636 983559
0.032677535 0.086335003 0.72440636 918536
0.041272502 0.089532599 0.75123626 1115145
0.048657186 0.089532599 0.75123626 1180938
0.057099264 0.091221891 0.76541048 917766
0.069898658 0.098668583 0.82789302 720903
0.079662651 0.10072417 0.84514076 721157
0.087970421 0.10072417 0.84514076 917512
0.098326661 0.10286724 0.86312246 983559
0.11155836 0.10743912 0.90148348 917766
0.12041999 0.10743912 0.90148348 720903
0.13221982 0.10988092 0.92197174 852232
0.1445685 0.11243629 0.94341296 917769
0.16134679 0.11792098 0.98943311 1706766
0.18956734 0.13066919 1.0963988 4268057
0 0 0 4662295
0 0 0 5451555
0 0 0 6043177
0 0 0 6108714
0 0 0 6305321
0 0 0 6765354
0 0 0 7225130
0 0 0 7356716
0.81561148 0.37190464 3.1205199 7817519
0.84628636 0.37190464 3.1205199 8210479
0.87696117 0.37190464 3.1205199 8079665
0.90763605 0.37190464 3.1205199 8473652
0.93831086 0.37190464 3.1205199 8539445
0.96898574 0.37190464 3.1205199 8802356
0.99966061 0.37190464 3.1205199 9065017
0.95674002 0.34534001 2.8976254 9064758
0.98522377 0.34534001 2.8976254 9130549
1.0137075 0.34534001 2.8976254 8867380
0.97271192 0.32231733 2.7044504 8737077
0.93684077 0.30217251 2.5354223 8802098
0.9617641 0.30217251 2.5354223 8539957
0.98668742 0.30217251 2.5354223 8210482
0.95210421 0.28439766 2.3862798 1377285
0.97556144 0.28439766 2.3862798 852489
0.67933273 0.19339041 1.6226703 786696
0.5993824 0.16671586 1.3988537 590087
0.59269542 0.16115867 1.3522252 655623
0.62688398 0.16671586 1.3988537 655880
0.64063483 0.16671586 1.3988537 983307
0.65438563 0.16671586 1.3988537 720903
0.69199842 0.17267001 1.4488127 721160
0.76056653 0.18595232 1.5602599 655880
0.80694008 0.19339041 1.6226703 918279
0.822891 0.19339041 1.6226703 852487
0.99862134 0.23022668 1.9317503 655879
1.0176105 0.23022668 1.9317503 852487
1.0365998 0.23022668 1.9317503 721159
1.1083684 0.24173802 2.028338 590089
1.1283071 0.24173802 2.028338 655366
1.1482457 0.24173802 2.028338 917512
0.93454748 0.19339041 1.6226703 852489
0.9504984 0.19339041 1.6226703 1049352
0.92927819 0.18595232 1.5602599 983558
0.9446156 0.18595232 1.5602599 655368
0.92439926 0.1790652 1.5024725 720905
0.93916857 0.1790652 1.5024725 2560016
0.95393795 0.1790652 1.5024725 4203034
1.0059654 0.18595232 1.5602599 4071705
1.0621549 0.19339041 1.6226703 4006170
1.1230268 0.20144834 1.6902815 3939608
1.1891921 0.21020697 1.763772 2887697
1.20653 0.21020697 1.763772 2428947
1.2238679 0.21020697 1.763772 2166805
1.2412059 0.21020697 1.763772 2692890
1.2585438 0.21020697 1.763772 3217688
1.2758818 0.21020697 1.763772 3151897
1.2932198 0.21020697 1.763772 2888723
1.3701285 0.21976183 1.8439435 3940636
1.3882545 0.21976183 1.8439435 4070937
1.4733511 0.23022668 1.9317503 4268323
1.4923403 0.23022668 1.9317503 4267800
1.5113295 0.23022668 1.9317503 4728863
1.4607588 0.21976183 1.8439435 4926501
1.4788848 0.21976183 1.8439435 4992292
1.4319234 0.21020697 1.763772 4993321
1.4492614 0.21020697 1.763772 4993838
1.4665993 0.21020697 1.763772 3546140
1.551389 0.21976183 1.8439435 3020053
1.5695151 0.21976183 1.8439435 1902346
1.5876411 0.21976183 1.8439435 786696
1.5359511 0.21020697 1.763772 852489
1.5532892 0.21020697 1.763772 1114891
1.5051843 0.20144834 1.6902815 1049865
1.5217998 0.20144834 1.6902815 918536
1.5384154 0.20144834 1.6902815 852743
1.4928297 0.19339041 1.6226703 852744
1.5087806 0.19339041 1.6226703 918280
1.5247315 0.19339041 1.6226703 721414
1.5406824 0.19339041 1.6226703 721416
1.5566334 0.19339041 1.6226703 1180936
1.5725844 0.19339041 1.6226703 4006684
1.5885353 0.19339041 1.6226703 6373424
1.5427752 0.18595232 1.5602599 6702903
1.5581126 0.18595232 1.5602599 5913394
1.6363881 0.19339041 1.6226703 6307116
1.652339 0.19339041 1.6226703 6110773
1.6682899 0.19339041 1.6226703 6175795
1.7544174 0.20144834 1.6902815 5520690
1.7001917 0.19339041 1.6226703 4007206
1.8653724 0.21020697 1.763772 1115663
0 0 0 786696
0 0 0 721673
0 0 0 786696
0 0 0 918024
2.8060894 0.30217251 2.5354223 721159
3.0197468 0.32231733 2.7044504 786952
3.0463316 0.32231733 2.7044504 917766
3.0729165 0.32231733 2.7044504 1049096
2.7348542 0.28439766 2.3862798 917768
2.7583115 0.28439766 2.3862798 852489
2.9556293 0.30217251 2.5354223 918282
15.89628 1.6115867 13.522252 853259
3.4348295 0.34534001 2.8976254 787720
0 0 0 656134
0 0 0 721417
0 0 0 721675
0 0 0 656137
0 0 0 721673
0 0 0 786696
0 0 0 917768
0 0 0 918025
0 0 0 786953
0 0 0 721672
0 0 0 1444879
0 0 0 984075
0 0 0 1378321
-6.9164944 0.74764758 5.7952509 2167329
-6.8595266 0.74764758 5.7952509 7885648
-6.8025594 0.74764758 5.7952509 10514256
-6.7455916 0.74764758 5.7952509 10580305
-6.6886239 0.74764758 5.7952509 10645585
-4.6421599 0.52335334 4.0566759 10842451
-4.1838932 0.47577575 3.687887 10842964
-3.8020041 0.43612778 3.380563 10841681
-3.7687731 0.43612778 3.380563 10646101
-3.7355418 0.43612778 3.380563 10908247
-4.0388846 0.47577575 3.687887 10973780
-4.0026326 0.47577575 3.687887 11040342
-4.3630185 0.52335334 4.0566759 11105876
-4.8034906 0.58150375 4.5074177 11039573
-4.7591825 0.58150375 4.5074177 10973778
-3.5361555 0.43612778 3.380563 11302741
-3.5029244 0.43612778 3.380563 11040341
-3.4696932 0.43612778 3.380563 10777419
-3.4364622 0.43612778 3.380563 8079657
-3.7126157 0.47577575 3.687887 6371879
-4.0440001 0.52335334 4.0566759 2757905
-4.0041227 0.52335334 4.0566759 1049095
-3.9642456 0.52335334 4.0566759 1115915
-3.9243684 0.52335334 4.0566759 2626069
-3.884491 0.52335334 4.0566759 3217686
-3.8446138 0.52335334 4.0566759 3741972
-3.8047364 0.52335334 4.0566759 3677206
-4.183177 0.58150375 4.5074177 3677209
-4.1388688 0.58150375 4.5074177 3480599
-4.0945606 0.58150375 4.5074177 3546391
-4.0502524 0.58150375 4.5074177 3611413
-4.0059443 0.58150375 4.5074177 3611156
-3.9616363 0.58150375 4.5074177 3611410
-3.9173281 0.58150375 4.5074177 3677464
-3.8730199 0.58150375 4.5074177 3283733
-3.8287117 0.58150375 4.5074177 3216913
-3.4059634 0.52335334 4.0566759 2822929
-3.366086 0.52335334 4.0566759 1115144
-3.3262088 0.52335334 4.0566759 721675
-3.2863314 0.52335334 4.0566759 786953
-3.2464542 0.52335334 4.0566759 655879
-3.2065768 0.52335334 4.0566759 918281
-3.1666996 0.52335334 4.0566759 852489
-3.1268222 0.52335334 4.0566759 786696
-3.0869448 0.52335334 4.0566759 852489
-3.0470676 0.52335334 4.0566759 918282
-3.0071902 0.52335334 4.0566759 852489
-2.9673131 0.52335334 4.0566759 1181195
-2.9274356 0.52335334 4.0566759 1115144
-2.8875585 0.52335334 4.0566759 1246731
-2.847681 0.52335334 4.0566759 1180681
-3.119782 0.58150375 4.5074177 1312267
-3.0754738 0.58150375 4.5074177 1180680
-3.0311658 0.58150375 4.5074177 1180681
-3.3602147 0.65419167 5.0708447 984077
-2.9425495 0.58150375 4.5074177 918539
-2.8982413 0.58150375 4.5074177 1246731
-2.8539333 0.58150375 4.5074177 1772817
-3.1608281 0.65419167 5.0708447 2035217
-3.1109815 0.65419167 5.0708447 1640716
-3.0611348 0.65419167 5.0708447 655366
-3.0112882 0.65419167 5.0708447 655366
-2.9614415 0.65419167 5.0708447 393220
-3.3275371 0.74764758 5.7952509 786438
-3.2705696 0.74764758 5.7952509 786696
-2.8119018 0.65419167 5.0708447 1312780
-2.7620552 0.65419167 5.0708447 1115145
-3.0996668 0.74764758 5.7952509 852488
-2.6623619 0.65419167 5.0708447 918024
-2.6125152 0.65419167 5.0708447 721414
-2.5626686 0.65419167 5.0708447 655366
-2.8717964 0.74764758 5.7952509 851975
-2.8148289 0.74764758 5.7952509 590088
-2.4131286 0.65419167 5.0708447 1246731
-2.363282 0.65419167 5.0708447 1508873
-2.0563872 0.58150375 4.5074177 2099725
-2.012079 0.58150375 4.5074177 3019280
-1.9677709 0.58150375 4.5074177 3742743
-1.9234627 0.58150375 4.5074177 3413007
-1.8791547 0.58150375 4.5074177 3151120
0 0 0 3085845
0 0 0 5978677
-0.20410483 0.067967966 0.52684098 6765874
-0.19892596 0.067967966 0.52684098 6305323
-0.19374709 0.067967966 0.52684098 5517608
-0.18856822 0.067967966 0.52684098 5384996
-0.1810382 0.067096584 0.52008665 4792860
-0.17592573 0.067096584 0.52008665 4661532
-0.17081326 0.067096584 0.52008665 4661531
-0.16570078 0.067096584 0.52008665 4202267
-0.16058831 0.067096584 0.52008665 4135447
-0.15749499 0.067967966 0.52684098 4398359
-0.15231612 0.067967966 0.52684098 4201237
-0.15310228 0.070723422 0.54819942 4135701
0 0 0 4201495
0 0 0 2692893
0 0 0 1773850
0 0 0 1116173
0 0 0 1115661
-0.1514734 0.08870396 0.68757218 1049868
-0.14230262 0.087225549 0.67611259 1247247
-0.1356564 0.087225549 0.67611259 1050122
-0.12901019 0.087225549 0.67611259 656137
-0.12035801 0.085795626 0.66502881 590602
-0.11198492 0.08441183 0.65430254 393739
-0.10387765 0.083071962 0.64391679 589837
-0.097547919 0.083071962 0.64391679 786698
-0.088411473 0.080515899 0.62410396 720905
-0.082276508 0.080515899 0.62410396 786696
-0.076141536 0.080515899 0.62410396 589829
-0.070006564 0.080515899 0.62410396 590087
-0.063871592 0.080515899 0.62410396 590087
-0.057736624 0.080515899 0.62410396 590089
-0.05081981 0.079295956 0.61464781 393222
-0.044777796 0.079295956 0.61464781 524296
-0.039331716 0.080515899 0.62410396 655365
-0.033715446 0.081773959 0.63385558 655366
-0.031982098 0.09515515 0.73757738 786696
-0.024290042 0.093455948 0.72440636 720903
-0.016867884 0.091816381 0.71169752 786951
-0.0092245294 0.085795626 0.66502881 851975
-0.0029272006 0.093455948 0.72440636 786950
0.0041937465 0.093455948 0.72440636 917766
0.011314694 0.093455948 0.72440636 852743
0.01843564 0.093455948 0.72440636 918536
0.025556589 0.093455948 0.72440636 1049098
0.03327167 0.09515515 0.73757738 983559
0.041272502 0.096917287 0.75123626 1114888
0.048657186 0.096917287 0.75123626 1049352
0.056041874 0.096917287 0.75123626 720903
0.067157529 0.1026183 0.79542661 590087
0.078036882 0.10680681 0.82789302 589829
0.087970421 0.10903195 0.84514076 720903
0.096278191 0.10903195 0.84514076 590089
0.11155836 0.11630074 0.90148348 721159
0.12041999 0.11630074 0.90148348 720903
0.12928161 0.11630074 0.90148348 852230
0.14128286 0.11894394 0.92197174 787209
0.16134679 0.12764716 0.98943311 1443594
0.18956734 0.14144684 1.0963988 3545108
0 0 0 2165259
0 0 0 2297871
0 0 0 3085843
0 0 0 3611158
0 0 0 3808537
0 0 0 4071707
0 0 0 4071961
0 0 0 4400153
1.514707 0.74764758 5.7952509 4596504
0.84628636 0.40257949 3.1205199 4858902
0.71253097 0.32709584 2.5354223 5910044
0.73745424 0.32709584 2.5354223 6698271
0.76237756 0.32709584 2.5354223 6895647
0.89977241 0.37382379 2.8976254 7487012
0.92825621 0.37382379 2.8976254 8013101
0.95674002 0.37382379 2.8976254 8604724
0.98522377 0.37382379 2.8976254 8867124
0.94612706 0.3489022 2.7044504 9064246
0.97271192 0.3489022 2.7044504 8998453
0.93684077 0.32709584 2.5354223 8736564
0.9617641 0.32709584 2.5354223 8670773
0.98668742 0.32709584 2.5354223 4794139
0.95210421 0.30785489 2.3862798 1049355
0.66338181 0.20934133 1.6226703 655880
0.67933273 0.20934133 1.6226703 655880
0.69528365 0.20934133 1.6226703 852489
0.63503081 0.1869119 1.4488127 852486
0.62688398 0.18046667 1.3988537 852743
0.64063483 0.18046667 1.3988537 852489
0.65438563 0.18046667 1.3988537 1049608
0.66813642 0.18046667 1.3988537 918279
0.7062403 0.1869119 1.4488127 1049352
0.77590394 0.20128974 1.5602599 918024
0.79124135 0.20128974 1.5602599 918024
0.83884192 0.20934133 1.6226703 655366
1.0176105 0.24921587 1.9317503 852230
1.0365998 0.24921587 1.9317503 655623
1.0555888 0.24921587 1.9317503 786696
1.074578 0.24921587 1.9317503 720903
0.88326591 0.20128974 1.5602599 1444110
0.89860338 0.20128974 1.5602599 1444110
0.91394079 0.20128974 1.5602599 1640972
0.89486051 0.19383457 1.5024725 1378059
0.9446156 0.20128974 1.5602599 720903
0.92439926 0.19383457 1.5024725 917766
0.97529048 0.20128974 1.5602599 3414550
0.99062788 0.20128974 1.5602599 4398613
1.046204 0.20934133 1.6226703 4005912
1.0621549 0.20934133 1.6226703 3809560
1.1230268 0.21806389 1.6902815 3546391
1.1396424 0.21806389 1.6902815 3545624
1.20653 0.22754492 1.763772 2363923
1.2238679 0.22754492 1.763772 1903629
1.2412059 0.22754492 1.763772 2101012
1.2061045 0.21806389 1.6902815 1772559
1.2758818 0.22754492 1.763772 1509643
1.2932198 0.22754492 1.763772 1772045
1.3701285 0.23788787 1.8439435 2626584
1.3882545 0.23788787 1.8439435 3217176
1.4063807 0.23788787 1.8439435 3742742
1.4245067 0.23788787 1.8439435 3873815
1.4426327 0.23788787 1.8439435 3874070
1.4607588 0.23788787 1.8439435 3809050
1.4788848 0.23788787 1.8439435 4202268
1.4319234 0.22754492 1.763772 4005146
1.4492614 0.22754492 1.763772 4136732
1.4665993 0.22754492 1.763772 3282964
1.551389 0.23788787 1.8439435 2494223
1.5695151 0.23788787 1.8439435 1706250
1.5186132 0.22754492 1.763772 1640457
1.5359511 0.22754492 1.763772 1706250
1.5532892 0.22754492 1.763772 1969424
1.5051843 0.21806389 1.6902815 2101265
1.5217998 0.21806389 1.6902815 2364180
1.5384154 0.21806389 1.6902815 2627094
1.5550309 0.21806389 1.6902815 2561302
1.5716465 0.21806389 1.6902815 2495766
1.588262 0.21806389 1.6902815 2495253
1.6048776 0.21806389 1.6902815 2298387
1.5566334 0.20934133 1.6226703 2495509
1.5725844 0.20934133 1.6226703 3217428
1.5885353 0.20934133 1.6226703 5189155
1.6044862 0.20934133 1.6226703 5911850
1.6204371 0.20934133 1.6226703 5517355
1.6363881 0.20934133 1.6226703 5979447
1.652339 0.20934133 1.6226703 5913652
1.6682899 0.20934133 1.6226703 5847087
1.7544174 0.21806389 1.6902815 5059114
1.7710329 0.21806389 1.6902815 3218463
1.8653724 0.22754492 1.763772 1246734
1.8827103 0.22754492 1.763772 721417
0 0 0 721673
0 0 0 721673
2.617568 0.30785489 2.3862798 1116431
2.6410253 0.30785489 2.3862798 1115918
2.6644826 0.30785489 2.3862798 1049868
2.8559361 0.32709584 2.5354223 852489
2.8808594 0.32709584 2.5354223 852489
2.9057827 0.32709584 2.5354223 786696
2.930706 0.32709584 2.5354223 917769
2.9556293 0.32709584 2.5354223 852491
3.4063458 0.37382379 2.8976254 786953
3.2058408 0.3489022 2.7044504 853000
4.0405321 0.43612778 3.380563 656136
8.1475267 0.87225556 6.761126 655624
0 0 0 786697
0 0 0 786698
0 0 0 786950
0 0 0 918536
0 0 0 917766
0 0 0 852486
0 0 0 853000
0 0 0 787720
0 0 0 1116171
0 0 0 1050122
0 0 0 1181454
-6.9164944 0.8046152 5.7952509 2233120
-6.8595266 0.8046152 5.7952509 7229003
-6.8025594 0.8046152 5.7952509 10383184
-6.7455916 0.8046152 5.7952509 10515282
-6.6886239 0.8046152 5.7952509 10515025
-5.1579552 0.62581187 4.5074177 10777427
-4.1838932 0.51202786 3.687887 10711378
-3.8020041 0.46935886 3.380563 10646357
-3.7687731 0.46935886 3.380563 10842710
-3.7355418 0.46935886 3.380563 10908757
-3.4175179 0.43325436 3.1205199 10973780
-4.0026326 0.51202786 3.687887 11236439
-3.9663804 0.51202786 3.687887 10974550
-3.3254933 0.43325436 3.1205199 11171157
-3.2948184 0.43325436 3.1205199 10974032
-3.2641437 0.43325436 3.1205199 11105618
-3.5029244 0.46935886 3.380563 11236693
-3.2027938 0.43325436 3.1205199 10712141
-3.4364622 0.46935886 3.380563 8277550
-4.0838776 0.56323069 4.0566759 6109734
-4.0440001 0.56323069 4.0566759 3282705
-4.4490256 0.62581187 4.5074177 1115145
-4.4047174 0.62581187 4.5074177 1180938
-4.3604093 0.62581187 4.5074177 2363669
-3.884491 0.56323069 4.0566759 3349269
-3.8446138 0.56323069 4.0566759 3480085
-4.2274847 0.62581187 4.5074177 3348497
-4.183177 0.62581187 4.5074177 3349015
-4.1388688 0.62581187 4.5074177 3480085
-4.0945606 0.62581187 4.5074177 3414293
-4.0502524 0.62581187 4.5074177 3348243
-4.0059443 0.62581187 4.5074177 3283220
-3.9616363 0.62581187 4.5074177 3217426
-3.9173281 0.62581187 4.5074177 3414292
-3.8730199 0.62581187 4.5074177 3217429
-3.4458406 0.56323069 4.0566759 3085327
-3.4059634 0.56323069 4.0566759 1639941
-3.366086 0.56323069 4.0566759 918535
-3.3262088 0.56323069 4.0566759 787466
-3.6514795 0.62581187 4.5074177 918536
-3.2464542 0.56323069 4.0566759 721672
-3.2065768 0.56323069 4.0566759 1049353
-3.1666996 0.56323069 4.0566759 1049098
-3.1268222 0.56323069 4.0566759 918537
-3.0869448 0.56323069 4.0566759 918281
-3.0470676 0.56323069 4.0566759 852489
-3.0071902 0.56323069 4.0566759 984329
-2.9673131 0.56323069 4.0566759 918536
-2.661305 0.51202786 3.687887 1049352
-2.8875585 0.56323069 4.0566759 1246731
-3.1640902 0.62581187 4.5074177 1049865
-3.119782 0.62581187 4.5074177 1180681
-3.0754738 0.62581187 4.5074177 1180680
-3.0311658 0.62581187 4.5074177 984074
-2.9868577 0.62581187 4.5074177 655623
-2.9425495 0.62581187 4.5074177 852233
-2.8982413 0.62581187 4.5074177 1379344
-2.8539333 0.62581187 4.5074177 1970193
-3.1608281 0.70403832 5.0708447 1904659
-3.1109815 0.70403832 5.0708447 2101266
-3.0611348 0.70403832 5.0708447 918535
-3.0112882 0.70403832 5.0708447 787207
-2.9614415 0.70403832 5.0708447 524809
-3.3275371 0.8046152 5.7952509 459271
-3.2705696 0.8046152 5.7952509 590089
-3.2136018 0.8046152 5.7952509 787464
-2.7620552 0.70403832 5.0708447 786950
-3.0996668 0.8046152 5.7952509 721675
-2.6623619 0.70403832 5.0708447 918281
-2.6125152 0.70403832 5.0708447 918281
-2.5626686 0.70403832 5.0708447 787208
-2.5128219 0.70403832 5.0708447 852488
-2.4629753 0.70403832 5.0708447 1049355
-2.4131286 0.70403832 5.0708447 1575693
-2.363282 0.70403832 5.0708447 1245960
-2.0563872 0.62581187 4.5074177 1837325
-2.012079 0.62581187 4.5074177 2166288
-1.9677709 0.62581187 4.5074177 3281937
-1.9234627 0.62581187 4.5074177 3413008
-1.8791547 0.62581187 4.5074177 2494737
0 0 0 2559760
0 0 0 6109749
-0.20679042 0.074109294 0.53377312 6569521
-0.19892596 0.073146835 0.52684098 6043182
-0.19374709 0.073146835 0.52684098 5714219
-0.18856822 0.073146835 0.52684098 5188389
-0.18338934 0.073146835 0.52684098 4727067
-0.17821047 0.073146835 0.52684098 4398875
-0.17081326 0.07220906 0.52008665 4398616
-0.16570078 0.07220906 0.52008665 4332824
-0.16058831 0.07220906 0.52008665 4266521
-0.15749499 0.073146835 0.52684098 4004887
-0.15432028 0.074109294 0.53377312 4398359
-0.15106091 0.075097419 0.5408901 4201494
0 0 0 4135447
0 0 0 2560534
0 0 0 1641490
0 0 0 1050122
0 0 0 984076
0 0 0 1115661
-0.14230262 0.093871772 0.67611259 919309
-0.1356564 0.093871772 0.67611259 655882
-0.12689526 0.092332892 0.66502881 589835
-0.11841674 0.090843655 0.65430254 458759
-0.11198492 0.090843655 0.65430254 721159
-0.10387765 0.089401692 0.64391679 787468
-0.097547919 0.089401692 0.64391679 786698
-0.088411473 0.086650871 0.62410396 655368
-0.082276508 0.086650871 0.62410396 524290
-0.076141536 0.086650871 0.62410396 393222
-0.068945855 0.085337974 0.61464781 524294
-0.062903844 0.085337974 0.61464781 524294
-0.058638759 0.08800479 0.63385558 590089
-0.052407932 0.08800479 0.63385558 524293
-0.046177104 0.08800479 0.63385558 720903
-0.039946273 0.08800479 0.63385558 655880
-0.039232515 0.10240557 0.73757738 655368
-0.031410988 0.1005769 0.72440636 720903
-0.024290042 0.1005769 0.72440636 721160
-0.017169096 0.1005769 0.72440636 721160
-0.010048147 0.1005769 0.72440636 917512
-0.0029272006 0.1005769 0.72440636 917766
0.0041937465 0.1005769 0.72440636 851973
0.011314694 0.1005769 0.72440636 786696
0.01843564 0.1005769 0.72440636 786696
0.026021253 0.10240557 0.73757738 786696
0.033887815 0.10430197 0.75123626 983305
0.042051226 0.10626993 0.76541048 655364
0.049575243 0.10626993 0.76541048 918282
0.057099264 0.10626993 0.76541048 2558479
0.067157529 0.11043738 0.79542661 1968913
0.078036882 0.11494503 0.82789302 1378833
0.087970421 0.11733972 0.84514076 786696
0.10269674 0.12516236 0.90148348 655366
0.11155836 0.12516236 0.90148348 917509
0.12041999 0.12516236 0.90148348 851975
0.12928161 0.12516236 0.90148348 917769
0.15162063 0.13737333 0.98943311 983305
0.17878969 0.1522245 1.0963988 1378059
0 0 0 3874840
0 0 0 1836812
0 0 0 1508875
0 0 0 1180680
0 0 0 1640204
0 0 0 4135708
0 0 0 9518639
0.75426179 0.43325436 3.1205199 11748396
1.1337974 0.62581187 4.5074177 12668206
1.1781055 0.62581187 4.5074177 12733741
1.1001723 0.56323069 4.0566759 12601900
0.71253097 0.35201916 2.5354223 12798766
0.73745424 0.35201916 2.5354223 12798511
0.76237756 0.35201916 2.5354223 12470570
0.78730088 0.35201916 2.5354223 12471855
0.92825621 0.4023076 2.8976254 12537649
0.95674002 0.4023076 2.8976254 12340531
0.98522377 0.4023076 2.8976254 12471859
0.94612706 0.37548709 2.7044504 12209973
0.97271192 0.37548709 2.7044504 12210231
0.93684077 0.35201916 2.5354223 11750963
0.90518975 0.33131215 2.3862798 11488306
0.56382138 0.2011538 1.4488127 10176565
0.64743084 0.22529225 1.6226703 10111804
0.66338181 0.22529225 1.6226703 9322545
0.67933273 0.22529225 1.6226703 8141615
0.62078893 0.2011538 1.4488127 6237728
0.61313319 0.19421746 1.3988537 4595990
0.60598785 0.18774354 1.3522252 4070936
0.61928028 0.18774354 1.3522252 3873556
0.63257271 0.18774354 1.3522252 3348500
0.66813642 0.19421746 1.3988537 2691599
0.68188721 0.19421746 1.3988537 2232337
0.72048217 0.2011538 1.4488127 2363925
0.76193613 0.20860395 1.5024725 2232595
0.80657881 0.21662718 1.5602599 2101010
0.89040917 0.23467943 1.6902815 985099
1.0365998 0.26820505 1.9317503 1838610
1.0555888 0.26820505 1.9317503 2035217
1.074578 0.26820505 1.9317503 983815
0.85055238 0.20860395 1.5024725 1904401
0.86532176 0.20860395 1.5024725 1903631
0.88009113 0.20860395 1.5024725 1772302
0.89486051 0.20860395 1.5024725 852486
0.9446156 0.21662718 1.5602599 721158
0.95995307 0.21662718 1.5602599 786693
1.014302 0.22529225 1.6226703 3808535
1.0302529 0.22529225 1.6226703 4399385
1.1371782 0.24488288 1.763772 4595994
1.1545161 0.24488288 1.763772 4464925
1.0781058 0.22529225 1.6226703 4268571
1.1396424 0.23467943 1.6902815 4137500
1.1562579 0.23467943 1.6902815 4138013
1.1728734 0.23467943 1.6902815 4203293
1.1419095 0.22529225 1.6226703 4005398
1.1578604 0.22529225 1.6226703 2954773
1.22272 0.23467943 1.6902815 1640457
1.2393357 0.23467943 1.6902815 1049350
1.3105577 0.24488288 1.763772 1049349
1.3278956 0.24488288 1.763772 2756884
1.3452337 0.24488288 1.763772 4267032
1.3625716 0.24488288 1.763772 3807766
1.3799095 0.24488288 1.763772 4071191
1.3972476 0.24488288 1.763772 4531742
1.3556443 0.23467943 1.6902815 4334621
1.4319234 0.24488288 1.763772 4269088
1.3888755 0.23467943 1.6902815 3940636
1.4665993 0.24488288 1.763772 3874589
1.551389 0.25601393 1.8439435 3414812
1.5695151 0.25601393 1.8439435 2823189
1.5876411 0.25601393 1.8439435 2494483
1.5359511 0.24488288 1.763772 2363409
1.5532892 0.24488288 1.763772 2428946
1.5706271 0.24488288 1.763772 2363664
1.5217998 0.23467943 1.6902815 2561044
1.5384154 0.23467943 1.6902815 2561300
1.5550309 0.23467943 1.6902815 2692116
1.5716465 0.23467943 1.6902815 2626069
1.588262 0.23467943 1.6902815 2691862
1.6048776 0.23467943 1.6902815 2626323
1.5566334 0.22529225 1.6226703 2823702
1.5725844 0.22529225 1.6226703 3217431
1.5885353 0.22529225 1.6226703 3874333
1.6044862 0.22529225 1.6226703 4005147
1.6204371 0.22529225 1.6226703 3742490
1.6363881 0.22529225 1.6226703 3807510
1.652339 0.22529225 1.6226703 4070168
1.7378019 0.23467943 1.6902815 4398363
1.7544174 0.23467943 1.6902815 3348761
1.7710329 0.23467943 1.6902815 2691864
1.8653724 0.24488288 1.763772 2298133
1.8827103 0.24488288 1.763772 2692374
1.9000483 0.24488288 1.763772 2364437
2.0045402 0.25601393 1.8439435 2364437
2.1189837 0.26820505 1.9317503 2429716
2.2448716 0.28161535 2.028338 2429717
2.6644826 0.33131215 2.3862798 2167317
2.6879399 0.33131215 2.3862798 2364953
2.8808594 0.35201916 2.5354223 2101782
2.9057827 0.35201916 2.5354223 2233368
2.930706 0.35201916 2.5354223 2232598
2.9556293 0.35201916 2.5354223 2298391
2.9805527 0.35201916 2.5354223 2101782
3.005476 0.35201916 2.5354223 2101013
4.0405321 0.46935886 3.380563 1969170
8.1475267 0.93871772 6.761126 1772305
0 0 0 1707282
12.420677 1.4080766 10.141689 1378317
0 0 0 1378061
0 0 0 1115660
0 0 0 1180683
0 0 0 918025
0 0 0 984075
0 0 0 984075
0 0 0 1509646
0 0 0 1246986
0 0 0 1181710
-8.0692434 1.0051799 6.761126 1839647
-9.6033382 1.206216 8.1133518 6771278
-7.9363189 1.0051799 6.761126 10776401
-7.8698568 1.0051799 6.761126 10775888
-6.6886239 0.86158276 5.7952509 10645589
-5.1579552 0.67011994 4.5074177 10711382
-4.6022825 0.60310799 4.0566759 10711380
-4.1476407 0.54827994 3.687887 10514258
-3.7687731 0.50258994 3.380563 10711124
-3.7355418 0.50258994 3.380563 10908245
-3.4175179 0.46392921 3.1205199 11039572
-3.386843 0.46392921 3.1205199 11170899
-3.3561683 0.46392921 3.1205199 10974033
-3.3254933 0.46392921 3.1205199 10842962
-3.2948184 0.46392921 3.1205199 11499093
-3.2641437 0.46392921 3.1205199 11498839
-3.2334688 0.46392921 3.1205199 11104851
-3.2027938 0.46392921 3.1205199 10841931
-3.1721191 0.46392921 3.1205199 8475186
-4.0838776 0.60310799 4.0566759 5846305
-4.0440001 0.60310799 4.0566759 3413777
-4.4490256 0.67011994 4.5074177 983816
-4.4047174 0.67011994 4.5074177 1246731
-3.9243684 0.60310799 4.0566759 1969424
-3.884491 0.60310799 4.0566759 3151638
-3.8446138 0.60310799 4.0566759 3151636
-4.2274847 0.67011994 4.5074177 3283476
-4.183177 0.67011994 4.5074177 3216916
-4.1388688 0.67011994 4.5074177 3151893
-4.0945606 0.67011994 4.5074177 3151637
-4.0502524 0.67011994 4.5074177 3348500
-4.0059443 0.67011994 4.5074177 2888721
-3.9616363 0.67011994 4.5074177 3151636
-3.9173281 0.67011994 4.5074177 2888722
-3.8730199 0.67011994 4.5074177 2757394
-3.4458406 0.60310799 4.0566759 2363150
-3.7844038 0.67011994 4.5074177 1640714
-3.366086 0.60310799 4.0566759 984329
-3.6957874 0.67011994 4.5074177 1246731
-3.6514795 0.67011994 4.5074177 1180681
-3.6071713 0.67011994 4.5074177 1115145
-3.5628631 0.67011994 4.5074177 1180938
-3.5185549 0.67011994 4.5074177 1049351
-3.1268222 0.60310799 4.0566759 918536
-3.0869448 0.60310799 4.0566759 786952
-3.0470676 0.60310799 4.0566759 655621
-2.7338092 0.54827994 3.687887 589829
-2.9673131 0.60310799 4.0566759 918281
-2.661305 0.54827994 3.687887 1049352
-2.8875585 0.60310799 4.0566759 1115915
-2.847681 0.60310799 4.0566759 1115147
-3.119782 0.67011994 4.5074177 1180681
-3.0754738 0.67011994 4.5074177 1050122
-3.0311658 0.67011994 4.5074177 1115915
-2.9868577 0.67011994 4.5074177 1313294
-2.9425495 0.67011994 4.5074177 852745
-2.8982413 0.67011994 4.5074177 1576979
-2.8539333 0.67011994 4.5074177 2035987
-3.1608281 0.75388491 5.0708447 2035732
-3.1109815 0.75388491 5.0708447 2035730
-3.0611348 0.75388491 5.0708447 2495253
-3.0112882 0.75388491 5.0708447 2363410
-2.9614415 0.75388491 5.0708447 2560276
-3.3275371 0.86158276 5.7952509 2232338
-3.2705696 0.86158276 5.7952509 2101008
-3.2136018 0.86158276 5.7952509 1049865
-3.1566343 0.86158276 5.7952509 655623
-3.0996668 0.86158276 5.7952509 1838868
-3.0426991 0.86158276 5.7952509 2101267
-2.9857316 0.86158276 5.7952509 1903116
-2.9287641 0.86158276 5.7952509 918537
-2.8717964 0.86158276 5.7952509 918026
-2.8148289 0.86158276 5.7952509 1443852
-2.4131286 0.75388491 5.0708447 1772045
-2.363282 0.75388491 5.0708447 983560
-2.0563872 0.67011994 4.5074177 1706768
-2.012079 0.67011994 4.5074177 2363667
-2.2137423 0.75388491 5.0708447 3019280
-2.1638956 0.75388491 5.0708447 3939866
-2.114049 0.75388491 5.0708447 4464666
0 0 0 4793631
0 0 0 6372148
0 0 0 6700082
-0.20154341 0.079356305 0.53377312 5911596
-0.19629639 0.079356305 0.53377312 5976106
-0.19104938 0.079356305 0.53377312 5056803
-0.18338934 0.078325704 0.52684098 4662044
-0.18055536 0.079356305 0.53377312 4530461
-0.1730316 0.078325704 0.52684098 4464412
-0.16785273 0.078325704 0.52684098 4595481
-0.16267386 0.078325704 0.52684098 4398360
-0.15749499 0.078325704 0.52684098 4201494
-0.15432028 0.079356305 0.53377312 4200981
-0.15519957 0.082617529 0.555709 4201494
0 0 0 4332564
0 0 0 3348249
0 0 0 1050381
0 0 0 984333
0 0 0 919052
-0.1514734 0.10222169 0.68757218 1115663
-0.14230262 0.10051799 0.67611259 918280
-0.13343252 0.098870158 0.66502881 590087
-0.12689526 0.098870158 0.66502881 590089
-0.12035801 0.098870158 0.66502881 458759
-0.11198492 0.097275473 0.65430254 524552
-0.10387765 0.095731422 0.64391679 786696
-0.094546445 0.092785835 0.62410396 458755
-0.088411473 0.092785835 0.62410396 655364
-0.082276508 0.092785835 0.62410396 524293
-0.076141536 0.092785835 0.62410396 458757
-0.068945855 0.091379985 0.61464781 589829
-0.062903844 0.091379985 0.61464781 720903
-0.058638759 0.094235614 0.63385558 655880
-0.052407932 0.094235614 0.63385558 458759
-0.046177104 0.094235614 0.63385558 655367
-0.039331716 0.092785835 0.62410396 721158
-0.033196747 0.092785835 0.62410396 851976
-0.027061775 0.092785835 0.62410396 720905
-0.021591149 0.095731422 0.64391679 852233
-0.016867884 0.10580841 0.71169752 917769
-0.0098718647 0.10580841 0.71169752 917512
-0.0028758463 0.10580841 0.71169752 983305
0.004120172 0.10580841 0.71169752 852491
0.011314694 0.10769784 0.72440636 917512
0.018770834 0.10965598 0.73757738 1114888
0.026021253 0.10965598 0.73757738 786696
0.03327167 0.10965598 0.73757738 459016
0.042859904 0.1159823 0.78012997 786439
0.050528619 0.1159823 0.78012997 917512
0.059338454 0.11825646 0.79542661 2233364
0.068500683 0.12062159 0.81133515 1904656
0.079662651 0.12564749 0.84514076 2035215
0 0 0 1967369
0 0 0 720903
0 0 0 721157
0 0 0 720903
0 0 0 851975
0 0 0 852489
0 0 0 1509389
0 0 0 5580063
0 0 0 4663332
0 0 0 9125938
0 0 0 11813419
0 0 0 12535336
0 0 0 12665639
0 0 0 12404523
0.75426179 0.46392921 3.1205199 12601643
1.0204177 0.60310799 4.0566759 13257006
1.060295 0.60310799 4.0566759 13060654
0.84628636 0.46392921 3.1205199 12863787
0.71253097 0.37694246 2.5354223 12536365
0.73745424 0.37694246 2.5354223 13192238
0.76237756 0.37694246 2.5354223 12996144
0.78730088 0.37694246 2.5354223 13061423
0.81222421 0.37694246 2.5354223 12930608
0.89295733 0.40207195 2.7044504 12798767
0.91954219 0.40207195 2.7044504 13061680
0.94612706 0.40207195 2.7044504 12931121
0.97271192 0.40207195 2.7044504 12734512
