# .PCD v0.7 - Point Cloud Data file format
VERSION 0.7
FIELDS x y z rgb
SIZE 4 4 4 4
TYPE F F F U
COUNT 1 1 1 1
WIDTH 1317
HEIGHT 1
VIEWPOINT 0 0 0 1 0 0 0
POINTS 1317
DATA ascii
1.2238679 0.054165341 1.763772 852747
1.2412059 0.054165341 1.763772 786696
1.2585438 0.054165341 1.763772 852489
1.2758818 0.054165341 1.763772 721162
1.3520025 0.056627404 1.8439435 655628
1.3701285 0.056627404 1.8439435 720905
1.3882545 0.056627404 1.8439435 853001
1.4733511 0.059323944 1.9317503 590600
1.4923403 0.059323944 1.9317503 720903
1.5113295 0.059323944 1.9317503 590089
1.5303187 0.059323944 1.9317503 720903
1.4145855 0.054165341 1.763772 851975
1.4319234 0.054165341 1.763772 983562
1.4492614 0.054165341 1.763772 590089
1.405491 0.051908452 1.6902815 524296
1.551389 0.056627404 1.8439435 655628
1.5695151 0.056627404 1.8439435 851975
1.5876411 0.056627404 1.8439435 786440
1.6057671 0.056627404 1.8439435 786698
1.5532892 0.054165341 1.763772 720905
1.6420193 0.056627404 1.8439435 720905
1.6601453 0.056627404 1.8439435 786698
1.6782713 0.056627404 1.8439435 852236
1.622641 0.054165341 1.763772 655369
1.6399789 0.054165341 1.763772 655881
1.6573169 0.054165341 1.763772 721417
1.6048776 0.051908452 1.6902815 786696
1.6214931 0.051908452 1.6902815 721674
1.6381086 0.051908452 1.6902815 853004
1.6547242 0.051908452 1.6902815 721416
1.6713398 0.051908452 1.6902815 852747
1.6879553 0.051908452 1.6902815 852489
1.7045708 0.051908452 1.6902815 852745
1.7211864 0.051908452 1.6902815 918793
1.7378019 0.051908452 1.6902815 918282
1.8306965 0.054165341 1.763772 918283
1.8480344 0.054165341 1.763772 918540
1.7876486 0.051908452 1.6902815 853261
1.6037904 0.04614085 1.5024725 1115148
1.5069349 0.042958718 1.3988537 853261
1.7639954 0.049832117 1.6226703 918284
1.7799463 0.049832117 1.6226703 984075
0 0 0 787466
0 0 0 918282
0 0 0 1246477
0 0 0 1181454
5.1658363 0.13842255 4.5074177 918282
4.6891298 0.12458029 4.0566759 1115403
4.7290072 0.12458029 4.0566759 1115658
4.7688847 0.12458029 4.0566759 853513
4.8087616 0.12458029 4.0566759 919052
4.848639 0.12458029 4.0566759 1049870
4.8885164 0.12458029 4.0566759 984075
5.4759932 0.13842255 4.5074177 984075
5.5203009 0.13842255 4.5074177 984075
0 0 0 984075
0 0 0 1049868
0 0 0 919052
0 0 0 1049870
0 0 0 1115661
0 0 0 1181708
0 0 0 2758934
0 0 0 1049870
0 0 0 1181974
-4.4014053 0.1495069 3.687887 2430751
-4.8016691 0.1644576 4.0566759 8480096
-5.2908797 0.18273066 4.5074177 10843999
-5.2465715 0.18273066 4.5074177 10844509
-3.601567 0.12650585 3.1205199 11171929
-3.5708921 0.12650585 3.1205199 11237720
-3.8352351 0.13704799 3.380563 11434329
-4.1476407 0.1495069 3.687887 11500124
-4.1113887 0.1495069 3.687887 11236952
-4.0751367 0.1495069 3.687887 11434330
-4.4427733 0.1644576 4.0566759 11697759
-4.4028959 0.1644576 4.0566759 11566174
-4.3630185 0.1644576 4.0566759 11631453
-3.9301283 0.1495069 3.687887 11697245
-4.2832642 0.1644576 4.0566759 11828574
-4.7148743 0.18273066 4.5074177 11763293
-4.6705661 0.18273066 4.5074177 11830111
-3.4696932 0.13704799 3.380563 11368273
-3.4364622 0.13704799 3.380563 9064499
-3.4032311 0.13704799 3.380563 7094570
-3.6763637 0.1495069 3.687887 3346178
-3.3367689 0.13704799 3.380563 1509644
-3.6038594 0.1495069 3.687887 1509646
-3.5676074 0.1495069 3.687887 2824217
-3.5313554 0.1495069 3.687887 3479575
-3.4951031 0.1495069 3.687887 3611417
-3.8047364 0.1644576 4.0566759 3545880
-3.7648592 0.1644576 4.0566759 3545880
-3.7249818 0.1644576 4.0566759 3611416
-3.3500948 0.1495069 3.687887 3808282
-3.6452272 0.1644576 4.0566759 3741720
-3.2775905 0.1495069 3.687887 3741719
-3.2413385 0.1495069 3.687887 3611158
-3.2050865 0.1495069 3.687887 3611416
-3.1688342 0.1495069 3.687887 3413779
-3.4458406 0.1644576 4.0566759 3480085
-3.4059634 0.1644576 4.0566759 3544593
-3.366086 0.1644576 4.0566759 2428690
-3.6957874 0.18273066 4.5074177 3480861
-3.6514795 0.18273066 4.5074177 2362640
-3.6071713 0.18273066 4.5074177 1640461
-4.0082207 0.20557199 5.0708447 2758427
-3.5185549 0.18273066 4.5074177 2560274
-3.9085276 0.20557199 5.0708447 1049351
-3.858681 0.20557199 5.0708447 984075
-3.8088343 0.20557199 5.0708447 1115661
-3.7589877 0.20557199 5.0708447 1115148
-3.709141 0.20557199 5.0708447 1180684
-3.6592944 0.20557199 5.0708447 1246731
-3.6094477 0.20557199 5.0708447 1115915
-3.5596011 0.20557199 5.0708447 1050122
-3.5097547 0.20557199 5.0708447 1115916
-3.459908 0.20557199 5.0708447 984075
-3.4100614 0.20557199 5.0708447 984075
-3.3602147 0.20557199 5.0708447 984076
-3.3103681 0.20557199 5.0708447 1115663
-3.72631 0.23493941 5.7952509 1575696
-3.2106748 0.20557199 5.0708447 2628383
-3.612375 0.23493941 5.7952509 3286054
-3.1109815 0.20557199 5.0708447 4665653
-3.4984398 0.23493941 5.7952509 7359553
-3.4414723 0.23493941 5.7952509 8278330
-3.3845046 0.23493941 5.7952509 7423017
-3.3275371 0.23493941 5.7952509 6303520
-3.2705696 0.23493941 5.7952509 4136209
-3.2136018 0.23493941 5.7952509 1836806
-3.1566343 0.23493941 5.7952509 1313037
-3.0996668 0.23493941 5.7952509 1115658
-3.0426991 0.23493941 5.7952509 1180938
-2.6125152 0.20557199 5.0708447 1049867
-2.5626686 0.20557199 5.0708447 1181454
-2.8717964 0.23493941 5.7952509 1312780
-2.8148289 0.23493941 5.7952509 2033938
-3.2175047 0.27409598 6.761126 10514010
-3.7812514 0.32891521 8.1133518 11630159
-4.6268706 0.41114399 10.141689 11761747
-3.6217422 0.32891521 8.1133518 11893589
-3.5419877 0.32891521 8.1133518 11630929
-2.8851941 0.27409598 6.761126 11893845
-2.8187318 0.27409598 6.761126 11565137
-2.7522695 0.27409598 6.761126 11892820
-2.6858075 0.27409598 6.761126 11302737
-2.2451532 0.23493941 5.7952509 11104074
-1.9146624 0.20557199 5.0708447 9987141
-2.131218 0.23493941 5.7952509 10316362
-2.0742505 0.23493941 5.7952509 10315079
-2.0172827 0.23493941 5.7952509 9725255
-1.7152759 0.20557199 5.0708447 9133632
-1.6654292 0.20557199 5.0708447 7686709
-1.84638 0.23493941 5.7952509 9002309
-1.7894125 0.23493941 5.7952509 10775373
-2.0211856 0.27409598 6.761126 10907213
-1.9547236 0.27409598 6.761126 10184006
-1.8882613 0.27409598 6.761126 12156504
-1.8217992 0.27409598 6.761126 12615511
-2.1064045 0.32891521 8.1133518 11762004
-3.3777497 0.54819196 13.522252 9464922
0 0 0 9334363
0 0 0 9334109
0 0 0 1903118
0 0 0 918284
0 0 0 984075
-0.18001421 0.038245954 0.94341296 1313294
-0.17074043 0.038245954 0.94341296 1181454
-0.16146663 0.038245954 0.94341296 1312270
-0.1454287 0.03654613 0.90148348 1247247
-0.13656709 0.03654613 0.90148348 1181708
-0.12770545 0.03654613 0.90148348 1378063
-0.11626028 0.035751648 0.88188601 1051151
-0.10998221 0.03654613 0.90148348 1247247
-0.10112059 0.03654613 0.90148348 1181454
-0.090253338 0.035751648 0.88188601 1115661
-0.07984852 0.034990977 0.86312246 1246731
-0.071363986 0.034990977 0.86312246 1246477
-0.062879458 0.034990977 0.86312246 984075
-0.054394923 0.034990977 0.86312246 1050125
-0.044953924 0.034261998 0.84514076 1115148
-0.035898276 0.033562776 0.82789302 853518
-0.027204847 0.032891519 0.81133515 852490
-0.019229386 0.032891519 0.81133515 918025
-0.011253926 0.032891519 0.81133515 918284
-0.0032784648 0.032891519 0.81133515 852491
0.004696996 0.032891519 0.81133515 1049098
0.012672457 0.032891519 0.81133515 1114891
0.021069305 0.033562776 0.82789302 1180938
0.02920753 0.033562776 0.82789302 1312524
0.03812379 0.034261998 0.84514076 1115661
0.047419466 0.034990977 0.86312246 1312524
0.057119306 0.035751648 0.88188601 1378060
0 0 0 1443853
0 0 0 1246731
0 0 0 1181454
0 0 0 1181454
0 0 0 1181454
0 0 0 1049355
0 0 0 984077
0 0 0 918282
0 0 0 918282
0 0 0 853004
0.53953785 0.12650585 3.1205199 984077
0.61773038 0.13704799 3.380563 983561
0.55796695 0.11746971 2.8976254 853004
0.68419254 0.13704799 3.380563 918282
0.71742362 0.13704799 3.380563 918538
0.7506547 0.13704799 3.380563 852488
0.78388578 0.13704799 3.380563 983818
0.39221612 0.065783039 1.6226703 918282
0.3924683 0.063252926 1.5602599 1049612
0.96390444 0.1495069 3.687887 1246477
0 0 0 1312783
0 0 0 2298644
0 0 0 2232085
0 0 0 3218717
0 0 0 7227960
0 0 0 8936775
0.63782668 0.078313135 1.9317503 10449236
0.62696058 0.074753448 1.8439435 10842709
0.74694246 0.086556628 2.1350925 11894107
0.85827523 0.096739762 2.3862798 12682337
0.88173252 0.096739762 2.3862798 12813410
0.9617641 0.102786 2.5354223 12683106
0.98668742 0.102786 2.5354223 12747613
1.0790514 0.10963839 2.7044504 1575181
1.1056362 0.10963839 2.7044504 1312270
1.3064091 0.12650585 3.1205199 1377806
1.3370839 0.12650585 3.1205199 1246731
1.2700616 0.11746971 2.8976254 1312524
1.2119757 0.10963839 2.7044504 1247245
1.1611506 0.102786 2.5354223 1246731
1.1860739 0.102786 2.5354223 1181456
1.2109972 0.102786 2.5354223 1246731
1.1632193 0.096739762 2.3862798 1246478
1.1207502 0.09136533 2.2537088 1378317
1.1429043 0.09136533 2.2537088 1312270
0.99862134 0.078313135 1.9317503 1115663
1.0176105 0.078313135 1.9317503 984077
1.1457155 0.086556628 2.1350925 1246477
1.1083684 0.082228802 2.028338 1312781
1.1283071 0.082228802 2.028338 6829355
1.1482457 0.082228802 2.028338 6047034
1.2296677 0.086556628 2.1350925 6965563
1.3201367 0.09136533 2.2537088 4334629
1.3422908 0.09136533 2.2537088 1246732
1.3644449 0.09136533 2.2537088 984075
1.3865988 0.09136533 2.2537088 918281
1.334608 0.086556628 2.1350925 852489
1.2878163 0.082228802 2.028338 918025
1.307755 0.082228802 2.028338 852489
1.3276936 0.082228802 2.028338 853260
1.3476323 0.082228802 2.028338 852489
1.3024484 0.078313135 1.9317503 787468
1.3214376 0.078313135 1.9317503 1115663
1.2794983 0.074753448 1.8439435 984075
1.2412059 0.071503296 1.763772 918282
1.2585438 0.071503296 1.763772 984075
1.3338765 0.074753448 1.8439435 1049356
1.3520025 0.074753448 1.8439435 721675
1.4353727 0.078313135 1.9317503 918282
1.3882545 0.074753448 1.8439435 984075
1.4733511 0.078313135 1.9317503 1246734
1.4923403 0.078313135 1.9317503 853003
1.5113295 0.078313135 1.9317503 721418
1.5303187 0.078313135 1.9317503 524552
1.5493079 0.078313135 1.9317503 655623
1.4970108 0.074753448 1.8439435 852491
1.4492614 0.071503296 1.763772 786698
1.4665993 0.071503296 1.763772 655370
1.551389 0.074753448 1.8439435 721675
1.5695151 0.074753448 1.8439435 917769
1.6632431 0.078313135 1.9317503 655623
1.6822323 0.078313135 1.9317503 721930
1.6238931 0.074753448 1.8439435 787211
1.6420193 0.074753448 1.8439435 787211
1.6601453 0.074753448 1.8439435 721416
1.6782713 0.074753448 1.8439435 721421
1.6963974 0.074753448 1.8439435 655628
1.7145234 0.074753448 1.8439435 721418
1.6573169 0.071503296 1.763772 786698
1.6746548 0.071503296 1.763772 655880
1.6919928 0.071503296 1.763772 786698
1.6381086 0.068523996 1.6902815 721675
1.6547242 0.068523996 1.6902815 852489
1.6713398 0.068523996 1.6902815 983305
1.6879553 0.068523996 1.6902815 852491
1.7045708 0.068523996 1.6902815 918282
1.7211864 0.068523996 1.6902815 984075
1.8133585 0.071503296 1.763772 918284
1.8306965 0.071503296 1.763772 918282
1.932036 0.074753448 1.8439435 984075
1.9501621 0.074753448 1.8439435 1180684
1.7320936 0.065783039 1.6226703 984075
1.7480445 0.065783039 1.6226703 984075
1.7639954 0.065783039 1.6226703 1180684
0 0 0 1115661
0 0 0 1050122
0 0 0 1115145
0 0 0 984075
0 0 0 984075
5.1658363 0.18273066 4.5074177 1181196
4.6891298 0.1644576 4.0566759 1246731
4.7290072 0.1644576 4.0566759 1049609
4.7688847 0.1644576 4.0566759 1115915
4.8087616 0.1644576 4.0566759 1050123
4.848639 0.1644576 4.0566759 918539
4.8885164 0.1644576 4.0566759 984331
4.9283938 0.1644576 4.0566759 852489
5.5203009 0.18273066 4.5074177 1049868
0 0 0 1180941
0 0 0 1246478
0 0 0 1115150
0 0 0 1115405
0 0 0 1378063
0 0 0 1180684
0 0 0 2889496
0 0 0 1116176
0 0 0 1116181
-4.4014053 0.18575899 3.687887 2365470
-5.3351879 0.22703879 4.5074177 8414303
-5.9522395 0.25541863 5.0708447 10711904
-5.2465715 0.22703879 4.5074177 11368538
-3.601567 0.1571807 3.1205199 11303515
-3.5708921 0.1571807 3.1205199 11302745
-3.5402174 0.1571807 3.1205199 11368795
-3.8020041 0.17027907 3.380563 11499870
-4.1113887 0.18575899 3.687887 11500124
-4.4826508 0.2043349 4.0566759 11434844
-4.0388846 0.18575899 3.687887 11565917
-4.0026326 0.18575899 3.687887 11630683
-3.9663804 0.18575899 3.687887 11762268
-3.9301283 0.18575899 3.687887 11828577
-4.2832642 0.2043349 4.0566759 11828833
-4.7148743 0.22703879 4.5074177 11894364
-4.2035093 0.2043349 4.0566759 12222557
-3.4696932 0.17027907 3.380563 11564112
-4.123755 0.2043349 4.0566759 8933426
-3.4032311 0.17027907 3.380563 7094570
-3.3699999 0.17027907 3.380563 3346694
-3.3367689 0.17027907 3.380563 1444109
-3.6038594 0.18575899 3.687887 1575440
-3.2703068 0.17027907 3.380563 2692631
-3.2370756 0.17027907 3.380563 3414038
-3.2038445 0.17027907 3.380563 3545624
-3.4588511 0.18575899 3.687887 3677210
-3.4225991 0.18575899 3.687887 3940123
-3.3863468 0.18575899 3.687887 3940123
-3.3500948 0.18575899 3.687887 3676697
-3.3138428 0.18575899 3.687887 3677210
-3.2775905 0.18575899 3.687887 3676952
-3.2413385 0.18575899 3.687887 3611159
-3.2050865 0.18575899 3.687887 3808280
-3.485718 0.2043349 4.0566759 3676695
-3.4458406 0.2043349 4.0566759 3677467
-3.4059634 0.2043349 4.0566759 3414035
-3.7400956 0.22703879 4.5074177 2035216
-3.6957874 0.22703879 4.5074177 2758426
-3.6514795 0.22703879 4.5074177 1378315
-3.6071713 0.22703879 4.5074177 983305
-4.0082207 0.25541863 5.0708447 2429978
-3.5185549 0.22703879 4.5074177 2101009
-3.9085276 0.25541863 5.0708447 1049097
-3.858681 0.25541863 5.0708447 918282
-3.8088343 0.25541863 5.0708447 984077
-3.7589877 0.25541863 5.0708447 918283
-3.709141 0.25541863 5.0708447 983305
-3.6592944 0.25541863 5.0708447 1378833
-3.6094477 0.25541863 5.0708447 1313040
-3.5596011 0.25541863 5.0708447 1181456
-3.5097547 0.25541863 5.0708447 1116176
-3.459908 0.25541863 5.0708447 984845
-3.4100614 0.25541863 5.0708447 1114891
-3.8402452 0.29190698 5.7952509 983818
-3.3103681 0.25541863 5.0708447 1049098
-3.2605214 0.25541863 5.0708447 2298644
-3.2106748 0.25541863 5.0708447 3414038
-3.612375 0.29190698 5.7952509 4794401
-3.5554073 0.29190698 5.7952509 5977901
-3.4984398 0.29190698 5.7952509 6702130
-3.4414723 0.29190698 5.7952509 6963501
-3.3845046 0.29190698 5.7952509 4857106
-3.3275371 0.29190698 5.7952509 4460566
-3.2705696 0.29190698 5.7952509 3017233
-3.2136018 0.29190698 5.7952509 1115661
-3.68274 0.34055814 6.761126 1181454
-3.6162779 0.34055814 6.761126 1115403
-3.0426991 0.29190698 5.7952509 1443853
-2.6125152 0.25541863 5.0708447 1378060
-2.5626686 0.25541863 5.0708447 1443852
-2.5128219 0.25541863 5.0708447 1444108
-2.4629753 0.25541863 5.0708447 1378323
-3.2175047 0.34055814 6.761126 9200730
-3.1510427 0.34055814 6.761126 10973004
-3.7014968 0.4086698 8.1133518 11432782
-3.6217422 0.4086698 8.1133518 11499347
-3.5419877 0.4086698 8.1133518 11499346
-2.8851941 0.34055814 6.761126 11498576
-2.8187318 0.34055814 6.761126 11301457
-2.7522695 0.34055814 6.761126 11302225
-2.6858075 0.34055814 6.761126 11564627
-2.2451532 0.29190698 5.7952509 11367760
-2.1881855 0.29190698 5.7952509 8539447
-2.131218 0.29190698 5.7952509 9724483
-2.0742505 0.29190698 5.7952509 10119244
-2.0172827 0.29190698 5.7952509 9593157
-1.9603152 0.29190698 5.7952509 9133119
-1.6654292 0.25541863 5.0708447 8672572
-1.6155826 0.25541863 5.0708447 9133376
-1.7894125 0.29190698 5.7952509 10315078
-1.7324449 0.29190698 5.7952509 9988172
-1.6754773 0.29190698 5.7952509 9921609
-1.8882613 0.34055814 6.761126 11894101
-1.8217992 0.34055814 6.761126 12090192
-3.510674 0.68111628 13.522252 11761744
0 0 0 9268318
0 0 0 9269088
0 0 0 6374964
0 0 0 1575696
0 0 0 853261
-0.184986 0.046439748 0.92197174 984847
-0.17592297 0.046439748 0.92197174 1378833
-0.16685995 0.046439748 0.92197174 1181454
-0.15429033 0.045407753 0.90148348 1181454
-0.1454287 0.045407753 0.90148348 984845
-0.13656709 0.045407753 0.90148348 1181454
-0.12770545 0.045407753 0.90148348 1313040
-0.11626028 0.04442063 0.88188601 1247247
-0.10759129 0.04442063 0.88188601 1181454
-0.09892232 0.04442063 0.88188601 1181708
-0.088333055 0.043475509 0.86312246 1115663
-0.07984852 0.043475509 0.86312246 1180684
-0.071363986 0.043475509 0.86312246 1114893
-0.062879458 0.043475509 0.86312246 1180940
-0.053261697 0.042569768 0.84514076 918795
-0.044953924 0.042569768 0.84514076 984075
-0.035898276 0.041701 0.82789302 984075
-0.027760049 0.041701 0.82789302 787212
-0.019229386 0.040866978 0.81133515 787212
-0.011253926 0.040866978 0.81133515 1049355
-0.0032784648 0.040866978 0.81133515 984077
0.0047928533 0.041701 0.82789302 1049870
0.012931079 0.041701 0.82789302 984075
0.021069305 0.041701 0.82789302 1049870
0.02920753 0.041701 0.82789302 1312524
0.037345756 0.041701 0.82789302 1444110
0.048450325 0.04442063 0.88188601 1509646
0.061104376 0.047519743 0.94341296 1444110
0 0 0 1378063
0 0 0 1443599
0 0 0 1181454
0 0 0 1312270
0 0 0 1115145
0 0 0 918282
0 0 0 918282
0 0 0 984075
0 0 0 853005
0.50886297 0.1571807 3.1205199 787211
0.53953785 0.1571807 3.1205199 1049613
0.57021266 0.1571807 3.1205199 1049097
0.65096146 0.17027907 3.380563 852746
0.68419254 0.17027907 3.380563 918283
0.71742362 0.17027907 3.380563 852489
0.7506547 0.17027907 3.380563 852490
0.78388578 0.17027907 3.380563 721930
0.39221612 0.081733957 1.6226703 852747
0.3924683 0.078590348 1.5602599 853004
0.42411795 0.081733957 1.6226703 1114891
0 0 0 984076
0 0 0 1641488
0 0 0 2101781
0 0 0 3678751
0 0 0 6767925
0 0 0 8870983
0.89295733 0.13622326 2.7044504 10186064
0.76628524 0.11351939 2.2537088 10908504
0.74694246 0.10754468 2.1350925 11236952
0.76793051 0.10754468 2.1350925 12091486
0.8327474 0.11351939 2.2537088 12551779
0.90518975 0.120197 2.3862798 12748643
0.98668742 0.12770931 2.5354223 12616801
1.0116107 0.12770931 2.5354223 1772304
1.0365341 0.12770931 2.5354223 1246734
1.2130941 0.14595349 2.8976254 1377806
1.2415779 0.14595349 2.8976254 1050638
1.2700616 0.14595349 2.8976254 1115661
1.2985455 0.14595349 2.8976254 1246731
1.2385606 0.13622326 2.7044504 1247247
1.2651454 0.13622326 2.7044504 1181456
1.2109972 0.12770931 2.5354223 1443858
1.1632193 0.120197 2.3862798 1509649
1.1207502 0.11351939 2.2537088 1378317
0.89444673 0.088841259 1.763772 1509649
0.91178471 0.088841259 1.763772 1510419
0.9713555 0.092879497 1.8439435 1444626
1.0884298 0.10216745 2.028338 1313042
1.0555888 0.097302333 1.9317503 1838613
1.1283071 0.10216745 2.028338 1707024
1.1482457 0.10216745 2.028338 1772820
1.2296677 0.10754468 2.1350925 1510673
1.2506558 0.10754468 2.1350925 1575696
1.3422908 0.11351939 2.2537088 1509902
1.2926319 0.10754468 2.1350925 1575696
1.31362 0.10754468 2.1350925 1575696
1.334608 0.10754468 2.1350925 1378833
1.2878163 0.10216745 2.028338 918284
1.307755 0.10216745 2.028338 983307
1.26447 0.097302333 1.9317503 1049613
1.2834592 0.097302333 1.9317503 918284
1.3024484 0.097302333 1.9317503 853006
1.3214376 0.097302333 1.9317503 1049870
1.3404268 0.097302333 1.9317503 853261
1.359416 0.097302333 1.9317503 852491
1.3157504 0.092879497 1.8439435 1378320
1.3338765 0.092879497 1.8439435 1247247
1.4163835 0.097302333 1.9317503 1247505
1.4353727 0.097302333 1.9317503 2101269
1.4543619 0.097302333 1.9317503 1839125
1.4733511 0.097302333 1.9317503 1312525
1.4923403 0.097302333 1.9317503 1049612
1.5113295 0.097302333 1.9317503 984332
1.5303187 0.097302333 1.9317503 853259
1.5493079 0.097302333 1.9317503 853259
1.4970108 0.092879497 1.8439435 1248019
1.4492614 0.088841259 1.763772 1707539
1.405491 0.085139535 1.6902815 1838611
1.4221066 0.085139535 1.6902815 1904404
1.5695151 0.092879497 1.8439435 853259
1.6632431 0.097302333 1.9317503 853259
1.8593093 0.10754468 2.1350925 721673
1.8802974 0.10754468 2.1350925 852491
1.6420193 0.092879497 1.8439435 721675
1.6601453 0.092879497 1.8439435 1049098
1.6782713 0.092879497 1.8439435 852491
1.6963974 0.092879497 1.8439435 721675
1.7145234 0.092879497 1.8439435 786955
1.7326494 0.092879497 1.8439435 852490
1.6746548 0.088841259 1.763772 918282
1.7689016 0.092879497 1.8439435 918282
1.7093308 0.088841259 1.763772 787468
1.7266687 0.088841259 1.763772 787468
1.6713398 0.085139535 1.6902815 918282
1.6879553 0.085139535 1.6902815 1049098
1.7045708 0.085139535 1.6902815 853004
1.7211864 0.085139535 1.6902815 853004
1.8133585 0.088841259 1.763772 853004
1.8306965 0.088841259 1.763772 984333
1.8480344 0.088841259 1.763772 1180941
1.7876486 0.085139535 1.6902815 1049869
1.8042641 0.085139535 1.6902815 918283
1.8208796 0.085139535 1.6902815 918283
2.2049944 0.10216745 2.028338 983819
0 0 0 984330
0 0 0 1049609
0 0 0 1049353
0 0 0 1049353
0 0 0 1180939
0 0 0 1180938
4.6891298 0.2043349 4.0566759 1180938
4.7290072 0.2043349 4.0566759 1312268
4.3353491 0.18575899 3.687887 1180427
4.0073013 0.17027907 3.380563 984075
4.0405321 0.17027907 3.380563 984075
4.8885164 0.2043349 4.0566759 1049868
4.9283938 0.2043349 4.0566759 1049868
5.5203009 0.22703879 4.5074177 1115147
7.1544971 0.29190698 5.7952509 1180684
0 0 0 1180427
0 0 0 1312270
0 0 0 1181454
0 0 0 1115661
0 0 0 1246732
0 0 0 2692630
0 0 0 919054
0 0 0 1312790
-4.4014053 0.22201109 3.687887 2299167
-5.3351879 0.2713469 4.5074177 8347997
-5.2908797 0.2713469 4.5074177 10974561
-5.2465715 0.2713469 4.5074177 11302745
-3.1213579 0.16280814 2.7044504 11434331
-3.0947731 0.16280814 2.7044504 11302491
-3.5402174 0.18785554 3.1205199 11237468
-3.5095425 0.18785554 3.1205199 11237725
-4.1113887 0.22201109 3.687887 11236696
-4.4826508 0.24421221 4.0566759 11172186
-4.9364147 0.2713469 4.5074177 11435103
-4.4028959 0.24421221 4.0566759 11303516
-4.3630185 0.24421221 4.0566759 11435100
-4.3231416 0.24421221 4.0566759 11500891
-4.7591825 0.2713469 4.5074177 11500635
-4.7148743 0.2713469 4.5074177 11632220
-4.2035093 0.24421221 4.0566759 11500632
-3.4696932 0.20351017 3.380563 11499605
-4.123755 0.24421221 4.0566759 8999220
-3.4032311 0.20351017 3.380563 6766634
-3.3699999 0.20351017 3.380563 3347207
-3.3367689 0.20351017 3.380563 1443852
-3.3035378 0.20351017 3.380563 1509648
-3.2703068 0.20351017 3.380563 2890268
-3.2370756 0.20351017 3.380563 3677723
-3.4951031 0.22201109 3.687887 3940379
-3.8047364 0.24421221 4.0566759 4005916
-3.4225991 0.22201109 3.687887 4070937
-3.3863468 0.22201109 3.687887 4136730
-3.3500948 0.22201109 3.687887 4070937
-3.6452272 0.24421221 4.0566759 4201753
-3.2775905 0.22201109 3.687887 4070937
-3.2413385 0.22201109 3.687887 3940123
-3.2050865 0.22201109 3.687887 3940379
-3.485718 0.24421221 4.0566759 4005662
-3.8287117 0.2713469 4.5074177 3940382
-3.7844038 0.2713469 4.5074177 3677464
-3.7400956 0.2713469 4.5074177 2429714
-3.6957874 0.2713469 4.5074177 2101265
-4.107914 0.30526525 5.0708447 1970195
-3.6071713 0.2713469 4.5074177 2824730
-4.0082207 0.30526525 5.0708447 1902860
-3.5185549 0.2713469 4.5074177 1903375
-3.474247 0.2713469 4.5074177 1377547
-3.858681 0.30526525 5.0708447 1181197
-4.3529534 0.34887457 5.7952509 1049098
-3.7589877 0.30526525 5.0708447 983818
-3.709141 0.30526525 5.0708447 1050122
-3.6592944 0.30526525 5.0708447 1246732
-3.6094477 0.30526525 5.0708447 1378060
-3.5596011 0.30526525 5.0708447 1246477
-4.011148 0.34887457 5.7952509 1378061
-3.9541805 0.34887457 5.7952509 1378063
-3.8972127 0.34887457 5.7952509 1312524
-3.3602147 0.30526525 5.0708447 852749
-3.3103681 0.30526525 5.0708447 853261
-3.2605214 0.30526525 5.0708447 2957088
-3.2106748 0.30526525 5.0708447 3612187
-3.612375 0.34887457 5.7952509 3808283
-3.5554073 0.34887457 5.7952509 3742996
-3.4984398 0.34887457 5.7952509 3741971
-3.0112882 0.30526525 5.0708447 3610640
-2.9614415 0.30526525 5.0708447 3216398
-3.3275371 0.34887457 5.7952509 2952974
-3.2705696 0.34887457 5.7952509 2296076
-2.8119018 0.30526525 5.0708447 1246730
-2.7620552 0.30526525 5.0708447 1246731
-2.7122085 0.30526525 5.0708447 1246732
-3.0426991 0.34887457 5.7952509 1180684
-2.6125152 0.30526525 5.0708447 1049611
-2.5626686 0.30526525 5.0708447 1115918
-2.5128219 0.30526525 5.0708447 1378317
-2.4629753 0.30526525 5.0708447 1246990
-3.2175047 0.40702033 6.761126 7228486
-3.1510427 0.40702033 6.761126 10053705
-3.0845804 0.40702033 6.761126 10906955
-3.6217422 0.48842442 8.1133518 11038799
-3.5419877 0.48842442 8.1133518 11367762
-2.8851941 0.40702033 6.761126 11301454
-2.8187318 0.40702033 6.761126 11104593
-2.7522695 0.40702033 6.761126 11366733
-2.6858075 0.40702033 6.761126 11038799
-2.6193452 0.40702033 6.761126 11105104
-2.1881855 0.34887457 5.7952509 10973517
-2.131218 0.34887457 5.7952509 9197636
-2.0742505 0.34887457 5.7952509 9462342
-2.0172827 0.34887457 5.7952509 9659208
-1.9603152 0.34887457 5.7952509 9068096
-1.6654292 0.30526525 5.0708447 9131841
-1.84638 0.34887457 5.7952509 9330754
-1.5657359 0.30526525 5.0708447 9396038
-1.7324449 0.34887457 5.7952509 9462087
-1.6754773 0.34887457 5.7952509 11500631
-1.8882613 0.40702033 6.761126 11959380
-1.8217992 0.40702033 6.761126 11893587
-3.510674 0.81404066 13.522252 11564110
0 0 0 9202006
0 0 0 8742490
-0.22227864 0.058145761 0.96587515 2428170
-0.21278405 0.058145761 0.96587515 1247247
-0.20328945 0.058145761 0.96587515 787214
-0.1808752 0.054269377 0.90148348 1247249
-0.16827415 0.053089608 0.88188601 1312270
-0.15960518 0.053089608 0.88188601 1181454
-0.15093619 0.053089608 0.88188601 1050640
-0.1454287 0.054269377 0.90148348 1312270
-0.13359824 0.053089608 0.88188601 1181454
-0.12492926 0.053089608 0.88188601 1115661
-0.11378665 0.05196004 0.86312246 1115661
-0.10530212 0.05196004 0.86312246 1312270
-0.09892232 0.053089608 0.88188601 1312270
-0.088333055 0.05196004 0.86312246 1049868
-0.07984852 0.05196004 0.86312246 1114891
-0.069877237 0.050877541 0.84514076 1115663
-0.061569467 0.050877541 0.84514076 1115661
-0.053261697 0.050877541 0.84514076 1049099
-0.044953924 0.050877541 0.84514076 853005
-0.035898276 0.049839225 0.82789302 984847
-0.027760049 0.049839225 0.82789302 1049356
-0.019229386 0.048842441 0.81133515 852491
-0.011253926 0.048842441 0.81133515 984075
-0.0032784648 0.048842441 0.81133515 787211
0.0047928533 0.049839225 0.82789302 853261
0.012931079 0.049839225 0.82789302 1378059
0.021069305 0.049839225 0.82789302 1378063
0.02920753 0.049839225 0.82789302 1246731
0.03812379 0.050877541 0.84514076 1378317
0.049527001 0.054269377 0.90148348 1509646
0.061104376 0.056793537 0.94341296 1509646
0.075656533 0.061053053 1.014169 1443853
0 0 0 1378063
0 0 0 1443853
0 0 0 1246477
0 0 0 1114891
0 0 0 918797
0 0 0 918282
0 0 0 918795
0 0 0 852491
0.50886297 0.18785554 3.1205199 918540
0.53953785 0.18785554 3.1205199 721673
0.67388767 0.22201109 3.687887 983820
0.7811538 0.24421221 4.0566759 983561
0.68419254 0.20351017 3.380563 721419
0.71742362 0.20351017 3.380563 787210
0.6929121 0.18785554 3.1205199 852235
0.72358692 0.18785554 3.1205199 852748
0.70038593 0.17443728 2.8976254 787209
0.40816703 0.097684883 1.6226703 918282
0.40780574 0.093927771 1.5602599 984329
0.47833574 0.10617922 1.763772 918282
0 0 0 1181453
0 0 0 2693661
0 0 0 4597280
0 0 0 5320740
0 0 0 8937292
0.89295733 0.16280814 2.7044504 10251860
0.76628524 0.13567345 2.2537088 10776662
0.67580503 0.11629152 1.9317503 11368026
0.72953403 0.12210611 2.028338 12091231
0.78891855 0.12853274 2.1350925 12551261
0.85490143 0.13567345 2.2537088 13010531
0.92864698 0.14365424 2.3862798 12617060
1.0116107 0.15263262 2.5354223 1575182
1.0365341 0.15263262 2.5354223 1312527
1.2130941 0.17443728 2.8976254 1246731
1.2415779 0.17443728 2.8976254 1247501
1.2700616 0.17443728 2.8976254 1642259
1.2985455 0.17443728 2.8976254 2231056
1.2385606 0.16280814 2.7044504 1574923
1.2651454 0.16280814 2.7044504 1443852
1.2109972 0.15263262 2.5354223 1246731
1.0985961 0.13567345 2.2537088 1115661
0.87710875 0.10617922 1.763772 1312270
0.89444673 0.10617922 1.763772 787468
0.99862134 0.11629152 1.9317503 852749
1.0176105 0.11629152 1.9317503 1114891
1.0365998 0.11629152 1.9317503 1115663
1.0555888 0.11629152 1.9317503 1181198
1.1283071 0.12210611 2.028338 984075
1.1482457 0.12210611 2.028338 984075
1.2296677 0.12853274 2.1350925 1312013
1.2506558 0.12853274 2.1350925 1246731
1.2716439 0.12853274 2.1350925 1115145
1.2926319 0.12853274 2.1350925 1180684
1.247939 0.12210611 2.028338 1312012
1.2678777 0.12210611 2.028338 1247501
1.2878163 0.12210611 2.028338 984843
1.307755 0.12210611 2.028338 787469
1.26447 0.11629152 1.9317503 1050126
1.2834592 0.11629152 1.9317503 1049869
1.3024484 0.11629152 1.9317503 1049613
1.3214376 0.11629152 1.9317503 919312
1.4074482 0.12210611 2.028338 853005
1.359416 0.11629152 1.9317503 1115148
1.3784052 0.11629152 1.9317503 1049354
1.3338765 0.11100554 1.8439435 983818
1.4163835 0.11629152 1.9317503 1378834
1.4353727 0.11629152 1.9317503 2234396
1.4543619 0.11629152 1.9317503 1773589
1.4733511 0.11629152 1.9317503 1838614
1.4923403 0.11629152 1.9317503 1772821
1.5113295 0.11629152 1.9317503 1707027
1.5303187 0.11629152 1.9317503 1772564
1.4788848 0.11100554 1.8439435 1838611
1.4319234 0.10617922 1.763772 1838610
1.4492614 0.10617922 1.763772 2167060
1.4665993 0.10617922 1.763772 2430743
1.4839373 0.10617922 1.763772 1641231
1.5695151 0.11100554 1.8439435 1312270
1.6632431 0.11629152 1.9317503 721160
1.8593093 0.12853274 2.1350925 721420
1.8802974 0.12853274 2.1350925 590602
1.8062212 0.12210611 2.028338 787468
1.7391998 0.11629152 1.9317503 721675
1.6782713 0.11100554 1.8439435 721675
1.6963974 0.11100554 1.8439435 852748
1.7145234 0.11100554 1.8439435 852748
1.7326494 0.11100554 1.8439435 852749
1.7507756 0.11100554 1.8439435 786956
1.7689016 0.11100554 1.8439435 721675
1.7093308 0.10617922 1.763772 787468
1.7266687 0.10617922 1.763772 787468
1.6713398 0.10175508 1.6902815 787211
1.6879553 0.10175508 1.6902815 853259
1.7045708 0.10175508 1.6902815 918282
1.7211864 0.10175508 1.6902815 852491
1.7378019 0.10175508 1.6902815 786698
1.8306965 0.10617922 1.763772 984077
1.7710329 0.10175508 1.6902815 918284
1.7876486 0.10175508 1.6902815 721675
1.8042641 0.10175508 1.6902815 787468
1.8208796 0.10175508 1.6902815 787214
2.0999944 0.11629152 1.9317503 918030
2.617568 0.14365424 2.3862798 1181202
2.8060894 0.15263262 2.5354223 1049870
3.7746835 0.20351017 3.380563 984847
0 0 0 1181195
0 0 0 1049352
0 0 0 1049611
0 0 0 1115662
4.2990971 0.22201109 3.687887 983818
3.6683726 0.18785554 3.1205199 1114891
3.6990473 0.18785554 3.1205199 1049868
3.7297223 0.18785554 3.1205199 1115661
4.8885164 0.24421221 4.0566759 1115661
5.4759932 0.2713469 4.5074177 919052
5.5203009 0.2713469 4.5074177 919053
0 0 0 1049869
0 0 0 1181197
0 0 0 1181196
0 0 0 1115916
0 0 0 1312524
0 0 0 1312524
0 0 0 2429716
0 0 0 984335
0 0 0 1378323
-4.8415465 0.28408951 4.0566759 2299165
-5.3351879 0.31565502 4.5074177 8478812
-5.9522395 0.3551119 5.0708447 10908770
-5.2465715 0.31565502 4.5074177 11565661
-3.1213579 0.189393 2.7044504 11236952
-3.0947731 0.189393 2.7044504 11237468
-3.0681882 0.189393 2.7044504 10975579
-3.5095425 0.2185304 3.1205199 10975579
-3.7687731 0.23674124 3.380563 11237722
-4.4826508 0.28408951 4.0566759 11303001
-4.4427733 0.28408951 4.0566759 11631710
-4.4028959 0.28408951 4.0566759 11565917
-4.8477983 0.31565502 4.5074177 11434330
-4.8034906 0.31565502 4.5074177 11565915
-4.7591825 0.31565502 4.5074177 11697501
-4.7148743 0.31565502 4.5074177 11631707
-2.8023393 0.189393 2.7044504 11828571
-3.2027938 0.2185304 3.1205199 11630677
-3.4364622 0.23674124 3.380563 9065524
-3.4032311 0.23674124 3.380563 7029805
-3.3699999 0.23674124 3.380563 3479052
-3.3367689 0.23674124 3.380563 1378313
-3.3035378 0.23674124 3.380563 1443854
-3.2703068 0.23674124 3.380563 2890011
-3.2370756 0.23674124 3.380563 3743259
-3.4951031 0.25826317 3.687887 3874843
-4.2274847 0.31565502 4.5074177 3808537
-3.7648592 0.28408951 4.0566759 3940636
-3.7249818 0.28408951 4.0566759 3874330
-3.6851046 0.28408951 4.0566759 3940121
-3.6452272 0.28408951 4.0566759 3874330
-3.60535 0.28408951 4.0566759 4201753
-3.5654726 0.28408951 4.0566759 4202524
-3.5255952 0.28408951 4.0566759 4005399
-3.485718 0.28408951 4.0566759 3939351
-3.8287117 0.31565502 4.5074177 3874330
-3.7844038 0.31565502 4.5074177 3611158
-3.7400956 0.31565502 4.5074177 2033932
-3.6957874 0.31565502 4.5074177 1705995
-4.107914 0.3551119 5.0708447 2627350
-3.6071713 0.31565502 4.5074177 2559758
-3.5628631 0.31565502 4.5074177 2493965
-3.5185549 0.31565502 4.5074177 2165000
-3.474247 0.31565502 4.5074177 2033416
-3.858681 0.3551119 5.0708447 1442824
-3.8088343 0.3551119 5.0708447 852490
-3.7589877 0.3551119 5.0708447 852744
-3.709141 0.3551119 5.0708447 721673
-3.6592944 0.3551119 5.0708447 918281
-3.6094477 0.3551119 5.0708447 1049098
-3.5596011 0.3551119 5.0708447 918282
-4.011148 0.40584216 5.7952509 853003
-3.9541805 0.40584216 5.7952509 918026
-3.4100614 0.3551119 5.0708447 852233
-3.3602147 0.3551119 5.0708447 918284
-3.3103681 0.3551119 5.0708447 918284
-3.2605214 0.3551119 5.0708447 852232
-3.2106748 0.3551119 5.0708447 1115915
-3.612375 0.40584216 5.7952509 1115145
-3.5554073 0.40584216 5.7952509 1246477
-3.4984398 0.40584216 5.7952509 1049610
-3.0112882 0.3551119 5.0708447 1049098
-2.9614415 0.3551119 5.0708447 918537
-3.3275371 0.40584216 5.7952509 918284
-3.2705696 0.40584216 5.7952509 1049098
-2.8119018 0.3551119 5.0708447 1246477
-2.7620552 0.3551119 5.0708447 918282
-2.7122085 0.3551119 5.0708447 918539
-2.6623619 0.3551119 5.0708447 787468
-2.6125152 0.3551119 5.0708447 918284
-2.5626686 0.3551119 5.0708447 1049611
-2.5128219 0.3551119 5.0708447 984075
-2.4629753 0.3551119 5.0708447 1181454
-2.7578614 0.40584216 5.7952509 4203045
-2.7008936 0.40584216 5.7952509 9591100
-3.0845804 0.47348249 6.761126 10183490
-3.0181184 0.47348249 6.761126 10907211
-3.5419877 0.56817901 8.1133518 11169871
-3.4622331 0.56817901 8.1133518 10775625
-3.3824785 0.56817901 8.1133518 10973518
-2.7522695 0.47348249 6.761126 10973004
-2.6858075 0.47348249 6.761126 10907725
-2.6193452 0.47348249 6.761126 11104847
-2.1881855 0.40584216 5.7952509 10841933
-2.131218 0.40584216 5.7952509 10317134
-2.0742505 0.40584216 5.7952509 8145713
-2.0172827 0.40584216 5.7952509 9199428
-1.9603152 0.40584216 5.7952509 8344892
-1.6654292 0.3551119 5.0708447 8935492
-1.6155826 0.3551119 5.0708447 8804670
-1.5657359 0.3551119 5.0708447 8869952
-1.7324449 0.40584216 5.7952509 11369048
-1.6754773 0.40584216 5.7952509 11696209
-1.8882613 0.47348249 6.761126 11827537
-1.8217992 0.47348249 6.761126 11826768
-5.2660112 1.4204476 20.283379 11366992
0 0 0 9268057
0 0 0 8150605
0 0 0 1575442
-0.21278405 0.067640357 0.96587515 984328
-0.18973683 0.063130997 0.90148348 984077
-0.17694312 0.061758585 0.88188601 1640978
-0.16827415 0.061758585 0.88188601 1312270
-0.15960518 0.061758585 0.88188601 1181454
-0.14772478 0.060444575 0.86312246 1312270
-0.14226721 0.061758585 0.88188601 1312013
-0.13359824 0.061758585 0.88188601 985106
-0.12492926 0.061758585 0.88188601 1050638
-0.11626028 0.061758585 0.88188601 1115661
-0.10530212 0.060444575 0.86312246 1181454
-0.09681759 0.060444575 0.86312246 1377806
-0.088333055 0.060444575 0.86312246 1181454
-0.07984852 0.060444575 0.86312246 1246477
-0.067082152 0.0568179 0.81133515 1246477
-0.059106693 0.0568179 0.81133515 1772821
-0.05113123 0.0568179 0.81133515 1772048
-0.043155771 0.0568179 0.81133515 918542
-0.035180308 0.0568179 0.81133515 984077
-0.028338382 0.059185311 0.84514076 1246477
-0.02003061 0.059185311 0.84514076 984075
-0.011253926 0.0568179 0.81133515 918282
-0.0032784648 0.0568179 0.81133515 1115145
0.004696996 0.0568179 0.81133515 1049868
0.012931079 0.057977453 0.82789302 1378060
0.021069305 0.057977453 0.82789302 1443853
0.02920753 0.057977453 0.82789302 1575439
0.03812379 0.059185311 0.84514076 1772048
0.048450325 0.061758585 0.88188601 1575439
0.059715636 0.064565793 0.92197174 1706255
0.072053835 0.067640357 0.96587515 1575439
0 0 0 1772048
0 0 0 1443853
0 0 0 1378317
0 0 0 1115145
0 0 0 984075
0 0 0 1050126
0 0 0 787210
0 0 0 984075
0 0 0 918282
0 0 0 918282
0.82364053 0.31565502 4.5074177 983818
0.7811538 0.28408951 4.0566759 852490
0.68419254 0.23674124 3.380563 918282
0.66223723 0.2185304 3.1205199 918283
0.6929121 0.2185304 3.1205199 787211
0.72358692 0.2185304 3.1205199 983562
0.75426179 0.2185304 3.1205199 852746
0.48591313 0.13528071 1.9317503 786696
0.46099776 0.12351717 1.763772 918282
0.91681015 0.23674124 3.380563 983562
0 0 0 984077
0 0 0 1378576
0 0 0 4465437
0 0 0 5452324
0.92825621 0.20292108 2.8976254 9397326
0.83714753 0.17755595 2.5354223 10579028
0.81136078 0.16711147 2.3862798 11104856
0.78843927 0.15782751 2.2537088 11171160
0.72953403 0.14204475 2.028338 11696731
0.74947268 0.14204475 2.028338 12222557
0.8099066 0.1495208 2.1350925 12747360
0.92864698 0.16711147 2.3862798 12484959
1.0116107 0.17755595 2.5354223 1640973
1.0365341 0.17755595 2.5354223 1246990
0 0 0 1312270
1.2415779 0.20292108 2.8976254 1509902
0 0 0 984075
0 0 0 853003
0.92892057 0.14204475 2.028338 918284
0.86259919 0.12913159 1.8439435 984075
0.8073315 0.11837062 1.6902815 1246477
0.82394701 0.11837062 1.6902815 1180938
0.84056258 0.11837062 1.6902815 1049868
0.89444673 0.12351717 1.763772 1115915
0.99862134 0.13528071 1.9317503 1181452
1.0176105 0.13528071 1.9317503 1115661
1.0365998 0.13528071 1.9317503 853261
1.0555888 0.13528071 1.9317503 1180683
1.074578 0.13528071 1.9317503 1115661
1.2086797 0.1495208 2.1350925 1049868
1.2296677 0.1495208 2.1350925 1247247
1.2506558 0.1495208 2.1350925 984076
1.2716439 0.1495208 2.1350925 1246477
1.2926319 0.1495208 2.1350925 1049868
1.247939 0.14204475 2.028338 1180683
1.2678777 0.14204475 2.028338 1312269
1.2878163 0.14204475 2.028338 1115148
1.2454808 0.13528071 1.9317503 787469
1.26447 0.13528071 1.9317503 984847
1.2834592 0.13528071 1.9317503 1115661
1.3024484 0.13528071 1.9317503 1115662
1.3875096 0.14204475 2.028338 1050386
1.4074482 0.14204475 2.028338 1115663
1.4273869 0.14204475 2.028338 853774
1.3157504 0.12913159 1.8439435 984847
1.3338765 0.12913159 1.8439435 722188
1.3520025 0.12913159 1.8439435 2101008
1.4353727 0.13528071 1.9317503 5255211
1.4543619 0.13528071 1.9317503 6308673
1.4733511 0.13528071 1.9317503 5848120
1.4923403 0.13528071 1.9317503 5978934
1.5113295 0.13528071 1.9317503 5912374
1.5303187 0.13528071 1.9317503 5781303
1.5493079 0.13528071 1.9317503 5649717
1.4319234 0.12351717 1.763772 5518901
1.3888755 0.11837062 1.6902815 5585204
1.405491 0.11837062 1.6902815 3940127
1.4839373 0.12351717 1.763772 2756886
1.5695151 0.12913159 1.8439435 1902607
1.6632431 0.13528071 1.9317503 852748
0 0 0 655626
0 0 0 786955
1.9012855 0.1495208 2.1350925 721676
1.9222735 0.1495208 2.1350925 787212
1.6782713 0.12913159 1.8439435 787214
1.6963974 0.12913159 1.8439435 589835
1.7145234 0.12913159 1.8439435 853261
1.8151566 0.13528071 1.9317503 852747
1.7507756 0.12913159 1.8439435 1049356
1.7689016 0.12913159 1.8439435 918284
1.7093308 0.12351717 1.763772 852491
1.7266687 0.12351717 1.763772 918284
1.6713398 0.11837062 1.6902815 1049100
1.6879553 0.11837062 1.6902815 984077
1.6363881 0.1136358 1.6226703 918282
1.652339 0.1136358 1.6226703 983305
1.6682899 0.1136358 1.6226703 984075
1.7544174 0.11837062 1.6902815 1049100
1.7710329 0.11837062 1.6902815 918282
1.7876486 0.11837062 1.6902815 918283
1.8042641 0.11837062 1.6902815 787468
2.0810053 0.13528071 1.9317503 984077
1.8374952 0.11837062 1.6902815 918797
1.8541107 0.11837062 1.6902815 1115662
2.8060894 0.17755595 2.5354223 1180684
0 0 0 853261
0 0 0 1050124
0 0 0 1049354
0 0 0 1049612
4.262845 0.25826317 3.687887 984077
3.6376977 0.2185304 3.1205199 1115406
3.6683726 0.2185304 3.1205199 1049098
3.6990473 0.2185304 3.1205199 1049098
3.7297223 0.2185304 3.1205199 1115661
5.431685 0.31565502 4.5074177 984329
5.4759932 0.31565502 4.5074177 984075
6.2103386 0.3551119 5.0708447 984076
7.1544971 0.40584216 5.7952509 1049870
0 0 0 984077
0 0 0 1049868
0 0 0 1312524
0 0 0 1246474
0 0 0 1246731
0 0 0 1904146
0 0 0 4204583
0 0 0 3744034
-4.8415465 0.32396683 4.0566759 3350822
-5.3351879 0.35996315 4.5074177 8675931
-5.9522395 0.40495852 5.0708447 10777953
-5.2465715 0.35996315 4.5074177 11040089
-3.344312 0.23140486 2.8976254 11106136
-3.0947731 0.21597786 2.7044504 11236954
-3.0681882 0.21597786 2.7044504 11302232
-3.5095425 0.24920525 3.1205199 11302746
-3.7687731 0.26997232 3.380563 11106140
-4.4826508 0.32396683 4.0566759 11040601
-4.9364147 0.35996315 4.5074177 11565660
-4.8921065 0.35996315 4.5074177 11369050
-4.8477983 0.35996315 4.5074177 11304027
-4.8034906 0.35996315 4.5074177 11501406
-3.0594742 0.23140486 2.8976254 11697759
-2.4961097 0.19056872 2.3862798 11499610
-2.4726524 0.19056872 2.3862798 11566429
-2.7757545 0.21597786 2.7044504 11368533
-3.1721191 0.24920525 3.1205199 8869174
-3.4032311 0.26997232 3.380563 6701354
-3.6763637 0.29451528 3.687887 3413772
-3.3367689 0.26997232 3.380563 1443850
-3.6038594 0.29451528 3.687887 1443853
-3.2703068 0.26997232 3.380563 2889752
-3.5313554 0.29451528 3.687887 3546135
-3.8446138 0.32396683 4.0566759 3545624
-4.2274847 0.35996315 4.5074177 3676951
-4.183177 0.35996315 4.5074177 3874330
-4.1388688 0.35996315 4.5074177 3742744
-4.0945606 0.35996315 4.5074177 3874328
-3.6452272 0.32396683 4.0566759 3874328
-3.60535 0.32396683 4.0566759 3940121
-3.5654726 0.32396683 4.0566759 3874073
-3.5255952 0.32396683 4.0566759 3808538
-3.8730199 0.35996315 4.5074177 3611159
-4.3073006 0.40495852 5.0708447 3677207
-4.2574539 0.40495852 5.0708447 3676181
-3.7400956 0.35996315 4.5074177 1770504
-3.6957874 0.35996315 4.5074177 1246732
-3.6514795 0.35996315 4.5074177 2888214
-3.6071713 0.35996315 4.5074177 983559
-3.5628631 0.35996315 4.5074177 852489
-3.5185549 0.35996315 4.5074177 786698
-3.474247 0.35996315 4.5074177 721673
-3.4299388 0.35996315 4.5074177 852489
-3.8088343 0.40495852 5.0708447 852491
-3.7589877 0.40495852 5.0708447 918283
-3.709141 0.40495852 5.0708447 919052
-3.6592944 0.40495852 5.0708447 1049868
-3.6094477 0.40495852 5.0708447 1312270
-3.5596011 0.40495852 5.0708447 1181708
-3.5097547 0.40495852 5.0708447 852489
-3.459908 0.40495852 5.0708447 721673
-3.4100614 0.40495852 5.0708447 721929
-3.3602147 0.40495852 5.0708447 786954
-3.3103681 0.40495852 5.0708447 918540
-3.2605214 0.40495852 5.0708447 984076
-3.2106748 0.40495852 5.0708447 1181451
-3.612375 0.46280971 5.7952509 1312267
-3.5554073 0.46280971 5.7952509 1115402
-3.4984398 0.46280971 5.7952509 1312524
-3.0112882 0.40495852 5.0708447 1049352
-2.9614415 0.40495852 5.0708447 1312269
-2.9115949 0.40495852 5.0708447 1115915
-2.8617485 0.40495852 5.0708447 1115661
-3.2136018 0.46280971 5.7952509 1049098
-2.7620552 0.40495852 5.0708447 1049868
-3.0996668 0.46280971 5.7952509 1115403
-3.0426991 0.46280971 5.7952509 918282
-2.9857316 0.46280971 5.7952509 1114891
-2.9287641 0.46280971 5.7952509 1049100
-2.5128219 0.40495852 5.0708447 917512
-2.8148289 0.46280971 5.7952509 1115659
-2.7578614 0.46280971 5.7952509 3544857
-2.7008936 0.46280971 5.7952509 6635310
-2.6439261 0.46280971 5.7952509 10051393
-3.0181184 0.53994465 6.761126 10184003
-2.9516561 0.53994465 6.761126 10709319
-3.4622331 0.64793366 8.1133518 10381383
-3.3824785 0.64793366 8.1133518 10512453
-3.3027239 0.64793366 8.1133518 10709576
-2.6858075 0.53994465 6.761126 10709320
-2.6193452 0.53994465 6.761126 10381899
-2.1881855 0.46280971 5.7952509 10644811
-2.131218 0.46280971 5.7952509 9987143
-2.0742505 0.46280971 5.7952509 9855556
-2.0172827 0.46280971 5.7952509 9856327
-1.9603152 0.46280971 5.7952509 8937284
-1.6654292 0.40495852 5.0708447 9593165
-1.6155826 0.40495852 5.0708447 10119240
-1.7894125 0.46280971 5.7952509 10776141
-2.0211856 0.53994465 6.761126 10776142
-1.9547236 0.53994465 6.761126 11366733
-1.8882613 0.53994465 6.761126 11498060
-1.8217992 0.53994465 6.761126 11565136
0 0 0 11433042
0 0 0 9202268
0 0 0 3283212
0 0 0 1312270
-0.20783558 0.07534112 0.94341296 1114891
-0.18561211 0.070427567 0.88188601 1049870
-0.17317837 0.068929106 0.86312246 1312270
-0.16469385 0.068929106 0.86312246 1050638
-0.15620932 0.068929106 0.86312246 1115661
-0.14772478 0.068929106 0.86312246 1180684
-0.13924025 0.068929106 0.86312246 1115661
-0.13075572 0.068929106 0.86312246 1115661
-0.12492926 0.070427567 0.88188601 1115663
-0.11378665 0.068929106 0.86312246 1181454
-0.10530212 0.068929106 0.86312246 1115661
-0.09681759 0.068929106 0.86312246 1246477
-0.088333055 0.068929106 0.86312246 1180684
-0.075057611 0.064793363 0.81133515 1115661
-0.064502068 0.062301312 0.78012997 3218980
-0.056833357 0.062301312 0.78012997 3153698
-0.049164645 0.062301312 0.78012997 3351079
-0.041495934 0.062301312 0.78012997 2431003
-0.033827219 0.062301312 0.78012997 1049868
-0.026671419 0.063522905 0.79542661 918284
-0.019229386 0.064793363 0.81133515 1049355
-0.01103326 0.063522905 0.79542661 1180685
-0.0030928911 0.061125811 0.76541048 1114891
0.0045163427 0.062301312 0.78012997 1246731
0.012672457 0.064793363 0.81133515 1312524
0.021069305 0.066115677 0.82789302 1443599
0.02920753 0.066115677 0.82789302 1444110
0.038934935 0.068929106 0.86312246 1707025
0.049527001 0.071992621 0.90148348 1509646
0.059715636 0.07362882 0.92197174 1772048
0.068778664 0.07362882 0.92197174 1837841
0.08154843 0.077134952 0.96587515 1640461
0 0 0 1443599
0 0 0 1313294
0 0 0 1181454
0 0 0 1115915
0 0 0 1115148
0 0 0 1049611
0 0 0 1114893
0 0 0 852491
0 0 0 1114891
0 0 0 1049357
0.86794865 0.35996315 4.5074177 787211
0.63156235 0.24920525 3.1205199 918025
0.66223723 0.24920525 3.1205199 721674
0.6929121 0.24920525 3.1205199 852489
0.72358692 0.24920525 3.1205199 852489
0.75426179 0.24920525 3.1205199 853261
0.850348 0.26997232 3.380563 983305
0.88357908 0.26997232 3.380563 853259
0.91681015 0.26997232 3.380563 852489
0 0 0 984074
0 0 0 984333
0.46915543 0.12460262 1.5602599 3217432
0.52486724 0.13498616 1.6902815 4860703
0.86637247 0.21597786 2.7044504 9331788
0.89295733 0.21597786 2.7044504 10317139
0.91954219 0.21597786 2.7044504 10776918
0.83481801 0.19056872 2.3862798 11303001
0.81059337 0.17998157 2.2537088 11828830
0.74947268 0.16198342 2.028338 12025436
0.76941133 0.16198342 2.028338 12155997
0.87705553 0.17998157 2.2537088 11630426
0 0 0 1640715
0 0 0 1181454
0 0 0 1115915
0 0 0 918282
0 0 0 1114891
0.90898186 0.16198342 2.028338 918536
0.77410042 0.13498616 1.6902815 918282
0.75908732 0.12958673 1.6226703 852489
0.77503824 0.12958673 1.6226703 918282
0.79098916 0.12958673 1.6226703 852489
0.80694008 0.12958673 1.6226703 852489
0.85717809 0.13498616 1.6902815 983305
0.95322943 0.14725764 1.8439435 721418
1.0176105 0.1542699 1.9317503 721673
1.0365998 0.1542699 1.9317503 655880
1.0555888 0.1542699 1.9317503 852489
1.074578 0.1542699 1.9317503 918282
1.1482457 0.16198342 2.028338 1049612
1.2296677 0.17050885 2.1350925 853001
1.2506558 0.17050885 2.1350925 1114890
1.2080617 0.16198342 2.028338 1115148
1.1695241 0.1542699 1.9317503 852489
1.1885133 0.1542699 1.9317503 852489
1.2075025 0.1542699 1.9317503 1049098
1.2264916 0.1542699 1.9317503 1049609
1.2454808 0.1542699 1.9317503 787981
1.26447 0.1542699 1.9317503 853260
1.2834592 0.1542699 1.9317503 1181454
1.3675709 0.16198342 2.028338 1246479
1.3875096 0.16198342 2.028338 1049870
1.4074482 0.16198342 2.028338 1246477
1.359416 0.1542699 1.9317503 853004
1.2585438 0.14085513 1.763772 1114893
1.2758818 0.14085513 1.763772 1180685
1.3520025 0.14725764 1.8439435 2100754
1.4353727 0.1542699 1.9317503 6832435
1.4543619 0.1542699 1.9317503 7294528
1.4733511 0.1542699 1.9317503 8016970
1.4923403 0.1542699 1.9317503 8215378
1.5113295 0.1542699 1.9317503 8149329
1.5303187 0.1542699 1.9317503 7426634
1.5493079 0.1542699 1.9317503 7623242
1.4970108 0.14725764 1.8439435 6966854
1.3888755 0.13498616 1.6902815 7623499
1.405491 0.13498616 1.6902815 4334372
1.4839373 0.14085513 1.763772 2888214
1.5695151 0.14725764 1.8439435 2033936
1.7464054 0.16198342 2.028338 787214
0 0 0 720906
0 0 0 851979
1.9012855 0.17050885 2.1350925 721421
2.0290666 0.17998157 2.2537088 852237
1.9432616 0.17050885 2.1350925 787468
2.0733747 0.17998157 2.2537088 852491
1.7961674 0.1542699 1.9317503 918284
1.8151566 0.1542699 1.9317503 853004
1.7507756 0.14725764 1.8439435 852747
1.7689016 0.14725764 1.8439435 984077
1.7870276 0.14725764 1.8439435 918284
1.6547242 0.13498616 1.6902815 918284
1.6713398 0.13498616 1.6902815 787211
1.6879553 0.13498616 1.6902815 721932
1.6363881 0.12958673 1.6226703 852748
1.652339 0.12958673 1.6226703 1049868
1.6682899 0.12958673 1.6226703 852746
1.7544174 0.13498616 1.6902815 1049870
1.7710329 0.13498616 1.6902815 984330
